ply
format ascii 1.0
comment PCL generated
element vertex 1586
property float x
property float y
property float z
element camera 0
property float view_px
property float view_py
property float view_pz
property float x_axisx
property float x_axisy
property float x_axisz
property float y_axisx
property float y_axisy
property float y_axisz
property float z_axisx
property float z_axisy
property float z_axisz
property float focal
property float scalex
property float scaley
property float centerx
property float centery
property int viewportx
property int viewporty
property float k1
property float k2
end_header
20.051197 1462.8142 84.498047
25.0639 1462.8142 84.498047
30.076605 1462.8142 84.498047
35.089497 1462.8142 84.498047
40.102203 1462.8142 84.498047
45.115097 1462.8142 84.498047
50.1278 1462.8142 84.498047
55.140507 1462.8142 84.498047
60.1534 1462.8142 84.498047
65.1661 1462.8142 84.498047
70.178993 1462.8142 84.498047
75.822906 1456.458 107.87256
80.877686 1456.458 107.87256
85.932655 1456.458 107.87256
91.776451 1449.8369 132.22119
96.875259 1449.8369 132.22119
102.85054 1443.2158 156.56982
108.91348 1436.5947 180.91846
114.09996 1436.5947 180.91846
120.33474 1429.7089 206.24072
125.5668 1429.7089 206.24072
129.65901 1436.5947 180.91846
134.84529 1436.5947 180.91846
140.03175 1436.5947 180.91846
145.21805 1436.5947 180.91846
150.40451 1436.5947 180.91846
-68.015266 1424.8928 204.19653
-62.783401 1424.8928 204.19653
-57.551434 1424.8928 204.19653
-51.863602 1431.8206 178.89185
-46.677223 1431.8206 178.89185
-41.490841 1431.8206 178.89185
-36.304562 1431.8206 178.89185
-30.855181 1438.4821 154.5603
-25.712635 1438.4821 154.5603
-20.570087 1438.4821 154.5603
-15.427542 1438.4821 154.5603
-10.109758 1451.8049 105.89746
-5.0548792 1451.8049 105.89746
0 1451.8049 105.89746
5.0547829 1451.8049 105.89746
10.025599 1458.1998 82.539307
15.038302 1458.1998 82.539307
20.051197 1458.1998 82.539307
25.0639 1458.1998 82.539307
30.076605 1458.1998 82.539307
35.089497 1458.1998 82.539307
40.102203 1458.1998 82.539307
45.115097 1458.1998 82.539307
50.1278 1458.1998 82.539307
55.140507 1458.1998 82.539307
60.658363 1451.8049 105.89746
65.713142 1451.8049 105.89746
70.76812 1451.8049 105.89746
75.822906 1451.8049 105.89746
80.877686 1451.8049 105.89746
86.677826 1445.1436 130.229
91.776451 1445.1436 130.229
97.708092 1438.4821 154.5603
103.7272 1431.8206 178.89185
108.91348 1431.8206 178.89185
114.09996 1431.8206 178.89185
119.28625 1431.8206 178.89185
124.47272 1431.8206 178.89185
129.65901 1431.8206 178.89185
134.84529 1431.8206 178.89185
140.03175 1431.8206 178.89185
145.21805 1431.8206 178.89185
150.40451 1431.8206 178.89185
-73.885452 1413.1069 227.43896
-68.015266 1420.0768 202.15234
-62.783401 1420.0768 202.15234
-57.551434 1420.0768 202.15234
-51.863602 1427.0466 176.86548
-46.677223 1427.0466 176.86548
-41.140175 1433.7484 152.55103
-35.997726 1433.7484 152.55103
-30.855181 1433.7484 152.55103
-25.712635 1433.7484 152.55103
-20.570087 1433.7484 152.55103
-15.427542 1433.7484 152.55103
-10.197426 1440.4502 128.23682
-5.0548792 1447.152 103.92236
0 1447.152 103.92236
5.0547829 1447.152 103.92236
10.109758 1447.152 103.92236
15.164542 1447.152 103.92236
20.051197 1453.5856 80.580811
25.0639 1453.5856 80.580811
30.076605 1453.5856 80.580811
35.089497 1453.5856 80.580811
40.102203 1453.5856 80.580811
45.115097 1453.5856 80.580811
50.1278 1453.5856 80.580811
55.140507 1453.5856 80.580811
60.658363 1447.152 103.92236
65.713142 1447.152 103.92236
70.76812 1447.152 103.92236
75.822906 1447.152 103.92236
81.579018 1440.4502 128.23682
86.677826 1440.4502 128.23682
92.565445 1433.7484 152.55103
98.540924 1427.0466 176.86548
103.7272 1427.0466 176.86548
108.91348 1427.0466 176.86548
114.09996 1427.0466 176.86548
119.28625 1427.0466 176.86548
124.47272 1427.0466 176.86548
129.65901 1427.0466 176.86548
134.84529 1427.0466 176.86548
140.03175 1427.0466 176.86548
145.21805 1427.0466 176.86548
150.40451 1427.0466 176.86548
155.59081 1427.0466 176.86548
-79.163002 1408.2489 225.37695
-73.885452 1408.2489 225.37695
-68.015266 1415.2607 200.10791
-62.783401 1415.2607 200.10791
-57.04998 1422.2725 174.83887
-51.863602 1422.2725 174.83887
-46.282722 1429.0146 150.54175
-41.140175 1429.0146 150.54175
-35.997726 1429.0146 150.54175
-30.855181 1429.0146 150.54175
-25.712635 1429.0146 150.54175
-20.570087 1429.0146 150.54175
-15.427542 1429.0146 150.54175
-10.197426 1435.7568 126.24438
-5.0987129 1435.7568 126.24438
0 1435.7568 126.24438
5.0547829 1442.499 101.94727
10.109758 1442.499 101.94727
15.164542 1442.499 101.94727
20.051197 1448.9713 78.62207
25.0639 1448.9713 78.62207
30.076605 1448.9713 78.62207
35.089497 1448.9713 78.62207
40.102203 1448.9713 78.62207
45.115097 1448.9713 78.62207
50.548603 1442.499 101.94727
55.603386 1442.499 101.94727
60.658363 1442.499 101.94727
65.713142 1442.499 101.94727
70.76812 1442.499 101.94727
76.4804 1435.7568 126.24438
81.579018 1435.7568 126.24438
87.422989 1429.0146 150.54175
93.354446 1422.2725 174.83887
98.540924 1422.2725 174.83887
104.63894 1415.2607 200.10791
108.91348 1422.2725 174.83887
114.09996 1422.2725 174.83887
119.28625 1422.2725 174.83887
124.47272 1422.2725 174.83887
129.65901 1422.2725 174.83887
134.84529 1422.2725 174.83887
140.03175 1422.2725 174.83887
145.21805 1422.2725 174.83887
150.40451 1422.2725 174.83887
155.59081 1422.2725 174.83887
-79.163002 1403.3909 223.31494
-73.247231 1410.4447 198.06372
-68.015266 1410.4447 198.06372
-62.236362 1417.4984 172.8125
-56.567814 1424.281 148.53247
-51.42527 1424.281 148.53247
-46.282722 1424.281 148.53247
-41.140175 1424.281 148.53247
-35.997726 1424.281 148.53247
-30.855181 1424.281 148.53247
-25.712635 1424.281 148.53247
-20.570087 1424.281 148.53247
-15.427542 1424.281 148.53247
-10.285093 1424.281 148.53247
-5.0987129 1431.0635 124.2522
0 1431.0635 124.2522
5.0547829 1437.8459 99.972168
10.109758 1437.8459 99.972168
15.164542 1437.8459 99.972168
20.219517 1437.8459 99.972168
25.274302 1437.8459 99.972168
30.329084 1437.8459 99.972168
35.38406 1437.8459 99.972168
40.102203 1444.3571 76.66333
45.115097 1444.3571 76.66333
50.548603 1437.8459 99.972168
55.603386 1437.8459 99.972168
60.658363 1437.8459 99.972168
65.713142 1437.8459 99.972168
70.76812 1437.8459 99.972168
76.4804 1431.0635 124.2522
82.28035 1424.281 148.53247
87.422989 1424.281 148.53247
93.354446 1417.4984 172.8125
98.540924 1417.4984 172.8125
103.7272 1417.4984 172.8125
108.91348 1417.4984 172.8125
114.09996 1417.4984 172.8125
119.28625 1417.4984 172.8125
124.47272 1417.4984 172.8125
129.65901 1417.4984 172.8125
136.03053 1410.4447 198.06372
141.2626 1410.4447 198.06372
146.49446 1410.4447 198.06372
153.04855 1403.3909 223.31494
158.326 1403.3909 223.31494
-89.718109 1398.533 221.25269
-84.440552 1398.533 221.25269
-79.163002 1398.533 221.25269
-73.247231 1405.6287 196.01929
-68.015266 1405.6287 196.01929
-62.236362 1412.7244 170.78613
-56.567814 1419.5472 146.52295
-51.42527 1419.5472 146.52295
-46.282722 1419.5472 146.52295
-41.140175 1419.5472 146.52295
-35.997726 1419.5472 146.52295
-30.855181 1419.5472 146.52295
-25.712635 1419.5472 146.52295
-20.570087 1419.5472 146.52295
-15.427542 1419.5472 146.52295
-10.285093 1419.5472 146.52295
-5.0987129 1426.3701 122.26001
0 1426.3701 122.26001
5.0986156 1426.3701 122.26001
10.109758 1433.1929 97.99707
15.164542 1433.1929 97.99707
20.219517 1433.1929 97.99707
25.274302 1433.1929 97.99707
30.329084 1433.1929 97.99707
35.38406 1433.1929 97.99707
40.438843 1433.1929 97.99707
45.493816 1433.1929 97.99707
50.548603 1433.1929 97.99707
55.603386 1433.1929 97.99707
60.658363 1433.1929 97.99707
65.713142 1433.1929 97.99707
71.381783 1426.3701 122.26001
76.4804 1426.3701 122.26001
82.28035 1419.5472 146.52295
87.422989 1419.5472 146.52295
93.354446 1412.7244 170.78613
98.540924 1412.7244 170.78613
103.7272 1412.7244 170.78613
108.91348 1412.7244 170.78613
114.09996 1412.7244 170.78613
119.28625 1412.7244 170.78613
125.5668 1405.6287 196.01929
130.79868 1405.6287 196.01929
136.03053 1405.6287 196.01929
141.2626 1405.6287 196.01929
147.7709 1398.533 221.25269
153.04855 1398.533 221.25269
159.7462 1391.1643 247.45654
-100.27312 1393.6749 219.19067
-94.99556 1393.6749 219.19067
-88.943138 1400.8127 193.9751
-83.711174 1400.8127 193.9751
-78.479202 1400.8127 193.9751
-73.247231 1400.8127 193.9751
-68.015266 1400.8127 193.9751
-62.783401 1400.8127 193.9751
-57.04998 1407.9503 168.75952
-51.42527 1414.8135 144.51367
-46.282722 1414.8135 144.51367
-41.140175 1414.8135 144.51367
-35.997726 1414.8135 144.51367
-30.855181 1414.8135 144.51367
-25.712635 1414.8135 144.51367
-20.570087 1414.8135 144.51367
-15.427542 1414.8135 144.51367
-10.285093 1414.8135 144.51367
-5.0987129 1421.6768 120.26782
0 1421.6768 120.26782
5.0986156 1421.6768 120.26782
10.197426 1421.6768 120.26782
15.164542 1428.5399 96.021973
20.219517 1428.5399 96.021973
25.274302 1428.5399 96.021973
30.329084 1428.5399 96.021973
35.38406 1428.5399 96.021973
40.438843 1428.5399 96.021973
45.493816 1428.5399 96.021973
50.548603 1428.5399 96.021973
55.603386 1428.5399 96.021973
60.658363 1428.5399 96.021973
65.713142 1428.5399 96.021973
71.381783 1421.6768 120.26782
76.4804 1421.6768 120.26782
82.28035 1414.8135 144.51367
88.168159 1407.9503 168.75952
93.354446 1407.9503 168.75952
98.540924 1407.9503 168.75952
103.7272 1407.9503 168.75952
108.91348 1407.9503 168.75952
114.09996 1407.9503 168.75952
119.28625 1407.9503 168.75952
125.5668 1400.8127 193.9751
130.79868 1400.8127 193.9751
136.03053 1400.8127 193.9751
142.49345 1393.6749 219.19067
147.7709 1393.6749 219.19067
153.04855 1393.6749 219.19067
159.7462 1386.2628 245.37598
165.071 1386.2628 245.37598
-105.55067 1388.817 217.12866
-100.27312 1388.817 217.12866
-94.99556 1388.817 217.12866
-88.943138 1395.9967 191.93091
-83.711174 1395.9967 191.93091
-78.479202 1395.9967 191.93091
-73.247231 1395.9967 191.93091
-68.015266 1395.9967 191.93091
-62.783401 1395.9967 191.93091
-57.04998 1403.1763 166.73315
-51.863602 1403.1763 166.73315
-46.677223 1403.1763 166.73315
-41.140175 1410.0798 142.50439
-35.997726 1410.0798 142.50439
-30.855181 1410.0798 142.50439
-25.712635 1410.0798 142.50439
-20.570087 1410.0798 142.50439
-15.559041 1403.1763 166.73315
-10.285093 1410.0798 142.50439
-5.1425467 1410.0798 142.50439
0 1416.9834 118.27563
5.0986156 1416.9834 118.27563
10.197426 1416.9834 118.27563
15.164542 1423.8868 94.046875
20.219517 1423.8868 94.046875
25.274302 1423.8868 94.046875
30.329084 1423.8868 94.046875
35.38406 1423.8868 94.046875
40.438843 1423.8868 94.046875
45.493816 1423.8868 94.046875
50.548603 1423.8868 94.046875
55.603386 1423.8868 94.046875
60.658363 1423.8868 94.046875
66.282974 1416.9834 118.27563
71.381783 1416.9834 118.27563
77.137901 1410.0798 142.50439
82.28035 1410.0798 142.50439
88.168159 1403.1763 166.73315
93.354446 1403.1763 166.73315
98.540924 1403.1763 166.73315
103.7272 1403.1763 166.73315
108.91348 1403.1763 166.73315
114.09996 1403.1763 166.73315
119.28625 1403.1763 166.73315
125.5668 1395.9967 191.93091
130.79868 1395.9967 191.93091
136.03053 1395.9967 191.93091
142.49345 1388.817 217.12866
147.7709 1388.817 217.12866
153.04855 1388.817 217.12866
158.326 1388.817 217.12866
165.071 1381.3612 243.29541
170.396 1381.3612 243.29541
175.72078 1381.3612 243.29541
-126.66079 1383.959 215.06641
-121.38322 1383.959 215.06641
-116.10578 1383.959 215.06641
-110.82822 1383.959 215.06641
-105.55067 1383.959 215.06641
-100.27312 1383.959 215.06641
-94.99556 1383.959 215.06641
-88.943138 1391.1807 189.88647
-83.711174 1391.1807 189.88647
-78.479202 1391.1807 189.88647
-73.247231 1391.1807 189.88647
-68.015266 1391.1807 189.88647
-62.783401 1391.1807 189.88647
-57.551434 1391.1807 189.88647
-52.319469 1391.1807 189.88647
-46.677223 1398.4022 164.70654
-41.490841 1398.4022 164.70654
-35.997726 1405.3461 140.49512
-30.855181 1405.3461 140.49512
-25.712635 1405.3461 140.49512
-20.570087 1405.3461 140.49512
-15.559041 1398.4022 164.70654
-10.285093 1405.3461 140.49512
-5.0987129 1412.29 116.28345
0 1412.29 116.28345
5.0986156 1412.29 116.28345
10.197426 1412.29 116.28345
15.296041 1412.29 116.28345
20.219517 1419.2339 92.071777
25.274302 1419.2339 92.071777
30.329084 1419.2339 92.071777
35.38406 1419.2339 92.071777
40.438843 1419.2339 92.071777
45.493816 1419.2339 92.071777
50.986935 1412.29 116.28345
56.085552 1412.29 116.28345
61.184364 1412.29 116.28345
66.282974 1412.29 116.28345
71.381783 1412.29 116.28345
77.137901 1405.3461 140.49512
82.28035 1405.3461 140.49512
87.422989 1405.3461 140.49512
92.565445 1405.3461 140.49512
98.540924 1398.4022 164.70654
103.7272 1398.4022 164.70654
108.91348 1398.4022 164.70654
114.09996 1398.4022 164.70654
119.28625 1398.4022 164.70654
125.5668 1391.1807 189.88647
130.79868 1391.1807 189.88647
136.03053 1391.1807 189.88647
142.49345 1383.959 215.06641
147.7709 1383.959 215.06641
153.04855 1383.959 215.06641
158.326 1383.959 215.06641
163.60345 1383.959 215.06641
168.8811 1383.959 215.06641
174.15857 1383.959 215.06641
177.88628 1391.1807 189.88647
183.11813 1391.1807 189.88647
-138.44673 1371.5581 239.13428
-131.93834 1379.101 213.00439
-126.66079 1379.101 213.00439
-121.38322 1379.101 213.00439
-116.10578 1379.101 213.00439
-110.82822 1379.101 213.00439
-105.55067 1379.101 213.00439
-100.27312 1379.101 213.00439
-94.175003 1386.3646 187.84229
-88.943138 1386.3646 187.84229
-83.711174 1386.3646 187.84229
-78.479202 1386.3646 187.84229
-73.247231 1386.3646 187.84229
-68.015266 1386.3646 187.84229
-62.783401 1386.3646 187.84229
-57.04998 1393.6282 162.68018
-51.863602 1393.6282 162.68018
-46.677223 1393.6282 162.68018
-41.140175 1400.6123 138.4856
-35.997726 1400.6123 138.4856
-30.855181 1400.6123 138.4856
-25.712635 1400.6123 138.4856
-20.570087 1400.6123 138.4856
-15.559041 1393.6282 162.68018
-10.285093 1400.6123 138.4856
-5.0987129 1407.5967 114.29126
0 1407.5967 114.29126
5.0986156 1407.5967 114.29126
10.197426 1407.5967 114.29126
15.296041 1407.5967 114.29126
20.394852 1407.5967 114.29126
25.493467 1407.5967 114.29126
30.592083 1407.5967 114.29126
35.690891 1407.5967 114.29126
40.789509 1407.5967 114.29126
45.888317 1407.5967 114.29126
50.986935 1407.5967 114.29126
56.085552 1407.5967 114.29126
61.184364 1407.5967 114.29126
66.282974 1407.5967 114.29126
71.995453 1400.6123 138.4856
77.137901 1400.6123 138.4856
82.28035 1400.6123 138.4856
87.422989 1400.6123 138.4856
92.565445 1400.6123 138.4856
97.708092 1400.6123 138.4856
103.7272 1393.6282 162.68018
108.91348 1393.6282 162.68018
114.09996 1393.6282 162.68018
119.28625 1393.6282 162.68018
125.5668 1386.3646 187.84229
130.79868 1386.3646 187.84229
136.03053 1386.3646 187.84229
142.49345 1379.101 213.00439
147.7709 1379.101 213.00439
153.04855 1379.101 213.00439
158.326 1379.101 213.00439
163.60345 1379.101 213.00439
168.8811 1379.101 213.00439
174.15857 1379.101 213.00439
177.88628 1386.3646 187.84229
183.11813 1386.3646 187.84229
189.99112 1379.101 213.00439
195.26877 1379.101 213.00439
212.99493 1371.5581 239.13428
218.31973 1371.5581 239.13428
-149.09642 1366.6565 237.05371
-142.49345 1374.243 210.94238
-137.21588 1374.243 210.94238
-131.93834 1374.243 210.94238
-126.66079 1374.243 210.94238
-120.33474 1381.5486 185.79785
-115.10287 1381.5486 185.79785
-110.82822 1374.243 210.94238
-104.63894 1381.5486 185.79785
-99.406967 1381.5486 185.79785
-94.175003 1381.5486 185.79785
-88.943138 1381.5486 185.79785
-83.711174 1381.5486 185.79785
-78.479202 1381.5486 185.79785
-73.247231 1381.5486 185.79785
-68.015266 1381.5486 185.79785
-62.783401 1381.5486 185.79785
-57.04998 1388.854 160.65356
-51.863602 1388.854 160.65356
-46.677223 1388.854 160.65356
-41.140175 1395.8787 136.47632
-35.997726 1395.8787 136.47632
-30.855181 1395.8787 136.47632
-25.712635 1395.8787 136.47632
-20.570087 1395.8787 136.47632
-15.427542 1395.8787 136.47632
-10.197426 1402.9032 112.29907
-5.0987129 1402.9032 112.29907
0 1402.9032 112.29907
5.0986156 1402.9032 112.29907
10.197426 1402.9032 112.29907
15.296041 1402.9032 112.29907
20.394852 1402.9032 112.29907
25.493467 1402.9032 112.29907
30.592083 1402.9032 112.29907
35.690891 1402.9032 112.29907
40.789509 1402.9032 112.29907
45.888317 1402.9032 112.29907
50.986935 1402.9032 112.29907
56.085552 1402.9032 112.29907
61.184364 1402.9032 112.29907
66.282974 1402.9032 112.29907
71.995453 1395.8787 136.47632
77.137901 1395.8787 136.47632
82.28035 1395.8787 136.47632
87.422989 1395.8787 136.47632
92.565445 1395.8787 136.47632
97.708092 1395.8787 136.47632
103.7272 1388.854 160.65356
108.91348 1388.854 160.65356
114.09996 1388.854 160.65356
119.28625 1388.854 160.65356
124.47272 1388.854 160.65356
130.79868 1381.5486 185.79785
136.03053 1381.5486 185.79785
142.49345 1374.243 210.94238
147.7709 1374.243 210.94238
153.04855 1374.243 210.94238
158.326 1374.243 210.94238
163.60345 1374.243 210.94238
168.8811 1374.243 210.94238
174.15857 1374.243 210.94238
177.88628 1381.5486 185.79785
183.11813 1381.5486 185.79785
189.99112 1374.243 210.94238
195.26877 1374.243 210.94238
200.54623 1374.243 210.94238
205.8239 1374.243 210.94238
212.99493 1366.6565 237.05371
218.31973 1366.6565 237.05371
225.63301 1359.0699 263.16528
-154.42131 1361.7549 234.9729
-147.7709 1369.3849 208.88013
-142.49345 1369.3849 208.88013
-137.21588 1369.3849 208.88013
-131.93834 1369.3849 208.88013
-125.5667 1376.7325 183.75366
-120.33474 1376.7325 183.75366
-115.10287 1376.7325 183.75366
-109.87091 1376.7325 183.75366
-104.63894 1376.7325 183.75366
-99.406967 1376.7325 183.75366
-93.354446 1384.08 158.6272
-88.168159 1384.08 158.6272
-82.981789 1384.08 158.6272
-78.479202 1376.7325 183.75366
-73.247231 1376.7325 183.75366
-68.015266 1376.7325 183.75366
-62.783401 1376.7325 183.75366
-57.04998 1384.08 158.6272
-51.863602 1384.08 158.6272
-46.677223 1384.08 158.6272
-41.490841 1384.08 158.6272
-36.304562 1384.08 158.6272
-30.855181 1391.1449 134.46704
-25.712635 1391.1449 134.46704
-20.570087 1391.1449 134.46704
-15.427542 1391.1449 134.46704
-10.197426 1398.2098 110.30664
-5.0987129 1398.2098 110.30664
0 1398.2098 110.30664
5.0986156 1398.2098 110.30664
10.197426 1398.2098 110.30664
15.296041 1398.2098 110.30664
20.394852 1398.2098 110.30664
25.493467 1398.2098 110.30664
30.592083 1398.2098 110.30664
35.690891 1398.2098 110.30664
40.789509 1398.2098 110.30664
45.888317 1398.2098 110.30664
51.42527 1391.1449 134.46704
56.567715 1391.1449 134.46704
61.710361 1391.1449 134.46704
66.852806 1391.1449 134.46704
71.995453 1391.1449 134.46704
77.137901 1391.1449 134.46704
82.28035 1391.1449 134.46704
87.422989 1391.1449 134.46704
92.565445 1391.1449 134.46704
97.708092 1391.1449 134.46704
103.7272 1384.08 158.6272
107.99298 1391.1449 134.46704
113.13563 1391.1449 134.46704
119.28625 1384.08 158.6272
124.47272 1384.08 158.6272
129.65901 1384.08 158.6272
136.03053 1376.7325 183.75366
141.2626 1376.7325 183.75366
146.49446 1376.7325 183.75366
153.04855 1369.3849 208.88013
156.9584 1376.7325 183.75366
162.19028 1376.7325 183.75366
167.42235 1376.7325 183.75366
172.65421 1376.7325 183.75366
179.43622 1369.3849 208.88013
184.71367 1369.3849 208.88013
189.99112 1369.3849 208.88013
195.26877 1369.3849 208.88013
200.54623 1369.3849 208.88013
205.8239 1369.3849 208.88013
211.10133 1369.3849 208.88013
218.31973 1361.7549 234.9729
223.64473 1361.7549 234.9729
228.96953 1361.7549 234.9729
234.29451 1361.7549 234.9729
-154.42131 1356.8533 232.89233
-147.7709 1364.527 206.81812
-142.49345 1364.527 206.81812
-137.21588 1364.527 206.81812
-131.93834 1364.527 206.81812
-125.5667 1371.9165 181.70947
-120.33474 1371.9165 181.70947
-115.10287 1371.9165 181.70947
-109.87091 1371.9165 181.70947
-104.63894 1371.9165 181.70947
-99.406967 1371.9165 181.70947
-93.354446 1379.3059 156.60059
-88.168159 1379.3059 156.60059
-82.981789 1379.3059 156.60059
-77.795403 1379.3059 156.60059
-72.609024 1379.3059 156.60059
-68.015266 1371.9165 181.70947
-62.783401 1371.9165 181.70947
-57.551434 1371.9165 181.70947
-52.319469 1371.9165 181.70947
-46.677223 1379.3059 156.60059
-41.490841 1379.3059 156.60059
-36.304562 1379.3059 156.60059
-30.855181 1386.4111 132.45752
-25.712635 1386.4111 132.45752
-20.570087 1386.4111 132.45752
-15.427542 1386.4111 132.45752
-10.197426 1393.5165 108.31445
-5.0987129 1393.5165 108.31445
0 1393.5165 108.31445
5.0986156 1393.5165 108.31445
10.197426 1393.5165 108.31445
15.296041 1393.5165 108.31445
20.394852 1393.5165 108.31445
25.493467 1393.5165 108.31445
30.592083 1393.5165 108.31445
35.690891 1393.5165 108.31445
40.789509 1393.5165 108.31445
45.888317 1393.5165 108.31445
51.42527 1386.4111 132.45752
56.085552 1393.5165 108.31445
61.184364 1393.5165 108.31445
66.282974 1393.5165 108.31445
71.995453 1386.4111 132.45752
77.137901 1386.4111 132.45752
82.28035 1386.4111 132.45752
87.422989 1386.4111 132.45752
92.565445 1386.4111 132.45752
97.708092 1386.4111 132.45752
102.85054 1386.4111 132.45752
107.99298 1386.4111 132.45752
113.13563 1386.4111 132.45752
119.28625 1379.3059 156.60059
124.47272 1379.3059 156.60059
129.65901 1379.3059 156.60059
136.03053 1371.9165 181.70947
141.2626 1371.9165 181.70947
146.49446 1371.9165 181.70947
151.72653 1371.9165 181.70947
156.9584 1371.9165 181.70947
162.19028 1371.9165 181.70947
167.42235 1371.9165 181.70947
172.65421 1371.9165 181.70947
179.43622 1364.527 206.81812
184.71367 1364.527 206.81812
189.99112 1364.527 206.81812
195.26877 1364.527 206.81812
200.54623 1364.527 206.81812
205.8239 1364.527 206.81812
211.10133 1364.527 206.81812
218.31973 1356.8533 232.89233
223.64473 1356.8533 232.89233
228.96953 1356.8533 232.89233
234.29451 1356.8533 232.89233
239.61931 1356.8533 232.89233
-165.07111 1351.9518 230.81177
-158.326 1359.6689 204.7561
-153.04846 1359.6689 204.7561
-147.7709 1359.6689 204.7561
-142.49345 1359.6689 204.7561
-137.21588 1359.6689 204.7561
-131.93834 1359.6689 204.7561
-125.5667 1367.1005 179.66504
-120.33474 1367.1005 179.66504
-115.10287 1367.1005 179.66504
-109.87091 1367.1005 179.66504
-104.63894 1367.1005 179.66504
-99.406967 1367.1005 179.66504
-93.354446 1374.5317 154.57422
-88.168159 1374.5317 154.57422
-82.981789 1374.5317 154.57422
-77.795403 1374.5317 154.57422
-72.609024 1374.5317 154.57422
-67.422646 1374.5317 154.57422
-62.783401 1367.1005 179.66504
-57.551434 1367.1005 179.66504
-52.319469 1367.1005 179.66504
-47.087502 1367.1005 179.66504
-41.855534 1367.1005 179.66504
-36.304562 1374.5317 154.57422
-30.855181 1381.6775 130.44824
-25.712635 1381.6775 130.44824
-20.570087 1381.6775 130.44824
-15.427542 1381.6775 130.44824
-10.197426 1388.823 106.32227
-5.0987129 1388.823 106.32227
0 1388.823 106.32227
5.0986156 1388.823 106.32227
10.197426 1388.823 106.32227
15.296041 1388.823 106.32227
20.394852 1388.823 106.32227
25.493467 1388.823 106.32227
30.592083 1388.823 106.32227
35.690891 1388.823 106.32227
40.789509 1388.823 106.32227
45.888317 1388.823 106.32227
51.42527 1381.6775 130.44824
56.085552 1388.823 106.32227
61.184364 1388.823 106.32227
66.282974 1388.823 106.32227
71.995453 1381.6775 130.44824
77.137901 1381.6775 130.44824
82.28035 1381.6775 130.44824
86.677826 1388.823 106.32227
91.776451 1388.823 106.32227
97.708092 1381.6775 130.44824
102.85054 1381.6775 130.44824
107.99298 1381.6775 130.44824
113.13563 1381.6775 130.44824
119.28625 1374.5317 154.57422
124.47272 1374.5317 154.57422
129.65901 1374.5317 154.57422
134.84529 1374.5317 154.57422
141.2626 1367.1005 179.66504
146.49446 1367.1005 179.66504
151.72653 1367.1005 179.66504
156.9584 1367.1005 179.66504
162.19028 1367.1005 179.66504
167.42235 1367.1005 179.66504
174.15857 1359.6689 204.7561
179.43622 1359.6689 204.7561
184.71367 1359.6689 204.7561
189.99112 1359.6689 204.7561
195.26877 1359.6689 204.7561
200.54623 1359.6689 204.7561
205.8239 1359.6689 204.7561
211.10133 1359.6689 204.7561
218.31973 1351.9518 230.81177
223.64473 1351.9518 230.81177
228.96953 1351.9518 230.81177
234.29451 1351.9518 230.81177
237.48901 1359.6689 204.7561
242.76645 1359.6689 204.7561
-168.8811 1354.811 202.69385
-163.60356 1354.811 202.69385
-158.326 1354.811 202.69385
-153.04846 1354.811 202.69385
-147.7709 1354.811 202.69385
-141.2626 1362.2844 177.62085
-136.03064 1362.2844 177.62085
-130.79868 1362.2844 177.62085
-125.5667 1362.2844 177.62085
-120.33474 1362.2844 177.62085
-115.10287 1362.2844 177.62085
-109.87091 1362.2844 177.62085
-104.63894 1362.2844 177.62085
-99.406967 1362.2844 177.62085
-93.354446 1369.7577 152.54785
-88.168159 1369.7577 152.54785
-82.981789 1369.7577 152.54785
-77.795403 1369.7577 152.54785
-72.609024 1369.7577 152.54785
-67.422646 1369.7577 152.54785
-62.783401 1362.2844 177.62085
-57.551434 1362.2844 177.62085
-52.319469 1362.2844 177.62085
-47.087502 1362.2844 177.62085
-41.855534 1362.2844 177.62085
-36.304562 1369.7577 152.54785
-31.118181 1369.7577 152.54785
-25.712635 1376.9437 128.43896
-20.570087 1376.9437 128.43896
-15.427542 1376.9437 128.43896
-10.197426 1384.1296 104.33008
-5.0987129 1384.1296 104.33008
0 1384.1296 104.33008
5.0986156 1384.1296 104.33008
10.197426 1384.1296 104.33008
15.296041 1384.1296 104.33008
20.394852 1384.1296 104.33008
25.493467 1384.1296 104.33008
30.592083 1384.1296 104.33008
35.690891 1384.1296 104.33008
40.789509 1384.1296 104.33008
45.888317 1384.1296 104.33008
50.986935 1384.1296 104.33008
56.085552 1384.1296 104.33008
61.184364 1384.1296 104.33008
66.282974 1384.1296 104.33008
71.381783 1384.1296 104.33008
77.137901 1376.9437 128.43896
82.28035 1376.9437 128.43896
86.677826 1384.1296 104.33008
91.776451 1384.1296 104.33008
97.708092 1376.9437 128.43896
102.85054 1376.9437 128.43896
107.99298 1376.9437 128.43896
113.13563 1376.9437 128.43896
118.27808 1376.9437 128.43896
123.42072 1376.9437 128.43896
129.65901 1369.7577 152.54785
134.84529 1369.7577 152.54785
141.2626 1362.2844 177.62085
146.49446 1362.2844 177.62085
151.72653 1362.2844 177.62085
156.9584 1362.2844 177.62085
162.19028 1362.2844 177.62085
167.42235 1362.2844 177.62085
174.15857 1354.811 202.69385
179.43622 1354.811 202.69385
184.71367 1354.811 202.69385
189.99112 1354.811 202.69385
195.26877 1354.811 202.69385
200.54623 1354.811 202.69385
205.8239 1354.811 202.69385
211.10133 1354.811 202.69385
218.31973 1347.0502 228.7312
223.64473 1347.0502 228.7312
226.93391 1354.811 202.69385
232.21156 1354.811 202.69385
237.48901 1354.811 202.69385
240.66948 1362.2844 177.62085
245.90155 1362.2844 177.62085
-179.43613 1349.953 200.63184
-172.65421 1357.4684 175.57666
-167.42235 1357.4684 175.57666
-163.60356 1349.953 200.63184
-158.326 1349.953 200.63184
-153.04846 1349.953 200.63184
-146.49446 1357.4684 175.57666
-141.2626 1357.4684 175.57666
-136.03064 1357.4684 175.57666
-130.79868 1357.4684 175.57666
-125.5667 1357.4684 175.57666
-120.33474 1357.4684 175.57666
-115.10287 1357.4684 175.57666
-109.87091 1357.4684 175.57666
-104.63894 1357.4684 175.57666
-99.406967 1357.4684 175.57666
-93.354446 1364.9836 150.52124
-88.168159 1364.9836 150.52124
-82.981789 1364.9836 150.52124
-77.795403 1364.9836 150.52124
-72.609024 1364.9836 150.52124
-67.422646 1364.9836 150.52124
-62.236362 1364.9836 150.52124
-57.04998 1364.9836 150.52124
-51.863602 1364.9836 150.52124
-46.677223 1364.9836 150.52124
-41.490841 1364.9836 150.52124
-35.997726 1372.21 126.42944
-30.855181 1372.21 126.42944
-25.712635 1372.21 126.42944
-20.570087 1372.21 126.42944
-15.427542 1372.21 126.42944
-10.197426 1379.4363 102.33789
-5.0987129 1379.4363 102.33789
0 1379.4363 102.33789
5.0986156 1379.4363 102.33789
10.197426 1379.4363 102.33789
15.296041 1379.4363 102.33789
20.394852 1379.4363 102.33789
25.493467 1379.4363 102.33789
30.592083 1379.4363 102.33789
35.690891 1379.4363 102.33789
40.789509 1379.4363 102.33789
45.888317 1379.4363 102.33789
50.986935 1379.4363 102.33789
56.085552 1379.4363 102.33789
61.184364 1379.4363 102.33789
66.282974 1379.4363 102.33789
71.381783 1379.4363 102.33789
77.137901 1372.21 126.42944
82.28035 1372.21 126.42944
87.422989 1372.21 126.42944
92.565445 1372.21 126.42944
97.708092 1372.21 126.42944
102.85054 1372.21 126.42944
107.99298 1372.21 126.42944
113.13563 1372.21 126.42944
118.27808 1372.21 126.42944
123.42072 1372.21 126.42944
129.65901 1364.9836 150.52124
134.84529 1364.9836 150.52124
141.2626 1357.4684 175.57666
146.49446 1357.4684 175.57666
151.72653 1357.4684 175.57666
156.9584 1357.4684 175.57666
162.19028 1357.4684 175.57666
167.42235 1357.4684 175.57666
172.65421 1357.4684 175.57666
179.43622 1349.953 200.63184
184.71367 1349.953 200.63184
189.99112 1349.953 200.63184
195.26877 1349.953 200.63184
200.54623 1349.953 200.63184
205.8239 1349.953 200.63184
211.10133 1349.953 200.63184
216.37878 1349.953 200.63184
221.65645 1349.953 200.63184
226.93391 1349.953 200.63184
232.21156 1349.953 200.63184
237.48901 1349.953 200.63184
240.66948 1357.4684 175.57666
245.90155 1357.4684 175.57666
259.31802 1364.9836 150.52124
-188.35011 1352.6523 173.53223
-183.11813 1352.6523 173.53223
-179.43613 1345.095 198.56982
-172.65421 1352.6523 173.53223
-167.42235 1352.6523 173.53223
-162.19038 1352.6523 173.53223
-158.326 1345.095 198.56982
-153.04846 1345.095 198.56982
-146.49446 1352.6523 173.53223
-141.2626 1352.6523 173.53223
-136.03064 1352.6523 173.53223
-130.79868 1352.6523 173.53223
-125.5667 1352.6523 173.53223
-120.33474 1352.6523 173.53223
-115.10287 1352.6523 173.53223
-109.87091 1352.6523 173.53223
-103.7272 1360.2096 148.49487
-98.540825 1360.2096 148.49487
-93.354446 1360.2096 148.49487
-88.168159 1360.2096 148.49487
-82.981789 1360.2096 148.49487
-77.795403 1360.2096 148.49487
-72.609024 1360.2096 148.49487
-67.422646 1360.2096 148.49487
-62.236362 1360.2096 148.49487
-57.04998 1360.2096 148.49487
-51.863602 1360.2096 148.49487
-46.677223 1360.2096 148.49487
-41.490841 1360.2096 148.49487
-35.997726 1367.4763 124.42017
-30.855181 1367.4763 124.42017
-25.712635 1367.4763 124.42017
-20.570087 1367.4763 124.42017
-15.427542 1367.4763 124.42017
-10.197426 1374.7429 100.3457
-5.0987129 1374.7429 100.3457
0 1374.7429 100.3457
5.0986156 1374.7429 100.3457
10.197426 1374.7429 100.3457
15.296041 1374.7429 100.3457
20.394852 1374.7429 100.3457
25.493467 1374.7429 100.3457
30.592083 1374.7429 100.3457
35.690891 1374.7429 100.3457
40.789509 1374.7429 100.3457
45.888317 1374.7429 100.3457
50.986935 1374.7429 100.3457
56.085552 1374.7429 100.3457
61.184364 1374.7429 100.3457
66.282974 1374.7429 100.3457
71.381783 1374.7429 100.3457
77.137901 1367.4763 124.42017
82.28035 1367.4763 124.42017
87.422989 1367.4763 124.42017
92.565445 1367.4763 124.42017
98.540924 1360.2096 148.49487
103.7272 1360.2096 148.49487
107.99298 1367.4763 124.42017
113.13563 1367.4763 124.42017
119.28625 1360.2096 148.49487
124.47272 1360.2096 148.49487
129.65901 1360.2096 148.49487
134.84529 1360.2096 148.49487
141.2626 1352.6523 173.53223
146.49446 1352.6523 173.53223
151.72653 1352.6523 173.53223
156.9584 1352.6523 173.53223
162.19028 1352.6523 173.53223
167.42235 1352.6523 173.53223
172.65421 1352.6523 173.53223
179.43622 1345.095 198.56982
184.71367 1345.095 198.56982
189.99112 1345.095 198.56982
195.26877 1345.095 198.56982
200.54623 1345.095 198.56982
205.8239 1345.095 198.56982
211.10133 1345.095 198.56982
216.37878 1345.095 198.56982
221.65645 1345.095 198.56982
226.93391 1345.095 198.56982
232.21156 1345.095 198.56982
237.48901 1345.095 198.56982
240.66948 1352.6523 173.53223
245.90155 1352.6523 173.53223
248.94525 1360.2096 148.49487
254.13171 1360.2096 148.49487
259.31802 1360.2096 148.49487
-188.35011 1347.8363 171.48804
-183.11813 1347.8363 171.48804
-177.88617 1347.8363 171.48804
-172.65421 1347.8363 171.48804
-167.42235 1347.8363 171.48804
-162.19038 1347.8363 171.48804
-156.9584 1347.8363 171.48804
-151.72644 1347.8363 171.48804
-146.49446 1347.8363 171.48804
-140.03175 1355.4355 146.46826
-134.84538 1355.4355 146.46826
-130.79868 1347.8363 171.48804
-125.5667 1347.8363 171.48804
-120.33474 1347.8363 171.48804
-115.10287 1347.8363 171.48804
-109.87091 1347.8363 171.48804
-103.7272 1355.4355 146.46826
-98.540825 1355.4355 146.46826
-93.354446 1355.4355 146.46826
-88.168159 1355.4355 146.46826
-82.981789 1355.4355 146.46826
-77.795403 1355.4355 146.46826
-72.609024 1355.4355 146.46826
-67.422646 1355.4355 146.46826
-62.236362 1355.4355 146.46826
-57.04998 1355.4355 146.46826
-51.863602 1355.4355 146.46826
-46.677223 1355.4355 146.46826
-41.490841 1355.4355 146.46826
-36.304562 1355.4355 146.46826
-31.118181 1355.4355 146.46826
-25.712635 1362.7426 122.41089
-20.570087 1362.7426 122.41089
-15.427542 1362.7426 122.41089
-10.197426 1370.0496 98.353516
-5.0987129 1370.0496 98.353516
0 1370.0496 98.353516
5.0986156 1370.0496 98.353516
10.197426 1370.0496 98.353516
15.296041 1370.0496 98.353516
20.394852 1370.0496 98.353516
25.493467 1370.0496 98.353516
30.592083 1370.0496 98.353516
35.690891 1370.0496 98.353516
40.789509 1370.0496 98.353516
45.888317 1370.0496 98.353516
50.986935 1370.0496 98.353516
56.085552 1370.0496 98.353516
61.184364 1370.0496 98.353516
66.282974 1370.0496 98.353516
71.381783 1370.0496 98.353516
77.137901 1362.7426 122.41089
82.28035 1362.7426 122.41089
87.422989 1362.7426 122.41089
92.565445 1362.7426 122.41089
98.540924 1355.4355 146.46826
103.7272 1355.4355 146.46826
108.91348 1355.4355 146.46826
114.09996 1355.4355 146.46826
119.28625 1355.4355 146.46826
124.47272 1355.4355 146.46826
129.65901 1355.4355 146.46826
134.84529 1355.4355 146.46826
141.2626 1347.8363 171.48804
146.49446 1347.8363 171.48804
151.72653 1347.8363 171.48804
156.9584 1347.8363 171.48804
162.19028 1347.8363 171.48804
167.42235 1347.8363 171.48804
174.15857 1340.2369 196.50757
179.43622 1340.2369 196.50757
184.71367 1340.2369 196.50757
189.99112 1340.2369 196.50757
195.26877 1340.2369 196.50757
200.54623 1340.2369 196.50757
205.8239 1340.2369 196.50757
211.10133 1340.2369 196.50757
216.37878 1340.2369 196.50757
221.65645 1340.2369 196.50757
226.93391 1340.2369 196.50757
232.21156 1340.2369 196.50757
237.48901 1340.2369 196.50757
242.76645 1340.2369 196.50757
245.90155 1347.8363 171.48804
251.13341 1347.8363 171.48804
256.36548 1347.8363 171.48804
261.59735 1347.8363 171.48804
-193.58208 1343.0203 169.4436
-188.35011 1343.0203 169.4436
-183.11813 1343.0203 169.4436
-177.88617 1343.0203 169.4436
-172.65421 1343.0203 169.4436
-167.42235 1343.0203 169.4436
-162.19038 1343.0203 169.4436
-156.9584 1343.0203 169.4436
-151.72644 1343.0203 169.4436
-145.21805 1350.6615 144.44189
-140.03175 1350.6615 144.44189
-134.84538 1350.6615 144.44189
-129.65901 1350.6615 144.44189
-125.5667 1343.0203 169.4436
-120.33474 1343.0203 169.4436
-115.10287 1343.0203 169.4436
-109.87091 1343.0203 169.4436
-103.7272 1350.6615 144.44189
-98.540825 1350.6615 144.44189
-93.354446 1350.6615 144.44189
-88.168159 1350.6615 144.44189
-82.981789 1350.6615 144.44189
-77.795403 1350.6615 144.44189
-72.609024 1350.6615 144.44189
-67.422646 1350.6615 144.44189
-62.783401 1343.0203 169.4436
-57.04998 1350.6615 144.44189
-51.863602 1350.6615 144.44189
-46.677223 1350.6615 144.44189
-41.490841 1350.6615 144.44189
-36.304562 1350.6615 144.44189
-31.118181 1350.6615 144.44189
-25.712635 1358.0088 120.40161
-20.570087 1358.0088 120.40161
-15.427542 1358.0088 120.40161
-10.197426 1365.3562 96.361328
-5.0987129 1365.3562 96.361328
0 1365.3562 96.361328
5.0986156 1365.3562 96.361328
10.197426 1365.3562 96.361328
15.296041 1365.3562 96.361328
20.394852 1365.3562 96.361328
25.493467 1365.3562 96.361328
30.592083 1365.3562 96.361328
35.690891 1365.3562 96.361328
40.789509 1365.3562 96.361328
45.888317 1365.3562 96.361328
50.986935 1365.3562 96.361328
56.085552 1365.3562 96.361328
61.184364 1365.3562 96.361328
66.852806 1358.0088 120.40161
71.995453 1358.0088 120.40161
77.137901 1358.0088 120.40161
82.981682 1350.6615 144.44189
88.168159 1350.6615 144.44189
93.354446 1350.6615 144.44189
98.540924 1350.6615 144.44189
103.7272 1350.6615 144.44189
108.91348 1350.6615 144.44189
114.09996 1350.6615 144.44189
119.28625 1350.6615 144.44189
124.47272 1350.6615 144.44189
129.65901 1350.6615 144.44189
136.03053 1343.0203 169.4436
141.2626 1343.0203 169.4436
146.49446 1343.0203 169.4436
151.72653 1343.0203 169.4436
156.9584 1343.0203 169.4436
162.19028 1343.0203 169.4436
167.42235 1343.0203 169.4436
172.65421 1343.0203 169.4436
179.43622 1335.379 194.44556
184.71367 1335.379 194.44556
189.99112 1335.379 194.44556
195.26877 1335.379 194.44556
200.54623 1335.379 194.44556
205.8239 1335.379 194.44556
211.10133 1335.379 194.44556
216.37878 1335.379 194.44556
221.65645 1335.379 194.44556
226.93391 1335.379 194.44556
232.21156 1335.379 194.44556
237.48901 1335.379 194.44556
242.76645 1335.379 194.44556
245.90155 1343.0203 169.4436
251.13341 1343.0203 169.4436
256.36548 1343.0203 169.4436
261.59735 1343.0203 169.4436
-193.58208 1338.2042 167.39941
-188.35011 1338.2042 167.39941
-183.11813 1338.2042 167.39941
-177.88617 1338.2042 167.39941
-172.65421 1338.2042 167.39941
-167.42235 1338.2042 167.39941
-162.19038 1338.2042 167.39941
-156.9584 1338.2042 167.39941
-151.72644 1338.2042 167.39941
-145.21805 1345.8875 142.41528
-140.03175 1345.8875 142.41528
-134.84538 1345.8875 142.41528
-129.65901 1345.8875 142.41528
-125.5667 1338.2042 167.39941
-120.33474 1338.2042 167.39941
-115.10287 1338.2042 167.39941
-109.87091 1338.2042 167.39941
-103.7272 1345.8875 142.41528
-98.540825 1345.8875 142.41528
-93.354446 1345.8875 142.41528
-88.168159 1345.8875 142.41528
-82.981789 1345.8875 142.41528
-77.795403 1345.8875 142.41528
-72.609024 1345.8875 142.41528
-67.422646 1345.8875 142.41528
-62.783401 1338.2042 167.39941
-57.04998 1345.8875 142.41528
-51.863602 1345.8875 142.41528
-46.677223 1345.8875 142.41528
-41.490841 1345.8875 142.41528
-35.997726 1353.2751 118.39209
-30.855181 1353.2751 118.39209
-25.712635 1353.2751 118.39209
-20.570087 1353.2751 118.39209
-15.559041 1345.8875 142.41528
-10.285093 1353.2751 118.39209
-5.0987129 1360.6628 94.368896
0 1360.6628 94.368896
5.1424484 1353.2751 118.39209
10.197426 1360.6628 94.368896
15.296041 1360.6628 94.368896
20.394852 1360.6628 94.368896
25.493467 1360.6628 94.368896
30.592083 1360.6628 94.368896
35.690891 1360.6628 94.368896
40.789509 1360.6628 94.368896
45.888317 1360.6628 94.368896
50.986935 1360.6628 94.368896
56.085552 1360.6628 94.368896
61.184364 1360.6628 94.368896
66.852806 1353.2751 118.39209
71.995453 1353.2751 118.39209
77.137901 1353.2751 118.39209
82.981682 1345.8875 142.41528
88.168159 1345.8875 142.41528
93.354446 1345.8875 142.41528
98.540924 1345.8875 142.41528
103.7272 1345.8875 142.41528
108.91348 1345.8875 142.41528
114.09996 1345.8875 142.41528
119.28625 1345.8875 142.41528
124.47272 1345.8875 142.41528
129.65901 1345.8875 142.41528
136.03053 1338.2042 167.39941
141.2626 1338.2042 167.39941
146.49446 1338.2042 167.39941
151.72653 1338.2042 167.39941
156.9584 1338.2042 167.39941
162.19028 1338.2042 167.39941
167.42235 1338.2042 167.39941
172.65421 1338.2042 167.39941
179.43622 1330.521 192.38354
184.71367 1330.521 192.38354
189.99112 1330.521 192.38354
195.26877 1330.521 192.38354
200.54623 1330.521 192.38354
204.04601 1338.2042 167.39941
209.27788 1338.2042 167.39941
216.37878 1330.521 192.38354
221.65645 1330.521 192.38354
226.93391 1330.521 192.38354
232.21156 1330.521 192.38354
237.48901 1330.521 192.38354
242.76645 1330.521 192.38354
248.04411 1330.521 192.38354
253.32158 1330.521 192.38354
258.59924 1330.521 192.38354
266.24368 1322.5424 218.32837
-202.26804 1341.1133 140.38892
-197.08165 1341.1133 140.38892
-193.58208 1333.3882 165.35522
-188.35011 1333.3882 165.35522
-183.11813 1333.3882 165.35522
-177.88617 1333.3882 165.35522
-172.65421 1333.3882 165.35522
-167.42235 1333.3882 165.35522
-162.19038 1333.3882 165.35522
-156.9584 1333.3882 165.35522
-151.72644 1333.3882 165.35522
-145.21805 1341.1133 140.38892
-140.03175 1341.1133 140.38892
-134.84538 1341.1133 140.38892
-129.65901 1341.1133 140.38892
-124.47263 1341.1133 140.38892
-119.28625 1341.1133 140.38892
-114.09996 1341.1133 140.38892
-108.91359 1341.1133 140.38892
-103.7272 1341.1133 140.38892
-98.540825 1341.1133 140.38892
-93.354446 1341.1133 140.38892
-88.168159 1341.1133 140.38892
-82.981789 1341.1133 140.38892
-77.795403 1341.1133 140.38892
-72.609024 1341.1133 140.38892
-67.422646 1341.1133 140.38892
-62.236362 1341.1133 140.38892
-57.04998 1341.1133 140.38892
-51.863602 1341.1133 140.38892
-46.677223 1341.1133 140.38892
-41.490841 1341.1133 140.38892
-35.997726 1348.5414 116.38281
-30.855181 1348.5414 116.38281
-25.712635 1348.5414 116.38281
-20.570087 1348.5414 116.38281
-15.559041 1341.1133 140.38892
-10.285093 1348.5414 116.38281
-5.1425467 1348.5414 116.38281
0 1348.5414 116.38281
5.1424484 1348.5414 116.38281
10.197426 1355.9695 92.376709
15.296041 1355.9695 92.376709
20.394852 1355.9695 92.376709
25.493467 1355.9695 92.376709
30.592083 1355.9695 92.376709
35.690891 1355.9695 92.376709
40.789509 1355.9695 92.376709
45.888317 1355.9695 92.376709
50.986935 1355.9695 92.376709
56.085552 1355.9695 92.376709
61.184364 1355.9695 92.376709
66.852806 1348.5414 116.38281
71.995453 1348.5414 116.38281
77.137901 1348.5414 116.38281
82.981682 1341.1133 140.38892
88.168159 1341.1133 140.38892
93.354446 1341.1133 140.38892
98.540924 1341.1133 140.38892
103.7272 1341.1133 140.38892
108.91348 1341.1133 140.38892
114.09996 1341.1133 140.38892
119.28625 1341.1133 140.38892
124.47272 1341.1133 140.38892
129.65901 1341.1133 140.38892
136.03053 1333.3882 165.35522
141.2626 1333.3882 165.35522
146.49446 1333.3882 165.35522
151.72653 1333.3882 165.35522
156.9584 1333.3882 165.35522
162.19028 1333.3882 165.35522
167.42235 1333.3882 165.35522
172.65421 1333.3882 165.35522
177.88628 1333.3882 165.35522
183.11813 1333.3882 165.35522
188.35001 1333.3882 165.35522
193.58208 1333.3882 165.35522
198.81393 1333.3882 165.35522
204.04601 1333.3882 165.35522
209.27788 1333.3882 165.35522
214.50974 1333.3882 165.35522
221.65645 1325.6631 190.32129
226.93391 1325.6631 190.32129
232.21156 1325.6631 190.32129
237.48901 1325.6631 190.32129
242.76645 1325.6631 190.32129
248.04411 1325.6631 190.32129
253.32158 1325.6631 190.32129
260.91888 1317.6409 216.2478
266.24368 1317.6409 216.2478
271.56848 1317.6409 216.2478
-202.26804 1336.3392 138.36255
-197.08165 1336.3392 138.36255
-193.58208 1328.5723 163.31079
-188.35011 1328.5723 163.31079
-183.11813 1328.5723 163.31079
-177.88617 1328.5723 163.31079
-172.65421 1328.5723 163.31079
-167.42235 1328.5723 163.31079
-162.19038 1328.5723 163.31079
-156.9584 1328.5723 163.31079
-150.40443 1336.3392 138.36255
-145.21805 1336.3392 138.36255
-140.03175 1336.3392 138.36255
-134.84538 1336.3392 138.36255
-129.65901 1336.3392 138.36255
-124.47263 1336.3392 138.36255
-119.28625 1336.3392 138.36255
-114.09996 1336.3392 138.36255
-108.91359 1336.3392 138.36255
-103.7272 1336.3392 138.36255
-98.540825 1336.3392 138.36255
-93.354446 1336.3392 138.36255
-88.168159 1336.3392 138.36255
-82.981789 1336.3392 138.36255
-77.795403 1336.3392 138.36255
-72.609024 1336.3392 138.36255
-67.422646 1336.3392 138.36255
-62.236362 1336.3392 138.36255
-57.04998 1336.3392 138.36255
-51.863602 1336.3392 138.36255
-46.677223 1336.3392 138.36255
-41.490841 1336.3392 138.36255
-36.304562 1336.3392 138.36255
-31.118181 1336.3392 138.36255
-25.931801 1336.3392 138.36255
-20.74542 1336.3392 138.36255
-15.559041 1336.3392 138.36255
-10.285093 1343.8076 114.37354
-5.1425467 1343.8076 114.37354
0 1343.8076 114.37354
5.1424484 1343.8076 114.37354
10.197426 1351.2761 90.384521
15.296041 1351.2761 90.384521
20.394852 1351.2761 90.384521
25.493467 1351.2761 90.384521
30.592083 1351.2761 90.384521
35.690891 1351.2761 90.384521
40.789509 1351.2761 90.384521
45.888317 1351.2761 90.384521
50.986935 1351.2761 90.384521
56.085552 1351.2761 90.384521
61.184364 1351.2761 90.384521
66.852806 1343.8076 114.37354
71.995453 1343.8076 114.37354
77.137901 1343.8076 114.37354
82.981682 1336.3392 138.36255
88.168159 1336.3392 138.36255
93.354446 1336.3392 138.36255
98.540924 1336.3392 138.36255
103.7272 1336.3392 138.36255
108.91348 1336.3392 138.36255
114.09996 1336.3392 138.36255
119.28625 1336.3392 138.36255
124.47272 1336.3392 138.36255
129.65901 1336.3392 138.36255
136.03053 1328.5723 163.31079
141.2626 1328.5723 163.31079
146.49446 1328.5723 163.31079
151.72653 1328.5723 163.31079
156.9584 1328.5723 163.31079
162.19028 1328.5723 163.31079
167.42235 1328.5723 163.31079
172.65421 1328.5723 163.31079
177.88628 1328.5723 163.31079
183.11813 1328.5723 163.31079
188.35001 1328.5723 163.31079
193.58208 1328.5723 163.31079
198.81393 1328.5723 163.31079
204.04601 1328.5723 163.31079
209.27788 1328.5723 163.31079
214.50974 1328.5723 163.31079
221.65645 1320.8051 188.25928
226.93391 1320.8051 188.25928
232.21156 1320.8051 188.25928
237.48901 1320.8051 188.25928
242.76645 1320.8051 188.25928
248.04411 1320.8051 188.25928
253.32158 1320.8051 188.25928
258.59924 1320.8051 188.25928
266.24368 1312.7393 214.16699
271.56848 1312.7393 214.16699
-209.27788 1323.7562 161.2666
-204.0459 1323.7562 161.2666
-198.81393 1323.7562 161.2666
-193.58208 1323.7562 161.2666
-188.35011 1323.7562 161.2666
-183.11813 1323.7562 161.2666
-177.88617 1323.7562 161.2666
-172.65421 1323.7562 161.2666
-167.42235 1323.7562 161.2666
-162.19038 1323.7562 161.2666
-156.9584 1323.7562 161.2666
-150.40443 1331.5652 136.33594
-145.21805 1331.5652 136.33594
-138.84827 1339.074 112.36426
-133.70572 1339.074 112.36426
-128.56317 1339.074 112.36426
-123.42062 1339.074 112.36426
-119.28625 1331.5652 136.33594
-114.09996 1331.5652 136.33594
-108.91359 1331.5652 136.33594
-103.7272 1331.5652 136.33594
-98.540825 1331.5652 136.33594
-93.354446 1331.5652 136.33594
-88.168159 1331.5652 136.33594
-82.981789 1331.5652 136.33594
-77.795403 1331.5652 136.33594
-72.609024 1331.5652 136.33594
-67.422646 1331.5652 136.33594
-62.236362 1331.5652 136.33594
-57.04998 1331.5652 136.33594
-51.863602 1331.5652 136.33594
-46.677223 1331.5652 136.33594
-41.490841 1331.5652 136.33594
-36.304562 1331.5652 136.33594
-31.118181 1331.5652 136.33594
-25.712635 1339.074 112.36426
-20.570087 1339.074 112.36426
-15.559041 1331.5652 136.33594
-10.285093 1339.074 112.36426
-5.1425467 1339.074 112.36426
0 1339.074 112.36426
5.1424484 1339.074 112.36426
10.285093 1339.074 112.36426
15.296041 1346.5828 88.392334
20.394852 1346.5828 88.392334
25.493467 1346.5828 88.392334
30.592083 1346.5828 88.392334
35.690891 1346.5828 88.392334
40.789509 1346.5828 88.392334
45.888317 1346.5828 88.392334
50.986935 1346.5828 88.392334
56.085552 1346.5828 88.392334
61.710361 1339.074 112.36426
66.852806 1339.074 112.36426
71.995453 1339.074 112.36426
77.137901 1339.074 112.36426
82.981682 1331.5652 136.33594
88.168159 1331.5652 136.33594
93.354446 1331.5652 136.33594
98.540924 1331.5652 136.33594
103.7272 1331.5652 136.33594
108.91348 1331.5652 136.33594
114.09996 1331.5652 136.33594
119.28625 1331.5652 136.33594
125.5668 1323.7562 161.2666
130.79868 1323.7562 161.2666
136.03053 1323.7562 161.2666
141.2626 1323.7562 161.2666
146.49446 1323.7562 161.2666
151.72653 1323.7562 161.2666
156.9584 1323.7562 161.2666
162.19028 1323.7562 161.2666
167.42235 1323.7562 161.2666
172.65421 1323.7562 161.2666
177.88628 1323.7562 161.2666
183.11813 1323.7562 161.2666
188.35001 1323.7562 161.2666
193.58208 1323.7562 161.2666
198.81393 1323.7562 161.2666
204.04601 1323.7562 161.2666
209.27788 1323.7562 161.2666
214.50974 1323.7562 161.2666
221.65645 1315.947 186.19702
226.93391 1315.947 186.19702
232.21156 1315.947 186.19702
237.48901 1315.947 186.19702
242.76645 1315.947 186.19702
248.04411 1315.947 186.19702
253.32158 1315.947 186.19702
258.59924 1315.947 186.19702
266.24368 1307.8376 212.08643
271.56848 1307.8376 212.08643
276.89346 1307.8376 212.08643
-209.27788 1318.9402 159.22217
-204.0459 1318.9402 159.22217
-198.81393 1318.9402 159.22217
-193.58208 1318.9402 159.22217
-188.35011 1318.9402 159.22217
-183.11813 1318.9402 159.22217
-177.88617 1318.9402 159.22217
-172.65421 1318.9402 159.22217
-167.42235 1318.9402 159.22217
-162.19038 1318.9402 159.22217
-155.59081 1326.7911 134.30957
-149.13327 1334.3403 110.35474
-143.99071 1334.3403 110.35474
-138.84827 1334.3403 110.35474
-133.70572 1334.3403 110.35474
