ply
format ascii 1.0
comment PCL generated
element vertex 1577
property float x
property float y
property float z
element camera 0
property float view_px
property float view_py
property float view_pz
property float x_axisx
property float x_axisy
property float x_axisz
property float y_axisx
property float y_axisy
property float y_axisz
property float z_axisx
property float z_axisy
property float z_axisz
property float focal
property float scalex
property float scaley
property float centerx
property float centery
property int viewportx
property int viewporty
property float k1
property float k2
end_header
5.0986156 1313.7291 74.446777
10.197426 1313.7291 74.446777
15.164542 1321.5203 50.594971
20.219517 1321.5203 50.594971
25.274302 1321.5203 50.594971
30.329084 1321.5203 50.594971
35.38406 1321.5203 50.594971
40.438843 1321.5203 50.594971
45.888317 1313.7291 74.446777
50.986935 1313.7291 74.446777
56.085552 1313.7291 74.446777
61.184364 1313.7291 74.446777
66.282974 1313.7291 74.446777
71.381783 1313.7291 74.446777
76.4804 1313.7291 74.446777
81.579018 1313.7291 74.446777
86.677826 1313.7291 74.446777
91.776451 1313.7291 74.446777
96.875259 1313.7291 74.446777
101.97387 1313.7291 74.446777
107.07249 1313.7291 74.446777
112.1713 1313.7291 74.446777
117.26991 1313.7291 74.446777
123.42072 1305.938 98.298828
128.56317 1305.938 98.298828
133.70561 1305.938 98.298828
140.03175 1298.1467 122.15063
146.49446 1290.0439 146.95654
151.72653 1290.0439 146.95654
156.9584 1290.0439 146.95654
162.19028 1290.0439 146.95654
167.42235 1290.0439 146.95654
171.14984 1298.1467 122.15063
176.33632 1298.1467 122.15063
181.52261 1298.1467 122.15063
186.70889 1298.1467 122.15063
191.89537 1298.1467 122.15063
197.08165 1298.1467 122.15063
204.04601 1290.0439 146.95654
209.27788 1290.0439 146.95654
216.37878 1281.941 171.76245
221.65645 1281.941 171.76245
226.93391 1281.941 171.76245
232.21156 1281.941 171.76245
235.43761 1290.0439 146.95654
238.57249 1298.1467 122.15063
243.75897 1298.1467 122.15063
248.94525 1298.1467 122.15063
-205.70108 1301.2041 96.289307
-200.55853 1301.2041 96.289307
-195.41597 1301.2041 96.289307
-190.27354 1301.2041 96.289307
-185.13098 1301.2041 96.289307
-179.98843 1301.2041 96.289307
-174.8459 1301.2041 96.289307
-169.70334 1301.2041 96.289307
-164.5609 1301.2041 96.289307
-159.41835 1301.2041 96.289307
-154.2758 1301.2041 96.289307
-149.13327 1301.2041 96.289307
-143.99071 1301.2041 96.289307
-138.84827 1301.2041 96.289307
-133.70572 1301.2041 96.289307
-128.56317 1301.2041 96.289307
-123.42062 1301.2041 96.289307
-118.27808 1301.2041 96.289307
-113.13563 1301.2041 96.289307
-107.99309 1301.2041 96.289307
-102.85054 1301.2041 96.289307
-97.707985 1301.2041 96.289307
-92.565445 1301.2041 96.289307
-87.422989 1301.2041 96.289307
-82.280449 1301.2041 96.289307
-77.137901 1301.2041 96.289307
-71.381691 1309.0358 72.45459
-66.282974 1309.0358 72.45459
-61.184364 1309.0358 72.45459
-56.085648 1309.0358 72.45459
-50.986935 1309.0358 72.45459
-45.888226 1309.0358 72.45459
-40.789509 1309.0358 72.45459
-35.690891 1309.0358 72.45459
-30.592182 1309.0358 72.45459
-25.274302 1316.8673 48.619873
-20.219421 1316.8673 48.619873
-15.164542 1316.8673 48.619873
-10.109758 1316.8673 48.619873
-5.0987129 1309.0358 72.45459
0 1316.8673 48.619873
5.0547829 1316.8673 48.619873
10.197426 1309.0358 72.45459
15.164542 1316.8673 48.619873
20.219517 1316.8673 48.619873
25.274302 1316.8673 48.619873
30.329084 1316.8673 48.619873
35.38406 1316.8673 48.619873
40.438843 1316.8673 48.619873
45.888317 1309.0358 72.45459
50.986935 1309.0358 72.45459
56.085552 1309.0358 72.45459
61.184364 1309.0358 72.45459
66.282974 1309.0358 72.45459
71.381783 1309.0358 72.45459
76.4804 1309.0358 72.45459
81.579018 1309.0358 72.45459
86.677826 1309.0358 72.45459
91.776451 1309.0358 72.45459
96.875259 1309.0358 72.45459
101.97387 1309.0358 72.45459
107.07249 1309.0358 72.45459
112.1713 1309.0358 72.45459
117.26991 1309.0358 72.45459
122.36873 1309.0358 72.45459
128.56317 1301.2041 96.289307
133.70561 1301.2041 96.289307
140.03175 1293.3726 120.12427
145.21805 1293.3726 120.12427
150.40451 1293.3726 120.12427
155.59081 1293.3726 120.12427
162.19028 1285.2279 144.91235
167.42235 1285.2279 144.91235
172.65421 1285.2279 144.91235
176.33632 1293.3726 120.12427
181.52261 1293.3726 120.12427
188.35001 1285.2279 144.91235
193.58208 1285.2279 144.91235
198.81393 1285.2279 144.91235
204.04601 1285.2279 144.91235
209.27788 1285.2279 144.91235
216.37878 1277.083 169.70044
221.65645 1277.083 169.70044
226.93391 1277.083 169.70044
232.21156 1277.083 169.70044
235.43761 1285.2279 144.91235
240.66948 1285.2279 144.91235
243.75897 1293.3726 120.12427
-207.45441 1288.5986 118.09766
-200.55853 1296.4705 94.280029
-195.41597 1296.4705 94.280029
-190.27354 1296.4705 94.280029
-185.13098 1296.4705 94.280029
-179.98843 1296.4705 94.280029
-174.8459 1296.4705 94.280029
-169.70334 1296.4705 94.280029
-164.5609 1296.4705 94.280029
-159.41835 1296.4705 94.280029
-154.2758 1296.4705 94.280029
-149.13327 1296.4705 94.280029
-143.99071 1296.4705 94.280029
-138.84827 1296.4705 94.280029
-133.70572 1296.4705 94.280029
-128.56317 1296.4705 94.280029
-123.42062 1296.4705 94.280029
-118.27808 1296.4705 94.280029
-113.13563 1296.4705 94.280029
-107.99309 1296.4705 94.280029
-102.85054 1296.4705 94.280029
-96.875153 1304.3424 70.462402
-91.776451 1304.3424 70.462402
-87.422989 1296.4705 94.280029
-81.579117 1304.3424 70.462402
-76.4804 1304.3424 70.462402
-71.381691 1304.3424 70.462402
-66.282974 1304.3424 70.462402
-61.184364 1304.3424 70.462402
-56.085648 1304.3424 70.462402
-50.986935 1304.3424 70.462402
-45.888226 1304.3424 70.462402
-40.789509 1304.3424 70.462402
-35.690891 1304.3424 70.462402
-30.592182 1304.3424 70.462402
-25.274302 1312.2144 46.644775
-20.219421 1312.2144 46.644775
-15.164542 1312.2144 46.644775
-10.109758 1312.2144 46.644775
-5.0548792 1312.2144 46.644775
0 1312.2144 46.644775
5.0547829 1312.2144 46.644775
10.109758 1312.2144 46.644775
15.164542 1312.2144 46.644775
20.219517 1312.2144 46.644775
25.274302 1312.2144 46.644775
30.329084 1312.2144 46.644775
35.38406 1312.2144 46.644775
40.438843 1312.2144 46.644775
45.888317 1304.3424 70.462402
50.986935 1304.3424 70.462402
56.085552 1304.3424 70.462402
61.184364 1304.3424 70.462402
66.282974 1304.3424 70.462402
71.381783 1304.3424 70.462402
76.4804 1304.3424 70.462402
81.579018 1304.3424 70.462402
86.677826 1304.3424 70.462402
91.776451 1304.3424 70.462402
96.875259 1304.3424 70.462402
101.97387 1304.3424 70.462402
107.07249 1304.3424 70.462402
112.1713 1304.3424 70.462402
117.26991 1304.3424 70.462402
122.36873 1304.3424 70.462402
128.56317 1296.4705 94.280029
133.70561 1296.4705 94.280029
140.03175 1288.5986 118.09766
145.21805 1288.5986 118.09766
150.40451 1288.5986 118.09766
155.59081 1288.5986 118.09766
160.7771 1288.5986 118.09766
167.42235 1280.4119 142.86792
172.65421 1280.4119 142.86792
176.33632 1288.5986 118.09766
181.52261 1288.5986 118.09766
188.35001 1280.4119 142.86792
193.58208 1280.4119 142.86792
198.81393 1280.4119 142.86792
204.04601 1280.4119 142.86792
209.27788 1280.4119 142.86792
214.50974 1280.4119 142.86792
219.74182 1280.4119 142.86792
226.93391 1272.2251 167.63818
232.21156 1272.2251 167.63818
235.43761 1280.4119 142.86792
240.66948 1280.4119 142.86792
243.75897 1288.5986 118.09766
-202.26804 1283.8245 116.07129
-195.41597 1291.7368 92.270752
-190.27354 1291.7368 92.270752
-185.13098 1291.7368 92.270752
-179.98843 1291.7368 92.270752
-174.8459 1291.7368 92.270752
-169.70334 1291.7368 92.270752
-164.5609 1291.7368 92.270752
-159.41835 1291.7368 92.270752
-154.2758 1291.7368 92.270752
-149.13327 1291.7368 92.270752
-143.99071 1291.7368 92.270752
-138.84827 1291.7368 92.270752
-133.70572 1291.7368 92.270752
-128.56317 1291.7368 92.270752
-123.42062 1291.7368 92.270752
-118.27808 1291.7368 92.270752
-113.13563 1291.7368 92.270752
-107.99309 1291.7368 92.270752
-102.85054 1291.7368 92.270752
-96.875153 1299.649 68.470215
-91.776451 1299.649 68.470215
-86.677826 1299.649 68.470215
-81.579117 1299.649 68.470215
-76.4804 1299.649 68.470215
-71.381691 1299.649 68.470215
-66.282974 1299.649 68.470215
-61.184364 1299.649 68.470215
-56.085648 1299.649 68.470215
-50.986935 1299.649 68.470215
-45.888226 1299.649 68.470215
-40.789509 1299.649 68.470215
-35.690891 1299.649 68.470215
-30.592182 1299.649 68.470215
-25.274302 1307.5613 44.669678
-20.219421 1307.5613 44.669678
-15.164542 1307.5613 44.669678
-10.109758 1307.5613 44.669678
-5.0548792 1307.5613 44.669678
0 1307.5613 44.669678
5.0547829 1307.5613 44.669678
10.109758 1307.5613 44.669678
15.164542 1307.5613 44.669678
20.219517 1307.5613 44.669678
25.274302 1307.5613 44.669678
30.329084 1307.5613 44.669678
35.38406 1307.5613 44.669678
40.789509 1299.649 68.470215
45.888317 1299.649 68.470215
50.986935 1299.649 68.470215
56.085552 1299.649 68.470215
61.184364 1299.649 68.470215
66.282974 1299.649 68.470215
71.381783 1299.649 68.470215
76.4804 1299.649 68.470215
81.579018 1299.649 68.470215
86.677826 1299.649 68.470215
91.776451 1299.649 68.470215
96.875259 1299.649 68.470215
101.97387 1299.649 68.470215
107.07249 1299.649 68.470215
112.1713 1299.649 68.470215
117.26991 1299.649 68.470215
122.36873 1299.649 68.470215
128.56317 1291.7368 92.270752
133.70561 1291.7368 92.270752
140.03175 1283.8245 116.07129
145.21805 1283.8245 116.07129
150.40451 1283.8245 116.07129
155.59081 1283.8245 116.07129
160.7771 1283.8245 116.07129
167.42235 1275.5958 140.82373
171.14984 1283.8245 116.07129
176.33632 1283.8245 116.07129
181.52261 1283.8245 116.07129
188.35001 1275.5958 140.82373
193.58208 1275.5958 140.82373
198.81393 1275.5958 140.82373
204.04601 1275.5958 140.82373
209.27788 1275.5958 140.82373
214.50974 1275.5958 140.82373
219.74182 1275.5958 140.82373
226.93391 1267.3671 165.57617
232.21156 1267.3671 165.57617
237.48901 1267.3671 165.57617
240.66948 1275.5958 140.82373
245.90155 1275.5958 140.82373
251.13341 1275.5958 140.82373
256.36548 1275.5958 140.82373
-207.45441 1279.0504 114.04468
-202.26804 1279.0504 114.04468
-195.41597 1287.0031 90.26123
-190.27354 1287.0031 90.26123
-185.13098 1287.0031 90.26123
-179.98843 1287.0031 90.26123
-174.8459 1287.0031 90.26123
-169.70334 1287.0031 90.26123
-164.5609 1287.0031 90.26123
-159.41835 1287.0031 90.26123
-154.2758 1287.0031 90.26123
-149.13327 1287.0031 90.26123
-143.99071 1287.0031 90.26123
-138.84827 1287.0031 90.26123
-133.70572 1287.0031 90.26123
-128.56317 1287.0031 90.26123
-123.42062 1287.0031 90.26123
-118.27808 1287.0031 90.26123
-113.13563 1287.0031 90.26123
-107.99309 1287.0031 90.26123
-102.85054 1287.0031 90.26123
-96.875153 1294.9556 66.478027
-91.776451 1294.9556 66.478027
-86.677826 1294.9556 66.478027
-81.579117 1294.9556 66.478027
-76.4804 1294.9556 66.478027
-71.381691 1294.9556 66.478027
-66.282974 1294.9556 66.478027
-61.184364 1294.9556 66.478027
-56.085648 1294.9556 66.478027
-50.986935 1294.9556 66.478027
-45.888226 1294.9556 66.478027
-40.789509 1294.9556 66.478027
-35.690891 1294.9556 66.478027
-30.592182 1294.9556 66.478027
-25.274302 1302.9082 42.69458
-20.219421 1302.9082 42.69458
-15.164542 1302.9082 42.69458
-10.109758 1302.9082 42.69458
-5.0548792 1302.9082 42.69458
0 1302.9082 42.69458
5.0547829 1302.9082 42.69458
10.109758 1302.9082 42.69458
15.164542 1302.9082 42.69458
20.219517 1302.9082 42.69458
25.274302 1302.9082 42.69458
30.329084 1302.9082 42.69458
35.38406 1302.9082 42.69458
40.789509 1294.9556 66.478027
45.888317 1294.9556 66.478027
50.986935 1294.9556 66.478027
56.085552 1294.9556 66.478027
61.184364 1294.9556 66.478027
66.282974 1294.9556 66.478027
71.381783 1294.9556 66.478027
76.4804 1294.9556 66.478027
81.579018 1294.9556 66.478027
86.677826 1294.9556 66.478027
91.776451 1294.9556 66.478027
96.875259 1294.9556 66.478027
101.97387 1294.9556 66.478027
107.07249 1294.9556 66.478027
112.1713 1294.9556 66.478027
118.27808 1287.0031 90.26123
123.42072 1287.0031 90.26123
128.56317 1287.0031 90.26123
133.70561 1287.0031 90.26123
140.03175 1279.0504 114.04468
145.21805 1279.0504 114.04468
150.40451 1279.0504 114.04468
155.59081 1279.0504 114.04468
160.7771 1279.0504 114.04468
167.42235 1270.7798 138.7793
171.14984 1279.0504 114.04468
176.33632 1279.0504 114.04468
181.52261 1279.0504 114.04468
188.35001 1270.7798 138.7793
193.58208 1270.7798 138.7793
198.81393 1270.7798 138.7793
204.04601 1270.7798 138.7793
209.27788 1270.7798 138.7793
216.37878 1262.509 163.51416
221.65645 1262.509 163.51416
226.93391 1262.509 163.51416
232.21156 1262.509 163.51416
237.48901 1262.509 163.51416
242.76645 1262.509 163.51416
245.90155 1270.7798 138.7793
251.13341 1270.7798 138.7793
258.59924 1262.509 163.51416
263.87668 1262.509 163.51416
-212.64078 1274.2764 112.01831
-207.45441 1274.2764 112.01831
-202.26804 1274.2764 112.01831
-195.41597 1282.2693 88.251953
-190.27354 1282.2693 88.251953
-185.13098 1282.2693 88.251953
-179.98843 1282.2693 88.251953
-174.8459 1282.2693 88.251953
-169.70334 1282.2693 88.251953
-164.5609 1282.2693 88.251953
-159.41835 1282.2693 88.251953
-154.2758 1282.2693 88.251953
-149.13327 1282.2693 88.251953
-143.99071 1282.2693 88.251953
-138.84827 1282.2693 88.251953
-133.70572 1282.2693 88.251953
-128.56317 1282.2693 88.251953
-123.42062 1282.2693 88.251953
-118.27808 1282.2693 88.251953
-113.13563 1282.2693 88.251953
-107.99309 1282.2693 88.251953
-102.85054 1282.2693 88.251953
-96.875153 1290.2622 64.48584
-91.776451 1290.2622 64.48584
-86.677826 1290.2622 64.48584
-81.579117 1290.2622 64.48584
-76.4804 1290.2622 64.48584
-71.381691 1290.2622 64.48584
-66.282974 1290.2622 64.48584
-61.184364 1290.2622 64.48584
-56.085648 1290.2622 64.48584
-50.986935 1290.2622 64.48584
-45.888226 1290.2622 64.48584
-40.789509 1290.2622 64.48584
-35.690891 1290.2622 64.48584
-30.592182 1290.2622 64.48584
-25.274302 1298.2552 40.719482
-20.219421 1298.2552 40.719482
-15.164542 1298.2552 40.719482
-10.109758 1298.2552 40.719482
-5.0548792 1298.2552 40.719482
0 1298.2552 40.719482
5.0547829 1298.2552 40.719482
10.109758 1298.2552 40.719482
15.164542 1298.2552 40.719482
20.219517 1298.2552 40.719482
25.274302 1298.2552 40.719482
30.329084 1298.2552 40.719482
35.38406 1298.2552 40.719482
40.438843 1298.2552 40.719482
45.888317 1290.2622 64.48584
50.986935 1290.2622 64.48584
56.085552 1290.2622 64.48584
61.184364 1290.2622 64.48584
66.282974 1290.2622 64.48584
71.381783 1290.2622 64.48584
76.4804 1290.2622 64.48584
81.579018 1290.2622 64.48584
86.677826 1290.2622 64.48584
91.776451 1290.2622 64.48584
96.875259 1290.2622 64.48584
101.97387 1290.2622 64.48584
107.07249 1290.2622 64.48584
112.1713 1290.2622 64.48584
118.27808 1282.2693 88.251953
123.42072 1282.2693 88.251953
128.56317 1282.2693 88.251953
133.70561 1282.2693 88.251953
140.03175 1274.2764 112.01831
145.21805 1274.2764 112.01831
150.40451 1274.2764 112.01831
155.59081 1274.2764 112.01831
160.7771 1274.2764 112.01831
167.42235 1265.9637 136.73511
172.65421 1265.9637 136.73511
177.88628 1265.9637 136.73511
183.11813 1265.9637 136.73511
188.35001 1265.9637 136.73511
193.58208 1265.9637 136.73511
198.81393 1265.9637 136.73511
204.04601 1265.9637 136.73511
209.27788 1265.9637 136.73511
216.37878 1257.6511 161.4519
221.65645 1257.6511 161.4519
226.93391 1257.6511 161.4519
232.21156 1257.6511 161.4519
237.48901 1257.6511 161.4519
242.76645 1257.6511 161.4519
248.04411 1257.6511 161.4519
253.32158 1257.6511 161.4519
258.59924 1257.6511 161.4519
263.87668 1257.6511 161.4519
-215.98618 1277.5356 86.242676
-210.84361 1277.5356 86.242676
-205.70108 1277.5356 86.242676
-200.55853 1277.5356 86.242676
-195.41597 1277.5356 86.242676
-190.27354 1277.5356 86.242676
-185.13098 1277.5356 86.242676
-179.98843 1277.5356 86.242676
-174.8459 1277.5356 86.242676
-169.70334 1277.5356 86.242676
-164.5609 1277.5356 86.242676
-159.41835 1277.5356 86.242676
-154.2758 1277.5356 86.242676
-149.13327 1277.5356 86.242676
-143.99071 1277.5356 86.242676
-138.84827 1277.5356 86.242676
-133.70572 1277.5356 86.242676
-128.56317 1277.5356 86.242676
-123.42062 1277.5356 86.242676
-118.27808 1277.5356 86.242676
-113.13563 1277.5356 86.242676
-107.99309 1277.5356 86.242676
-102.85054 1277.5356 86.242676
-96.875153 1285.5688 62.493408
-91.776451 1285.5688 62.493408
-86.677826 1285.5688 62.493408
-81.579117 1285.5688 62.493408
-76.4804 1285.5688 62.493408
-71.381691 1285.5688 62.493408
-66.282974 1285.5688 62.493408
-61.184364 1285.5688 62.493408
-56.085648 1285.5688 62.493408
-50.986935 1285.5688 62.493408
-45.888226 1285.5688 62.493408
-40.789509 1285.5688 62.493408
-35.690891 1285.5688 62.493408
-30.592182 1285.5688 62.493408
-25.274302 1293.6023 38.744385
-20.219421 1293.6023 38.744385
-15.164542 1293.6023 38.744385
-10.109758 1293.6023 38.744385
-5.0548792 1293.6023 38.744385
0 1293.6023 38.744385
5.0547829 1293.6023 38.744385
10.109758 1293.6023 38.744385
15.164542 1293.6023 38.744385
20.219517 1293.6023 38.744385
25.274302 1293.6023 38.744385
30.329084 1293.6023 38.744385
35.38406 1293.6023 38.744385
40.438843 1293.6023 38.744385
45.888317 1285.5688 62.493408
50.986935 1285.5688 62.493408
56.085552 1285.5688 62.493408
61.184364 1285.5688 62.493408
66.282974 1285.5688 62.493408
71.381783 1285.5688 62.493408
76.4804 1285.5688 62.493408
81.579018 1285.5688 62.493408
86.677826 1285.5688 62.493408
91.776451 1285.5688 62.493408
96.875259 1285.5688 62.493408
101.97387 1285.5688 62.493408
107.07249 1285.5688 62.493408
113.13563 1277.5356 86.242676
118.27808 1277.5356 86.242676
123.42072 1277.5356 86.242676
128.56317 1277.5356 86.242676
134.84529 1269.5023 109.99194
140.03175 1269.5023 109.99194
145.21805 1269.5023 109.99194
150.40451 1269.5023 109.99194
155.59081 1269.5023 109.99194
160.7771 1269.5023 109.99194
167.42235 1261.1477 134.69092
172.65421 1261.1477 134.69092
177.88628 1261.1477 134.69092
183.11813 1261.1477 134.69092
188.35001 1261.1477 134.69092
193.58208 1261.1477 134.69092
198.81393 1261.1477 134.69092
204.04601 1261.1477 134.69092
209.27788 1261.1477 134.69092
216.37878 1252.7931 159.38989
221.65645 1252.7931 159.38989
226.93391 1252.7931 159.38989
232.21156 1252.7931 159.38989
237.48901 1252.7931 159.38989
242.76645 1252.7931 159.38989
248.04411 1252.7931 159.38989
253.32158 1252.7931 159.38989
258.59924 1252.7931 159.38989
266.24368 1244.1172 185.03882
-215.98618 1272.8019 84.233398
-210.84361 1272.8019 84.233398
-205.70108 1272.8019 84.233398
-200.55853 1272.8019 84.233398
-195.41597 1272.8019 84.233398
-190.27354 1272.8019 84.233398
-185.13098 1272.8019 84.233398
-179.98843 1272.8019 84.233398
-174.8459 1272.8019 84.233398
-169.70334 1272.8019 84.233398
-164.5609 1272.8019 84.233398
-159.41835 1272.8019 84.233398
-154.2758 1272.8019 84.233398
-149.13327 1272.8019 84.233398
-143.99071 1272.8019 84.233398
-138.84827 1272.8019 84.233398
-133.70572 1272.8019 84.233398
-128.56317 1272.8019 84.233398
-123.42062 1272.8019 84.233398
-118.27808 1272.8019 84.233398
-113.13563 1272.8019 84.233398
-107.99309 1272.8019 84.233398
-102.85054 1272.8019 84.233398
-96.875153 1280.8755 60.501221
-91.776451 1280.8755 60.501221
-86.677826 1280.8755 60.501221
-81.579117 1280.8755 60.501221
-76.4804 1280.8755 60.501221
-71.381691 1280.8755 60.501221
-66.282974 1280.8755 60.501221
-61.184364 1280.8755 60.501221
-56.085648 1280.8755 60.501221
-50.986935 1280.8755 60.501221
-45.888226 1280.8755 60.501221
-40.789509 1280.8755 60.501221
-35.690891 1280.8755 60.501221
-30.592182 1280.8755 60.501221
-25.274302 1288.9492 36.769287
-20.219421 1288.9492 36.769287
-15.164542 1288.9492 36.769287
-10.109758 1288.9492 36.769287
-5.0548792 1288.9492 36.769287
0 1288.9492 36.769287
5.0547829 1288.9492 36.769287
10.109758 1288.9492 36.769287
15.164542 1288.9492 36.769287
20.219517 1288.9492 36.769287
25.274302 1288.9492 36.769287
30.329084 1288.9492 36.769287
35.38406 1288.9492 36.769287
40.438843 1288.9492 36.769287
45.888317 1280.8755 60.501221
50.986935 1280.8755 60.501221
56.085552 1280.8755 60.501221
61.184364 1280.8755 60.501221
66.282974 1280.8755 60.501221
71.381783 1280.8755 60.501221
76.4804 1280.8755 60.501221
81.579018 1280.8755 60.501221
86.677826 1280.8755 60.501221
91.776451 1280.8755 60.501221
96.875259 1280.8755 60.501221
102.85054 1272.8019 84.233398
107.99298 1272.8019 84.233398
113.13563 1272.8019 84.233398
118.27808 1272.8019 84.233398
123.42072 1272.8019 84.233398
129.65901 1264.7283 107.96533
134.84529 1264.7283 107.96533
140.03175 1264.7283 107.96533
145.21805 1264.7283 107.96533
150.40451 1264.7283 107.96533
155.59081 1264.7283 107.96533
160.7771 1264.7283 107.96533
167.42235 1256.3318 132.64648
172.65421 1256.3318 132.64648
177.88628 1256.3318 132.64648
183.11813 1256.3318 132.64648
188.35001 1256.3318 132.64648
193.58208 1256.3318 132.64648
198.81393 1256.3318 132.64648
205.8239 1247.9351 157.32788
211.10133 1247.9351 157.32788
216.37878 1247.9351 157.32788
221.65645 1247.9351 157.32788
226.93391 1247.9351 157.32788
232.21156 1247.9351 157.32788
237.48901 1247.9351 157.32788
242.76645 1247.9351 157.32788
248.04411 1247.9351 157.32788
253.32158 1247.9351 157.32788
258.59924 1247.9351 157.32788
266.24368 1239.2156 182.95825
271.56848 1239.2156 182.95825
-215.98618 1268.0681 82.223877
-210.84361 1268.0681 82.223877
-205.70108 1268.0681 82.223877
-200.55853 1268.0681 82.223877
-195.41597 1268.0681 82.223877
-190.27354 1268.0681 82.223877
-185.13098 1268.0681 82.223877
-179.98843 1268.0681 82.223877
-174.8459 1268.0681 82.223877
-169.70334 1268.0681 82.223877
-164.5609 1268.0681 82.223877
-159.41835 1268.0681 82.223877
-154.2758 1268.0681 82.223877
-149.13327 1268.0681 82.223877
-143.99071 1268.0681 82.223877
-138.84827 1268.0681 82.223877
-133.70572 1268.0681 82.223877
-128.56317 1268.0681 82.223877
-123.42062 1268.0681 82.223877
-118.27808 1268.0681 82.223877
-113.13563 1268.0681 82.223877
-107.99309 1268.0681 82.223877
-102.85054 1268.0681 82.223877
-96.875153 1276.1821 58.509033
-91.776451 1276.1821 58.509033
-86.677826 1276.1821 58.509033
-81.579117 1276.1821 58.509033
-76.4804 1276.1821 58.509033
-71.381691 1276.1821 58.509033
-66.282974 1276.1821 58.509033
-61.184364 1276.1821 58.509033
-56.085648 1276.1821 58.509033
-50.986935 1276.1821 58.509033
-45.888226 1276.1821 58.509033
-40.789509 1276.1821 58.509033
-35.690891 1276.1821 58.509033
-30.592182 1276.1821 58.509033
-25.274302 1284.2961 34.794189
-20.219421 1284.2961 34.794189
-15.164542 1284.2961 34.794189
-10.109758 1284.2961 34.794189
-5.0548792 1284.2961 34.794189
0 1284.2961 34.794189
5.0547829 1284.2961 34.794189
10.109758 1284.2961 34.794189
15.164542 1284.2961 34.794189
20.219517 1284.2961 34.794189
25.274302 1284.2961 34.794189
30.329084 1284.2961 34.794189
35.38406 1284.2961 34.794189
40.438843 1284.2961 34.794189
45.888317 1276.1821 58.509033
50.986935 1276.1821 58.509033
56.085552 1276.1821 58.509033
61.184364 1276.1821 58.509033
66.282974 1276.1821 58.509033
71.381783 1276.1821 58.509033
76.4804 1276.1821 58.509033
81.579018 1276.1821 58.509033
86.677826 1276.1821 58.509033
91.776451 1276.1821 58.509033
96.875259 1276.1821 58.509033
102.85054 1268.0681 82.223877
107.99298 1268.0681 82.223877
113.13563 1268.0681 82.223877
118.27808 1268.0681 82.223877
123.42072 1268.0681 82.223877
128.56317 1268.0681 82.223877
133.70561 1268.0681 82.223877
140.03175 1259.9541 105.93896
145.21805 1259.9541 105.93896
150.40451 1259.9541 105.93896
155.59081 1259.9541 105.93896
160.7771 1259.9541 105.93896
167.42235 1251.5156 130.60229
172.65421 1251.5156 130.60229
177.88628 1251.5156 130.60229
183.11813 1251.5156 130.60229
188.35001 1251.5156 130.60229
193.58208 1251.5156 130.60229
200.54623 1243.0771 155.26562
205.8239 1243.0771 155.26562
211.10133 1243.0771 155.26562
216.37878 1243.0771 155.26562
221.65645 1243.0771 155.26562
226.93391 1243.0771 155.26562
232.21156 1243.0771 155.26562
237.48901 1243.0771 155.26562
242.76645 1243.0771 155.26562
248.04411 1243.0771 155.26562
255.59389 1234.3141 180.87769
260.91888 1234.3141 180.87769
266.24368 1234.3141 180.87769
271.56848 1234.3141 180.87769
-221.12862 1263.3345 80.2146
-215.98618 1263.3345 80.2146
-210.84361 1263.3345 80.2146
-205.70108 1263.3345 80.2146
-200.55853 1263.3345 80.2146
-195.41597 1263.3345 80.2146
-190.27354 1263.3345 80.2146
-185.13098 1263.3345 80.2146
-179.98843 1263.3345 80.2146
-174.8459 1263.3345 80.2146
-169.70334 1263.3345 80.2146
-164.5609 1263.3345 80.2146
-159.41835 1263.3345 80.2146
-154.2758 1263.3345 80.2146
-149.13327 1263.3345 80.2146
-143.99071 1263.3345 80.2146
-138.84827 1263.3345 80.2146
-133.70572 1263.3345 80.2146
-128.56317 1263.3345 80.2146
-123.42062 1263.3345 80.2146
-118.27808 1263.3345 80.2146
-113.13563 1263.3345 80.2146
-107.99309 1263.3345 80.2146
-102.85054 1263.3345 80.2146
-97.707985 1263.3345 80.2146
-91.776451 1271.4888 56.516846
-86.677826 1271.4888 56.516846
-81.579117 1271.4888 56.516846
-76.4804 1271.4888 56.516846
-71.381691 1271.4888 56.516846
-66.282974 1271.4888 56.516846
-61.184364 1271.4888 56.516846
-56.085648 1271.4888 56.516846
-50.986935 1271.4888 56.516846
-45.888226 1271.4888 56.516846
-40.789509 1271.4888 56.516846
-35.690891 1271.4888 56.516846
-30.592182 1271.4888 56.516846
-25.274302 1279.6432 32.819092
-20.219421 1279.6432 32.819092
-15.164542 1279.6432 32.819092
-10.109758 1279.6432 32.819092
-5.0548792 1279.6432 32.819092
0 1279.6432 32.819092
5.0547829 1279.6432 32.819092
10.109758 1279.6432 32.819092
15.164542 1279.6432 32.819092
20.219517 1279.6432 32.819092
25.274302 1279.6432 32.819092
30.329084 1279.6432 32.819092
35.38406 1279.6432 32.819092
40.789509 1271.4888 56.516846
45.888317 1271.4888 56.516846
50.986935 1271.4888 56.516846
56.085552 1271.4888 56.516846
61.184364 1271.4888 56.516846
66.282974 1271.4888 56.516846
71.381783 1271.4888 56.516846
76.4804 1271.4888 56.516846
81.579018 1271.4888 56.516846
86.677826 1271.4888 56.516846
91.776451 1271.4888 56.516846
96.875259 1271.4888 56.516846
102.85054 1263.3345 80.2146
107.99298 1263.3345 80.2146
113.13563 1263.3345 80.2146
118.27808 1263.3345 80.2146
123.42072 1263.3345 80.2146
128.56317 1263.3345 80.2146
133.70561 1263.3345 80.2146
140.03175 1255.1801 103.91235
145.21805 1255.1801 103.91235
150.40451 1255.1801 103.91235
155.59081 1255.1801 103.91235
162.19028 1246.6997 128.55811
167.42235 1246.6997 128.55811
172.65421 1246.6997 128.55811
177.88628 1246.6997 128.55811
183.11813 1246.6997 128.55811
188.35001 1246.6997 128.55811
195.26877 1238.2191 153.20361
200.54623 1238.2191 153.20361
205.8239 1238.2191 153.20361
211.10133 1238.2191 153.20361
216.37878 1238.2191 153.20361
221.65645 1238.2191 153.20361
226.93391 1238.2191 153.20361
232.21156 1238.2191 153.20361
237.48901 1238.2191 153.20361
244.94411 1229.4125 178.79688
250.2691 1229.4125 178.79688
255.59389 1229.4125 178.79688
260.91888 1229.4125 178.79688
266.24368 1229.4125 178.79688
273.98282 1220.6057 204.39062
281.90799 1211.4729 230.93213
-226.27116 1258.6007 78.205322
-221.12862 1258.6007 78.205322
-215.98618 1258.6007 78.205322
-210.84361 1258.6007 78.205322
-205.70108 1258.6007 78.205322
-200.55853 1258.6007 78.205322
-195.41597 1258.6007 78.205322
-190.27354 1258.6007 78.205322
-185.13098 1258.6007 78.205322
-179.98843 1258.6007 78.205322
-174.8459 1258.6007 78.205322
-169.70334 1258.6007 78.205322
-164.5609 1258.6007 78.205322
-160.77718 1250.406 101.88599
-155.59081 1250.406 101.88599
-150.40443 1250.406 101.88599
-145.21805 1250.406 101.88599
-140.03175 1250.406 101.88599
-134.84538 1250.406 101.88599
-129.65901 1250.406 101.88599
-123.42062 1258.6007 78.205322
-118.27808 1258.6007 78.205322
-113.13563 1258.6007 78.205322
-107.99309 1258.6007 78.205322
-102.85054 1258.6007 78.205322
-97.707985 1258.6007 78.205322
-91.776451 1266.7954 54.524658
-86.677826 1266.7954 54.524658
-81.579117 1266.7954 54.524658
-76.4804 1266.7954 54.524658
-71.381691 1266.7954 54.524658
-66.282974 1266.7954 54.524658
-61.184364 1266.7954 54.524658
-56.085648 1266.7954 54.524658
-50.986935 1266.7954 54.524658
-45.888226 1266.7954 54.524658
-40.789509 1266.7954 54.524658
-35.690891 1266.7954 54.524658
-30.592182 1266.7954 54.524658
-25.274302 1274.9902 30.843994
-20.219421 1274.9902 30.843994
-15.164542 1274.9902 30.843994
-10.109758 1274.9902 30.843994
-5.0548792 1274.9902 30.843994
0 1274.9902 30.843994
5.0547829 1274.9902 30.843994
10.109758 1274.9902 30.843994
15.164542 1274.9902 30.843994
20.394852 1266.7954 54.524658
25.274302 1274.9902 30.843994
30.329084 1274.9902 30.843994
35.690891 1266.7954 54.524658
40.789509 1266.7954 54.524658
45.888317 1266.7954 54.524658
50.986935 1266.7954 54.524658
56.085552 1266.7954 54.524658
61.184364 1266.7954 54.524658
66.282974 1266.7954 54.524658
71.381783 1266.7954 54.524658
76.4804 1266.7954 54.524658
81.579018 1266.7954 54.524658
86.677826 1266.7954 54.524658
91.776451 1266.7954 54.524658
96.875259 1266.7954 54.524658
102.85054 1258.6007 78.205322
107.99298 1258.6007 78.205322
113.13563 1258.6007 78.205322
118.27808 1258.6007 78.205322
123.42072 1258.6007 78.205322
129.65901 1250.406 101.88599
134.84529 1250.406 101.88599
140.03175 1250.406 101.88599
145.21805 1250.406 101.88599
151.72653 1241.8837 126.51367
156.9584 1241.8837 126.51367
162.19028 1241.8837 126.51367
167.42235 1241.8837 126.51367
172.65421 1241.8837 126.51367
179.43622 1233.3611 151.1416
184.71367 1233.3611 151.1416
189.99112 1233.3611 151.1416
195.26877 1233.3611 151.1416
200.54623 1233.3611 151.1416
205.8239 1233.3611 151.1416
211.10133 1233.3611 151.1416
216.37878 1233.3611 151.1416
221.65645 1233.3611 151.1416
228.96953 1224.511 176.71631
234.29451 1224.511 176.71631
239.61931 1224.511 176.71631
244.94411 1224.511 176.71631
250.2691 1224.511 176.71631
255.59389 1224.511 176.71631
260.91888 1224.511 176.71631
266.24368 1224.511 176.71631
273.98282 1215.6606 202.2915
281.90799 1206.4827 228.81372
-226.27116 1253.8669 76.196045
-221.12862 1253.8669 76.196045
-215.98618 1253.8669 76.196045
-210.84361 1253.8669 76.196045
-205.70108 1253.8669 76.196045
-200.55853 1253.8669 76.196045
-195.41597 1253.8669 76.196045
-190.27354 1253.8669 76.196045
-185.13098 1253.8669 76.196045
-179.98843 1253.8669 76.196045
-174.8459 1253.8669 76.196045
-169.70334 1253.8669 76.196045
-164.5609 1253.8669 76.196045
-160.77718 1245.632 99.859375
-155.59081 1245.632 99.859375
-150.40443 1245.632 99.859375
-145.21805 1245.632 99.859375
-140.03175 1245.632 99.859375
-134.84538 1245.632 99.859375
-128.56317 1253.8669 76.196045
-123.42062 1253.8669 76.196045
-118.27808 1253.8669 76.196045
-113.13563 1253.8669 76.196045
-107.99309 1253.8669 76.196045
-102.85054 1253.8669 76.196045
-97.707985 1253.8669 76.196045
-91.776451 1262.1021 52.532471
-86.677826 1262.1021 52.532471
-81.579117 1262.1021 52.532471
-76.4804 1262.1021 52.532471
-71.381691 1262.1021 52.532471
-66.282974 1262.1021 52.532471
-61.184364 1262.1021 52.532471
-56.085648 1262.1021 52.532471
-50.986935 1262.1021 52.532471
-45.888226 1262.1021 52.532471
-40.789509 1262.1021 52.532471
-35.690891 1262.1021 52.532471
-30.592182 1262.1021 52.532471
-25.274302 1270.3372 28.868896
-20.219421 1270.3372 28.868896
-15.164542 1270.3372 28.868896
-10.109758 1270.3372 28.868896
-5.0548792 1270.3372 28.868896
0 1270.3372 28.868896
5.0547829 1270.3372 28.868896
10.109758 1270.3372 28.868896
15.296041 1262.1021 52.532471
20.394852 1262.1021 52.532471
25.493467 1262.1021 52.532471
30.592083 1262.1021 52.532471
35.690891 1262.1021 52.532471
40.789509 1262.1021 52.532471
45.888317 1262.1021 52.532471
50.986935 1262.1021 52.532471
56.085552 1262.1021 52.532471
61.184364 1262.1021 52.532471
66.282974 1262.1021 52.532471
71.381783 1262.1021 52.532471
76.4804 1262.1021 52.532471
81.579018 1262.1021 52.532471
86.677826 1262.1021 52.532471
91.776451 1262.1021 52.532471
96.875259 1262.1021 52.532471
102.85054 1253.8669 76.196045
107.99298 1253.8669 76.196045
113.13563 1253.8669 76.196045
118.27808 1253.8669 76.196045
124.47272 1245.632 99.859375
129.65901 1245.632 99.859375
134.84529 1245.632 99.859375
140.03175 1245.632 99.859375
146.49446 1237.0676 124.46948
151.72653 1237.0676 124.46948
156.9584 1237.0676 124.46948
162.19028 1237.0676 124.46948
167.42235 1237.0676 124.46948
172.65421 1237.0676 124.46948
179.43622 1228.5032 149.07935
184.71367 1228.5032 149.07935
189.99112 1228.5032 149.07935
195.26877 1228.5032 149.07935
200.54623 1228.5032 149.07935
205.8239 1228.5032 149.07935
211.10133 1228.5032 149.07935
218.31973 1219.6094 174.63574
223.64473 1219.6094 174.63574
228.96953 1219.6094 174.63574
234.29451 1219.6094 174.63574
239.61931 1219.6094 174.63574
244.94411 1219.6094 174.63574
250.2691 1219.6094 174.63574
255.59389 1219.6094 174.63574
260.91888 1219.6094 174.63574
266.24368 1219.6094 174.63574
273.98282 1210.7155 200.19238
281.90799 1201.4923 226.69556
287.32922 1201.4923 226.69556
-230.20564 1232.2515 122.42505
-224.97366 1232.2515 122.42505
-219.74182 1232.2515 122.42505
-212.64078 1240.8579 97.833008
-207.45441 1240.8579 97.833008
-200.55853 1249.1333 74.186523
-195.41597 1249.1333 74.186523
-190.27354 1249.1333 74.186523
-185.13098 1249.1333 74.186523
-179.98843 1249.1333 74.186523
-174.8459 1249.1333 74.186523
-169.70334 1249.1333 74.186523
-164.5609 1249.1333 74.186523
-160.77718 1240.8579 97.833008
-155.59081 1240.8579 97.833008
-150.40443 1240.8579 97.833008
-145.21805 1240.8579 97.833008
-138.84827 1249.1333 74.186523
-133.70572 1249.1333 74.186523
-128.56317 1249.1333 74.186523
-123.42062 1249.1333 74.186523
-118.27808 1249.1333 74.186523
-113.13563 1249.1333 74.186523
-107.99309 1249.1333 74.186523
-102.85054 1249.1333 74.186523
-96.875153 1257.4087 50.540283
-91.776451 1257.4087 50.540283
-86.677826 1257.4087 50.540283
-81.579117 1257.4087 50.540283
-76.4804 1257.4087 50.540283
-71.381691 1257.4087 50.540283
-66.282974 1257.4087 50.540283
-61.184364 1257.4087 50.540283
-56.085648 1257.4087 50.540283
-50.986935 1257.4087 50.540283
-45.888226 1257.4087 50.540283
-40.789509 1257.4087 50.540283
-35.690891 1257.4087 50.540283
-30.592182 1257.4087 50.540283
-25.274302 1265.6841 26.893799
-20.219421 1265.6841 26.893799
-15.164542 1265.6841 26.893799
-10.109758 1265.6841 26.893799
-5.0548792 1265.6841 26.893799
0 1265.6841 26.893799
5.0547829 1265.6841 26.893799
10.109758 1265.6841 26.893799
15.296041 1257.4087 50.540283
20.394852 1257.4087 50.540283
25.493467 1257.4087 50.540283
30.592083 1257.4087 50.540283
35.690891 1257.4087 50.540283
40.789509 1257.4087 50.540283
45.888317 1257.4087 50.540283
50.986935 1257.4087 50.540283
56.085552 1257.4087 50.540283
61.184364 1257.4087 50.540283
66.282974 1257.4087 50.540283
71.381783 1257.4087 50.540283
76.4804 1257.4087 50.540283
81.579018 1257.4087 50.540283
86.677826 1257.4087 50.540283
91.776451 1257.4087 50.540283
96.875259 1257.4087 50.540283
101.97387 1257.4087 50.540283
107.99298 1249.1333 74.186523
113.13563 1249.1333 74.186523
118.27808 1249.1333 74.186523
124.47272 1240.8579 97.833008
129.65901 1240.8579 97.833008
134.84529 1240.8579 97.833008
140.03175 1240.8579 97.833008
146.49446 1232.2515 122.42505
151.72653 1232.2515 122.42505
156.9584 1232.2515 122.42505
162.19028 1232.2515 122.42505
167.42235 1232.2515 122.42505
174.15857 1223.645 147.01733
179.43622 1223.645 147.01733
184.71367 1223.645 147.01733
189.99112 1223.645 147.01733
195.26877 1223.645 147.01733
200.54623 1223.645 147.01733
205.8239 1223.645 147.01733
211.10133 1223.645 147.01733
218.31973 1214.7078 172.55518
223.64473 1214.7078 172.55518
228.96953 1214.7078 172.55518
234.29451 1214.7078 172.55518
239.61931 1214.7078 172.55518
244.94411 1214.7078 172.55518
250.2691 1214.7078 172.55518
255.59389 1214.7078 172.55518
260.91888 1214.7078 172.55518
266.24368 1214.7078 172.55518
273.98282 1205.7703 198.09326
281.90799 1196.502 224.57715
287.32922 1196.502 224.57715
295.40167 1187.2335 251.06104
-235.43761 1227.4355 120.38086
-228.19983 1236.0837 95.806396
-223.01344 1236.0837 95.806396
-217.82718 1236.0837 95.806396
-212.64078 1236.0837 95.806396
-207.45441 1236.0837 95.806396
-200.55853 1244.3995 72.177246
-195.41597 1244.3995 72.177246
-190.27354 1244.3995 72.177246
-185.13098 1244.3995 72.177246
-179.98843 1244.3995 72.177246
-174.8459 1244.3995 72.177246
-171.14984 1236.0837 95.806396
-165.96358 1236.0837 95.806396
-160.77718 1236.0837 95.806396
-155.59081 1236.0837 95.806396
-150.40443 1236.0837 95.806396
-145.21805 1236.0837 95.806396
-138.84827 1244.3995 72.177246
-133.70572 1244.3995 72.177246
-128.56317 1244.3995 72.177246
-123.42062 1244.3995 72.177246
-118.27808 1244.3995 72.177246
-113.13563 1244.3995 72.177246
-107.99309 1244.3995 72.177246
-102.85054 1244.3995 72.177246
-96.875153 1252.7153 48.547852
-91.776451 1252.7153 48.547852
-86.677826 1252.7153 48.547852
-81.579117 1252.7153 48.547852
-76.4804 1252.7153 48.547852
-71.381691 1252.7153 48.547852
-66.282974 1252.7153 48.547852
-61.184364 1252.7153 48.547852
-56.085648 1252.7153 48.547852
-50.986935 1252.7153 48.547852
-45.888226 1252.7153 48.547852
-40.789509 1252.7153 48.547852
-35.690891 1252.7153 48.547852
-30.592182 1252.7153 48.547852
-25.274302 1261.031 24.918701
-20.219421 1261.031 24.918701
-15.164542 1261.031 24.918701
-10.109758 1261.031 24.918701
-5.0548792 1261.031 24.918701
0 1261.031 24.918701
5.0547829 1261.031 24.918701
10.109758 1261.031 24.918701
15.296041 1252.7153 48.547852
20.394852 1252.7153 48.547852
25.493467 1252.7153 48.547852
30.592083 1252.7153 48.547852
35.690891 1252.7153 48.547852
40.789509 1252.7153 48.547852
45.888317 1252.7153 48.547852
50.986935 1252.7153 48.547852
56.085552 1252.7153 48.547852
61.184364 1252.7153 48.547852
66.282974 1252.7153 48.547852
71.381783 1252.7153 48.547852
76.4804 1252.7153 48.547852
81.579018 1252.7153 48.547852
86.677826 1252.7153 48.547852
91.776451 1252.7153 48.547852
96.875259 1252.7153 48.547852
101.97387 1252.7153 48.547852
107.99298 1244.3995 72.177246
113.13563 1244.3995 72.177246
118.27808 1244.3995 72.177246
124.47272 1236.0837 95.806396
129.65901 1236.0837 95.806396
134.84529 1236.0837 95.806396
141.2626 1227.4355 120.38086
146.49446 1227.4355 120.38086
151.72653 1227.4355 120.38086
156.9584 1227.4355 120.38086
162.19028 1227.4355 120.38086
167.42235 1227.4355 120.38086
174.15857 1218.7871 144.95508
179.43622 1218.7871 144.95508
184.71367 1218.7871 144.95508
189.99112 1218.7871 144.95508
195.26877 1218.7871 144.95508
200.54623 1218.7871 144.95508
205.8239 1218.7871 144.95508
211.10133 1218.7871 144.95508
218.31973 1209.8062 170.47461
223.64473 1209.8062 170.47461
228.96953 1209.8062 170.47461
234.29451 1209.8062 170.47461
239.61931 1209.8062 170.47461
244.94411 1209.8062 170.47461
250.2691 1209.8062 170.47461
255.59389 1209.8062 170.47461
260.91888 1209.8062 170.47461
266.24368 1209.8062 170.47461
276.48657 1191.5116 222.45898
281.90799 1191.5116 222.45898
287.32922 1191.5116 222.45898
295.40167 1182.198 248.92358
-240.66959 1222.6194 118.33667
-235.43761 1222.6194 118.33667
-230.20564 1222.6194 118.33667
-223.01344 1231.3097 93.780029
-217.82718 1231.3097 93.780029
-212.64078 1231.3097 93.780029
-207.45441 1231.3097 93.780029
-202.26804 1231.3097 93.780029
-195.41597 1239.6658 70.167969
-190.27354 1239.6658 70.167969
-185.13098 1239.6658 70.167969
-179.98843 1239.6658 70.167969
-176.33623 1231.3097 93.780029
-171.14984 1231.3097 93.780029
-165.96358 1231.3097 93.780029
-162.19038 1222.6194 118.33667
-156.9584 1222.6194 118.33667
-151.72644 1222.6194 118.33667
-145.21805 1231.3097 93.780029
-140.03175 1231.3097 93.780029
-134.84538 1231.3097 93.780029
-128.56317 1239.6658 70.167969
-123.42062 1239.6658 70.167969
-118.27808 1239.6658 70.167969
-113.13563 1239.6658 70.167969
-107.99309 1239.6658 70.167969
-102.85054 1239.6658 70.167969
-97.707985 1239.6658 70.167969
-92.565445 1239.6658 70.167969
-87.422989 1239.6658 70.167969
-82.280449 1239.6658 70.167969
-77.137901 1239.6658 70.167969
-71.381691 1248.022 46.555664
-66.282974 1248.022 46.555664
-61.184364 1248.022 46.555664
-56.085648 1248.022 46.555664
-50.986935 1248.022 46.555664
-45.888226 1248.022 46.555664
-40.789509 1248.022 46.555664
-35.690891 1248.022 46.555664
-30.592182 1248.022 46.555664
-25.274302 1256.3779 22.943604
-20.219421 1256.3779 22.943604
-15.164542 1256.3779 22.943604
-10.197426 1248.022 46.555664
-5.0987129 1248.022 46.555664
0 1248.022 46.555664
5.0986156 1248.022 46.555664
10.197426 1248.022 46.555664
15.296041 1248.022 46.555664
20.394852 1248.022 46.555664
25.493467 1248.022 46.555664
30.592083 1248.022 46.555664
35.690891 1248.022 46.555664
40.789509 1248.022 46.555664
45.888317 1248.022 46.555664
50.986935 1248.022 46.555664
56.085552 1248.022 46.555664
61.184364 1248.022 46.555664
66.282974 1248.022 46.555664
71.381783 1248.022 46.555664
76.4804 1248.022 46.555664
81.579018 1248.022 46.555664
86.677826 1248.022 46.555664
91.776451 1248.022 46.555664
96.875259 1248.022 46.555664
101.97387 1248.022 46.555664
107.99298 1239.6658 70.167969
113.13563 1239.6658 70.167969
118.27808 1239.6658 70.167969
124.47272 1231.3097 93.780029
129.65901 1231.3097 93.780029
136.03053 1222.6194 118.33667
141.2626 1222.6194 118.33667
146.49446 1222.6194 118.33667
151.72653 1222.6194 118.33667
156.9584 1222.6194 118.33667
162.19028 1222.6194 118.33667
167.42235 1222.6194 118.33667
172.65421 1222.6194 118.33667
179.43622 1213.9291 142.89307
184.71367 1213.9291 142.89307
189.99112 1213.9291 142.89307
195.26877 1213.9291 142.89307
200.54623 1213.9291 142.89307
207.67015 1204.9045 168.39404
212.99493 1204.9045 168.39404
218.31973 1204.9045 168.39404
223.64473 1204.9045 168.39404
228.96953 1204.9045 168.39404
234.29451 1204.9045 168.39404
239.61931 1204.9045 168.39404
247.12175 1195.88 193.89526
252.49408 1195.88 193.89526
255.59389 1204.9045 168.39404
260.91888 1204.9045 168.39404
266.24368 1204.9045 168.39404
273.98282 1195.88 193.89526
279.35516 1195.88 193.89526
287.32922 1186.5212 220.34082
292.75064 1186.5212 220.34082
298.17188 1186.5212 220.34082
-240.66959 1217.8035 116.29224
-235.43761 1217.8035 116.29224
-230.20564 1217.8035 116.29224
-224.97366 1217.8035 116.29224
-219.74182 1217.8035 116.29224
-214.50984 1217.8035 116.29224
-207.45441 1226.5356 91.753662
-202.26804 1226.5356 91.753662
-197.08165 1226.5356 91.753662
-191.89537 1226.5356 91.753662
-186.70898 1226.5356 91.753662
-181.52261 1226.5356 91.753662
-176.33623 1226.5356 91.753662
-171.14984 1226.5356 91.753662
-167.42235 1217.8035 116.29224
-162.19038 1217.8035 116.29224
-156.9584 1217.8035 116.29224
-151.72644 1217.8035 116.29224
-146.49446 1217.8035 116.29224
-141.2626 1217.8035 116.29224
-136.03064 1217.8035 116.29224
-129.65901 1226.5356 91.753662
-123.42062 1234.9321 68.158447
-118.27808 1234.9321 68.158447
-113.13563 1234.9321 68.158447
-107.99309 1234.9321 68.158447
-102.85054 1234.9321 68.158447
-97.707985 1234.9321 68.158447
-92.565445 1234.9321 68.158447
-87.422989 1234.9321 68.158447
-82.280449 1234.9321 68.158447
-77.137901 1234.9321 68.158447
-71.381691 1243.3286 44.563477
-66.282974 1243.3286 44.563477
-61.184364 1243.3286 44.563477
-56.085648 1243.3286 44.563477
-50.986935 1243.3286 44.563477
-45.888226 1243.3286 44.563477
-40.789509 1243.3286 44.563477
-35.690891 1243.3286 44.563477
-30.592182 1243.3286 44.563477
-25.274302 1251.725 20.968506
-20.219421 1251.725 20.968506
-15.164542 1251.725 20.968506
-10.109758 1251.725 20.968506
-5.0548792 1251.725 20.968506
0 1251.725 20.968506
5.0547829 1251.725 20.968506
10.109758 1251.725 20.968506
15.164542 1251.725 20.968506
20.219517 1251.725 20.968506
25.274302 1251.725 20.968506
30.592083 1243.3286 44.563477
35.690891 1243.3286 44.563477
40.789509 1243.3286 44.563477
45.888317 1243.3286 44.563477
50.986935 1243.3286 44.563477
56.085552 1243.3286 44.563477
61.184364 1243.3286 44.563477
66.282974 1243.3286 44.563477
71.381783 1243.3286 44.563477
76.4804 1243.3286 44.563477
81.579018 1243.3286 44.563477
86.677826 1243.3286 44.563477
91.776451 1243.3286 44.563477
96.875259 1243.3286 44.563477
101.97387 1243.3286 44.563477
107.99298 1234.9321 68.158447
113.13563 1234.9321 68.158447
118.27808 1234.9321 68.158447
124.47272 1226.5356 91.753662
129.65901 1226.5356 91.753662
136.03053 1217.8035 116.29224
141.2626 1217.8035 116.29224
146.49446 1217.8035 116.29224
151.72653 1217.8035 116.29224
156.9584 1217.8035 116.29224
162.19028 1217.8035 116.29224
167.42235 1217.8035 116.29224
172.65421 1217.8035 116.29224
179.43622 1209.071 140.83105
184.71367 1209.071 140.83105
191.69536 1200.0031 166.31348
197.02036 1200.0031 166.31348
202.34515 1200.0031 166.31348
207.67015 1200.0031 166.31348
212.99493 1200.0031 166.31348
218.31973 1200.0031 166.31348
223.64473 1200.0031 166.31348
228.96953 1200.0031 166.31348
234.29451 1200.0031 166.31348
239.61931 1200.0031 166.31348
247.12175 1190.9348 191.79614
252.49408 1190.9348 191.79614
255.59389 1200.0031 166.31348
260.91888 1200.0031 166.31348
268.61069 1190.9348 191.79614
273.98282 1190.9348 191.79614
279.35516 1190.9348 191.79614
284.72726 1190.9348 191.79614
292.75064 1181.5309 218.22241
298.17188 1181.5309 218.22241
-241.69881 1230.1984 66.14917
-236.55624 1230.1984 66.14917
-235.43761 1212.9874 114.24805
-230.20564 1212.9874 114.24805
-224.97366 1212.9874 114.24805
-219.74182 1212.9874 114.24805
-214.50984 1212.9874 114.24805
-207.45441 1221.7616 89.727051
-202.26804 1221.7616 89.727051
-197.08165 1221.7616 89.727051
-191.89537 1221.7616 89.727051
-186.70898 1221.7616 89.727051
-181.52261 1221.7616 89.727051
-176.33623 1221.7616 89.727051
-171.14984 1221.7616 89.727051
-167.42235 1212.9874 114.24805
-162.19038 1212.9874 114.24805
-156.9584 1212.9874 114.24805
-151.72644 1212.9874 114.24805
-146.49446 1212.9874 114.24805
-141.2626 1212.9874 114.24805
-136.03064 1212.9874 114.24805
-129.65901 1221.7616 89.727051
-123.42062 1230.1984 66.14917
-118.27808 1230.1984 66.14917
-113.13563 1230.1984 66.14917
-107.99309 1230.1984 66.14917
-102.85054 1230.1984 66.14917
-97.707985 1230.1984 66.14917
-92.565445 1230.1984 66.14917
-87.422989 1230.1984 66.14917
-82.280449 1230.1984 66.14917
-76.4804 1238.6353 42.571289
-71.381691 1238.6353 42.571289
-66.282974 1238.6353 42.571289
-61.184364 1238.6353 42.571289
-56.085648 1238.6353 42.571289
-50.986935 1238.6353 42.571289
-45.888226 1238.6353 42.571289
-40.789509 1238.6353 42.571289
-35.690891 1238.6353 42.571289
-30.592182 1238.6353 42.571289
-25.274302 1247.072 18.993408
-20.219421 1247.072 18.993408
-15.164542 1247.072 18.993408
-10.109758 1247.072 18.993408
-5.0548792 1247.072 18.993408
0 1247.072 18.993408
5.0547829 1247.072 18.993408
10.109758 1247.072 18.993408
15.164542 1247.072 18.993408
20.219517 1247.072 18.993408
25.274302 1247.072 18.993408
30.592083 1238.6353 42.571289
35.690891 1238.6353 42.571289
40.789509 1238.6353 42.571289
45.888317 1238.6353 42.571289
50.986935 1238.6353 42.571289
56.085552 1238.6353 42.571289
61.184364 1238.6353 42.571289
66.852806 1230.1984 66.14917
71.381783 1238.6353 42.571289
76.4804 1238.6353 42.571289
81.579018 1238.6353 42.571289
86.677826 1238.6353 42.571289
91.776451 1238.6353 42.571289
96.875259 1238.6353 42.571289
101.97387 1238.6353 42.571289
107.99298 1230.1984 66.14917
113.13563 1230.1984 66.14917
118.27808 1230.1984 66.14917
124.47272 1221.7616 89.727051
129.65901 1221.7616 89.727051
136.03053 1212.9874 114.24805
141.2626 1212.9874 114.24805
146.49446 1212.9874 114.24805
151.72653 1212.9874 114.24805
156.9584 1212.9874 114.24805
162.19028 1212.9874 114.24805
167.42235 1212.9874 114.24805
172.65421 1212.9874 114.24805
179.43622 1204.2131 138.7688
184.71367 1204.2131 138.7688
191.69536 1195.1014 164.23291
197.02036 1195.1014 164.23291
202.34515 1195.1014 164.23291
207.67015 1195.1014 164.23291
212.99493 1195.1014 164.23291
218.31973 1195.1014 164.23291
223.64473 1195.1014 164.23291
228.96953 1195.1014 164.23291
234.29451 1195.1014 164.23291
239.61931 1195.1014 164.23291
247.12175 1185.9897 189.69702
252.49408 1185.9897 189.69702
257.86621 1185.9897 189.69702
263.23856 1185.9897 189.69702
268.61069 1185.9897 189.69702
273.98282 1185.9897 189.69702
279.35516 1185.9897 189.69702
284.72726 1185.9897 189.69702
292.75064 1176.5405 216.10425
298.17188 1176.5405 216.10425
-246.84125 1225.4646 64.139893
-241.69881 1225.4646 64.139893
-236.55624 1225.4646 64.139893
