ply
format ascii 1.0
comment PCL generated
element vertex 1583
property float x
property float y
property float z
element camera 0
property float view_px
property float view_py
property float view_pz
property float x_axisx
property float x_axisy
property float x_axisz
property float y_axisx
property float y_axisy
property float y_axisz
property float z_axisx
property float z_axisy
property float z_axisz
property float focal
property float scalex
property float scaley
property float centerx
property float centery
property int viewportx
property int viewporty
property float k1
property float k2
end_header
205.70108 1215.9972 60.121094
207.24919 1233.1129 13.068115
212.30417 1233.1129 13.068115
-92.996849 1146.9493 233.96143
-87.526421 1146.9493 233.96143
-82.056 1146.9493 233.96143
-75.210968 1166.2091 181.30054
-69.838737 1166.2091 181.30054
-64.466599 1166.2091 181.30054
-58.573627 1175.4952 155.9104
-53.248734 1175.4952 155.9104
-47.92384 1175.4952 155.9104
-42.598946 1175.4952 155.9104
-37.274155 1175.4952 155.9104
-31.949263 1175.4952 155.9104
-26.387667 1184.7811 130.52051
-20.927767 1193.7233 106.0708
-15.695801 1193.7233 106.0708
-10.463933 1193.7233 106.0708
-5.2319665 1193.7233 106.0708
0 1193.7233 106.0708
5.2318668 1193.7233 106.0708
10.37276 1202.6653 81.621094
15.559041 1202.6653 81.621094
20.74552 1202.6653 81.621094
25.931801 1202.6653 81.621094
31.118082 1202.6653 81.621094
36.304562 1202.6653 81.621094
41.490841 1202.6653 81.621094
46.282822 1211.2634 58.111816
51.42527 1211.2634 58.111816
56.567715 1211.2634 58.111816
61.710361 1211.2634 58.111816
66.852806 1211.2634 58.111816
71.995453 1211.2634 58.111816
76.4804 1219.8617 34.602539
81.579018 1219.8617 34.602539
86.677826 1219.8617 34.602539
91.776451 1219.8617 34.602539
96.875259 1219.8617 34.602539
101.97387 1219.8617 34.602539
107.07249 1219.8617 34.602539
112.1713 1219.8617 34.602539
117.26991 1219.8617 34.602539
122.36873 1219.8617 34.602539
126.37151 1228.46 11.093018
131.42628 1228.46 11.093018
136.48126 1228.46 11.093018
141.53606 1228.46 11.093018
147.86218 1219.8617 34.602539
152.9608 1219.8617 34.602539
158.05943 1219.8617 34.602539
163.15823 1219.8617 34.602539
169.70334 1211.2634 58.111816
174.84598 1211.2634 58.111816
179.98843 1211.2634 58.111816
185.13089 1211.2634 58.111816
190.27354 1211.2634 58.111816
195.41597 1211.2634 58.111816
200.55862 1211.2634 58.111816
205.70108 1211.2634 58.111816
212.6407 1202.6653 81.621094
-92.996849 1141.9138 231.82397
-87.526421 1141.9138 231.82397
-82.056 1141.9138 231.82397
-75.210968 1161.264 179.20166
-69.838737 1161.264 179.20166
-64.466599 1161.264 179.20166
-58.573627 1170.5936 153.82983
-53.248734 1170.5936 153.82983
-47.92384 1170.5936 153.82983
-42.598946 1170.5936 153.82983
-37.274155 1170.5936 153.82983
-31.66522 1179.9231 128.4585
-26.387667 1179.9231 128.4585
-20.927767 1188.9072 104.02661
-15.695801 1188.9072 104.02661
-10.463933 1188.9072 104.02661
-5.2319665 1188.9072 104.02661
0 1188.9072 104.02661
5.2318668 1188.9072 104.02661
10.37276 1197.8912 79.594727
15.559041 1197.8912 79.594727
20.74552 1197.8912 79.594727
25.931801 1197.8912 79.594727
31.118082 1197.8912 79.594727
36.304562 1197.8912 79.594727
41.490841 1197.8912 79.594727
46.282822 1206.5298 56.102539
51.42527 1206.5298 56.102539
56.567715 1206.5298 56.102539
61.710361 1206.5298 56.102539
66.852806 1206.5298 56.102539
71.995453 1206.5298 56.102539
76.4804 1215.1683 32.610352
81.579018 1215.1683 32.610352
86.677826 1215.1683 32.610352
91.776451 1215.1683 32.610352
96.875259 1215.1683 32.610352
101.97387 1215.1683 32.610352
107.07249 1215.1683 32.610352
112.1713 1215.1683 32.610352
117.26991 1215.1683 32.610352
122.36873 1215.1683 32.610352
127.46734 1215.1683 32.610352
132.56595 1215.1683 32.610352
136.48126 1223.8069 9.1179199
141.53606 1223.8069 9.1179199
147.86218 1215.1683 32.610352
152.9608 1215.1683 32.610352
158.05943 1215.1683 32.610352
163.15823 1215.1683 32.610352
168.25684 1215.1683 32.610352
174.84598 1206.5298 56.102539
179.98843 1206.5298 56.102539
185.13089 1206.5298 56.102539
190.27354 1206.5298 56.102539
195.41597 1206.5298 56.102539
200.55862 1206.5298 56.102539
207.45441 1197.8912 79.594727
212.6407 1197.8912 79.594727
217.82718 1197.8912 79.594727
-92.996849 1136.8783 229.68652
-87.526421 1136.8783 229.68652
-82.056 1136.8783 229.68652
-75.898277 1146.5985 203.39453
-69.838737 1156.3188 177.10254
-64.466599 1156.3188 177.10254
-58.573627 1165.692 151.74927
-53.248734 1165.692 151.74927
-47.92384 1165.692 151.74927
-42.598946 1165.692 151.74927
-37.274155 1165.692 151.74927
-31.66522 1175.0652 126.39624
-26.387667 1175.0652 126.39624
-20.927767 1184.0912 101.98242
-15.695801 1184.0912 101.98242
-10.463933 1184.0912 101.98242
-5.2319665 1184.0912 101.98242
0 1184.0912 101.98242
5.2318668 1184.0912 101.98242
10.463933 1184.0912 101.98242
15.559041 1193.1172 77.568359
20.74552 1193.1172 77.568359
25.931801 1193.1172 77.568359
31.118082 1193.1172 77.568359
36.304562 1193.1172 77.568359
41.490841 1193.1172 77.568359
46.282822 1201.7961 54.093262
51.42527 1201.7961 54.093262
56.567715 1201.7961 54.093262
61.710361 1201.7961 54.093262
66.852806 1201.7961 54.093262
71.995453 1201.7961 54.093262
76.4804 1210.475 30.61792
81.579018 1210.475 30.61792
86.677826 1210.475 30.61792
91.776451 1210.475 30.61792
96.875259 1210.475 30.61792
101.97387 1210.475 30.61792
107.07249 1210.475 30.61792
112.1713 1210.475 30.61792
117.26991 1210.475 30.61792
122.36873 1210.475 30.61792
127.46734 1210.475 30.61792
132.56595 1210.475 30.61792
137.66476 1210.475 30.61792
142.76338 1210.475 30.61792
147.86218 1210.475 30.61792
152.9608 1210.475 30.61792
158.05943 1210.475 30.61792
163.15823 1210.475 30.61792
168.25684 1210.475 30.61792
174.84598 1201.7961 54.093262
179.98843 1201.7961 54.093262
185.13089 1201.7961 54.093262
190.27354 1201.7961 54.093262
195.41597 1201.7961 54.093262
200.55862 1201.7961 54.093262
207.45441 1193.1172 77.568359
212.6407 1193.1172 77.568359
219.74182 1184.0912 101.98242
-98.467163 1131.8428 227.54883
-92.996849 1131.8428 227.54883
-87.526421 1131.8428 227.54883
-82.056 1131.8428 227.54883
-75.898277 1141.6082 201.27637
-69.838737 1151.3737 175.00342
-64.466599 1151.3737 175.00342
-59.094368 1151.3737 175.00342
-53.248734 1160.7905 149.6687
-47.92384 1160.7905 149.6687
-42.598946 1160.7905 149.6687
-37.274155 1160.7905 149.6687
-31.949263 1160.7905 149.6687
-26.387667 1170.2072 124.33423
-20.927767 1179.2753 99.937988
-15.695801 1179.2753 99.937988
-10.463933 1179.2753 99.937988
-5.2319665 1179.2753 99.937988
0 1179.2753 99.937988
5.2318668 1179.2753 99.937988
10.463933 1179.2753 99.937988
15.695801 1179.2753 99.937988
20.927866 1179.2753 99.937988
25.931801 1188.3431 75.541748
31.118082 1188.3431 75.541748
36.304562 1188.3431 75.541748
41.490841 1188.3431 75.541748
46.282822 1197.0624 52.08374
51.42527 1197.0624 52.08374
56.567715 1197.0624 52.08374
61.710361 1197.0624 52.08374
66.852806 1197.0624 52.08374
71.995453 1197.0624 52.08374
76.4804 1205.7816 28.625732
81.579018 1205.7816 28.625732
86.677826 1205.7816 28.625732
91.776451 1205.7816 28.625732
96.875259 1205.7816 28.625732
101.97387 1205.7816 28.625732
107.07249 1205.7816 28.625732
112.1713 1205.7816 28.625732
117.26991 1205.7816 28.625732
122.36873 1205.7816 28.625732
127.46734 1205.7816 28.625732
132.56595 1205.7816 28.625732
137.66476 1205.7816 28.625732
142.76338 1205.7816 28.625732
147.86218 1205.7816 28.625732
152.9608 1205.7816 28.625732
158.05943 1205.7816 28.625732
163.15823 1205.7816 28.625732
168.25684 1205.7816 28.625732
173.35565 1205.7816 28.625732
178.45427 1205.7816 28.625732
185.13089 1197.0624 52.08374
190.27354 1197.0624 52.08374
195.41597 1197.0624 52.08374
200.55862 1197.0624 52.08374
207.45441 1188.3431 75.541748
212.6407 1188.3431 75.541748
219.74182 1179.2753 99.937988
224.97366 1179.2753 99.937988
-98.467163 1126.8073 225.41138
-92.996849 1126.8073 225.41138
-87.526421 1126.8073 225.41138
-82.056 1126.8073 225.41138
-75.898277 1136.6179 199.15796
-70.476952 1136.6179 199.15796
-64.466599 1146.4286 172.9043
-59.094368 1146.4286 172.9043
-53.248734 1155.8889 147.58813
-47.92384 1155.8889 147.58813
-42.598946 1155.8889 147.58813
-37.274155 1155.8889 147.58813
-31.949263 1155.8889 147.58813
-26.387667 1165.3492 122.27222
-20.927767 1174.4592 97.893799
-15.695801 1174.4592 97.893799
-10.463933 1174.4592 97.893799
-5.2319665 1174.4592 97.893799
0 1174.4592 97.893799
5.2318668 1174.4592 97.893799
10.463933 1174.4592 97.893799
15.695801 1174.4592 97.893799
20.927866 1174.4592 97.893799
25.931801 1183.5691 73.515381
31.118082 1183.5691 73.515381
36.304562 1183.5691 73.515381
41.490841 1183.5691 73.515381
46.282822 1192.3286 50.074463
51.42527 1192.3286 50.074463
56.567715 1192.3286 50.074463
61.710361 1192.3286 50.074463
66.852806 1192.3286 50.074463
71.995453 1192.3286 50.074463
76.4804 1201.0883 26.633545
81.579018 1201.0883 26.633545
86.677826 1201.0883 26.633545
91.776451 1201.0883 26.633545
96.875259 1201.0883 26.633545
101.97387 1201.0883 26.633545
107.07249 1201.0883 26.633545
112.1713 1201.0883 26.633545
117.26991 1201.0883 26.633545
122.36873 1201.0883 26.633545
127.46734 1201.0883 26.633545
132.56595 1201.0883 26.633545
137.66476 1201.0883 26.633545
142.76338 1201.0883 26.633545
147.86218 1201.0883 26.633545
152.9608 1201.0883 26.633545
158.05943 1201.0883 26.633545
163.15823 1201.0883 26.633545
168.25684 1201.0883 26.633545
173.35565 1201.0883 26.633545
178.45427 1201.0883 26.633545
185.13089 1192.3286 50.074463
190.27354 1192.3286 50.074463
195.41597 1192.3286 50.074463
200.55862 1192.3286 50.074463
205.70108 1192.3286 50.074463
212.6407 1183.5691 73.515381
217.82718 1183.5691 73.515381
224.97366 1174.4592 97.893799
-98.467163 1121.7717 223.27393
-92.996849 1121.7717 223.27393
-87.526421 1121.7717 223.27393
-82.056 1121.7717 223.27393
-75.898277 1131.6276 197.03979
-70.476952 1131.6276 197.03979
-65.055725 1131.6276 197.03979
-59.094368 1141.4834 170.80518
-53.248734 1150.9873 145.50757
-47.92384 1150.9873 145.50757
-42.598946 1150.9873 145.50757
-37.274155 1150.9873 145.50757
-31.949263 1150.9873 145.50757
-26.387667 1160.4912 120.20996
-20.927767 1169.6432 95.849365
-15.695801 1169.6432 95.849365
-10.463933 1169.6432 95.849365
-5.2319665 1169.6432 95.849365
0 1169.6432 95.849365
5.2318668 1169.6432 95.849365
10.463933 1169.6432 95.849365
15.695801 1169.6432 95.849365
20.927866 1169.6432 95.849365
25.931801 1178.7949 71.48877
31.118082 1178.7949 71.48877
36.304562 1178.7949 71.48877
41.490841 1178.7949 71.48877
46.677322 1178.7949 71.48877
51.42527 1187.595 48.065186
56.567715 1187.595 48.065186
61.710361 1187.595 48.065186
66.852806 1187.595 48.065186
71.995453 1187.595 48.065186
77.137901 1187.595 48.065186
82.28035 1187.595 48.065186
86.677826 1196.3949 24.641357
91.776451 1196.3949 24.641357
97.708092 1187.595 48.065186
101.97387 1196.3949 24.641357
107.07249 1196.3949 24.641357
112.1713 1196.3949 24.641357
117.26991 1196.3949 24.641357
122.36873 1196.3949 24.641357
127.46734 1196.3949 24.641357
132.56595 1196.3949 24.641357
137.66476 1196.3949 24.641357
142.76338 1196.3949 24.641357
147.86218 1196.3949 24.641357
152.9608 1196.3949 24.641357
158.05943 1196.3949 24.641357
163.15823 1196.3949 24.641357
168.25684 1196.3949 24.641357
173.35565 1196.3949 24.641357
178.45427 1196.3949 24.641357
183.5529 1196.3949 24.641357
190.27354 1187.595 48.065186
195.41597 1187.595 48.065186
200.55862 1187.595 48.065186
205.70108 1187.595 48.065186
212.6407 1178.7949 71.48877
217.82718 1178.7949 71.48877
224.97366 1169.6432 95.849365
230.20573 1169.6432 95.849365
-98.467163 1116.7362 221.13647
-92.996849 1116.7362 221.13647
-87.526421 1116.7362 221.13647
-82.056 1116.7362 221.13647
-75.898277 1126.6372 194.92139
-70.476952 1126.6372 194.92139
-65.055725 1126.6372 194.92139
-58.573627 1146.0858 143.427
-53.248734 1146.0858 143.427
-47.92384 1146.0858 143.427
-42.598946 1146.0858 143.427
-37.274155 1146.0858 143.427
-31.949263 1146.0858 143.427
-26.624367 1146.0858 143.427
-21.110115 1155.6332 118.14795
-15.83256 1155.6332 118.14795
-10.463933 1164.8271 93.805176
-5.2319665 1164.8271 93.805176
0 1164.8271 93.805176
5.2318668 1164.8271 93.805176
10.463933 1164.8271 93.805176
15.695801 1164.8271 93.805176
20.927866 1164.8271 93.805176
26.159735 1164.8271 93.805176
31.391602 1164.8271 93.805176
36.623669 1164.8271 93.805176
41.490841 1174.0209 69.462402
46.677322 1174.0209 69.462402
51.863602 1174.0209 69.462402
56.567715 1182.8612 46.055664
61.710361 1182.8612 46.055664
66.852806 1182.8612 46.055664
71.995453 1182.8612 46.055664
77.137901 1182.8612 46.055664
82.28035 1182.8612 46.055664
86.677826 1191.7015 22.64917
91.776451 1191.7015 22.64917
97.708092 1182.8612 46.055664
101.97387 1191.7015 22.64917
107.07249 1191.7015 22.64917
112.1713 1191.7015 22.64917
117.26991 1191.7015 22.64917
122.36873 1191.7015 22.64917
127.46734 1191.7015 22.64917
132.56595 1191.7015 22.64917
137.66476 1191.7015 22.64917
142.76338 1191.7015 22.64917
147.86218 1191.7015 22.64917
152.9608 1191.7015 22.64917
158.05943 1191.7015 22.64917
163.15823 1191.7015 22.64917
168.25684 1191.7015 22.64917
173.35565 1191.7015 22.64917
178.45427 1191.7015 22.64917
183.5529 1191.7015 22.64917
188.6517 1191.7015 22.64917
195.41597 1182.8612 46.055664
200.55862 1182.8612 46.055664
205.70108 1182.8612 46.055664
212.6407 1174.0209 69.462402
217.82718 1174.0209 69.462402
224.97366 1164.8271 93.805176
230.20573 1164.8271 93.805176
235.43761 1164.8271 93.805176
-103.00481 1121.6469 192.80322
-97.583481 1121.6469 192.80322
-92.996849 1111.7006 218.99902
-86.740929 1121.6469 192.80322
-81.319603 1121.6469 192.80322
-75.898277 1121.6469 192.80322
-70.476952 1121.6469 192.80322
-64.466599 1131.593 166.60693
-58.573627 1141.1842 141.34619
-53.248734 1141.1842 141.34619
-47.92384 1141.1842 141.34619
-42.598946 1141.1842 141.34619
-37.274155 1141.1842 141.34619
-31.949263 1141.1842 141.34619
-26.387667 1150.7751 116.08594
-21.110115 1150.7751 116.08594
-15.83256 1150.7751 116.08594
-10.463933 1160.011 91.760986
-5.2319665 1160.011 91.760986
0 1160.011 91.760986
5.2318668 1160.011 91.760986
10.463933 1160.011 91.760986
15.695801 1160.011 91.760986
20.927866 1160.011 91.760986
26.159735 1160.011 91.760986
31.391602 1160.011 91.760986
36.623669 1160.011 91.760986
41.490841 1169.2468 67.435791
46.677322 1169.2468 67.435791
51.863602 1169.2468 67.435791
56.567715 1178.1274 44.046387
61.710361 1178.1274 44.046387
66.852806 1178.1274 44.046387
71.995453 1178.1274 44.046387
77.137901 1178.1274 44.046387
82.28035 1178.1274 44.046387
87.422989 1178.1274 44.046387
92.565445 1178.1274 44.046387
97.708092 1178.1274 44.046387
102.85054 1178.1274 44.046387
107.07249 1187.0081 20.656982
112.1713 1187.0081 20.656982
117.26991 1187.0081 20.656982
122.36873 1187.0081 20.656982
127.46734 1187.0081 20.656982
132.56595 1187.0081 20.656982
137.66476 1187.0081 20.656982
142.76338 1187.0081 20.656982
147.86218 1187.0081 20.656982
152.9608 1187.0081 20.656982
158.05943 1187.0081 20.656982
163.15823 1187.0081 20.656982
168.25684 1187.0081 20.656982
173.35565 1187.0081 20.656982
178.45427 1187.0081 20.656982
183.5529 1187.0081 20.656982
188.6517 1187.0081 20.656982
195.41597 1178.1274 44.046387
200.55862 1178.1274 44.046387
205.70108 1178.1274 44.046387
212.6407 1169.2468 67.435791
217.82718 1169.2468 67.435791
223.01344 1169.2468 67.435791
228.19992 1169.2468 67.435791
233.38622 1169.2468 67.435791
-103.00481 1116.6565 190.68481
-97.583481 1116.6565 190.68481
-92.162254 1116.6565 190.68481
-86.740929 1116.6565 190.68481
-81.319603 1116.6565 190.68481
-75.898277 1116.6565 190.68481
-70.476952 1116.6565 190.68481
-64.466599 1126.6479 164.50781
-58.573627 1136.2826 139.26562
-53.248734 1136.2826 139.26562
-47.92384 1136.2826 139.26562
-42.598946 1136.2826 139.26562
-37.274155 1136.2826 139.26562
-31.949263 1136.2826 139.26562
-26.387667 1145.9171 114.02368
-21.110115 1145.9171 114.02368
-15.695801 1155.1949 89.716553
-10.463933 1155.1949 89.716553
-5.2319665 1155.1949 89.716553
0 1155.1949 89.716553
5.2318668 1155.1949 89.716553
10.463933 1155.1949 89.716553
15.695801 1155.1949 89.716553
20.927866 1155.1949 89.716553
26.159735 1155.1949 89.716553
31.391602 1155.1949 89.716553
36.623669 1155.1949 89.716553
41.490841 1164.4727 65.409424
46.677322 1164.4727 65.409424
51.863602 1164.4727 65.409424
56.567715 1173.3937 42.037109
61.710361 1173.3937 42.037109
66.852806 1173.3937 42.037109
71.995453 1173.3937 42.037109
77.137901 1173.3937 42.037109
82.28035 1173.3937 42.037109
87.422989 1173.3937 42.037109
92.565445 1173.3937 42.037109
97.708092 1173.3937 42.037109
102.85054 1173.3937 42.037109
107.99298 1173.3937 42.037109
112.1713 1182.3147 18.664795
117.26991 1182.3147 18.664795
122.36873 1182.3147 18.664795
127.46734 1182.3147 18.664795
132.56595 1182.3147 18.664795
137.66476 1182.3147 18.664795
142.76338 1182.3147 18.664795
147.86218 1182.3147 18.664795
152.9608 1182.3147 18.664795
158.05943 1182.3147 18.664795
163.15823 1182.3147 18.664795
168.25684 1182.3147 18.664795
173.35565 1182.3147 18.664795
178.45427 1182.3147 18.664795
183.5529 1182.3147 18.664795
188.6517 1182.3147 18.664795
195.41597 1173.3937 42.037109
200.55862 1173.3937 42.037109
205.70108 1173.3937 42.037109
210.84354 1173.3937 42.037109
215.98618 1173.3937 42.037109
223.01344 1164.4727 65.409424
226.27126 1173.3937 42.037109
231.41371 1173.3937 42.037109
236.55617 1173.3937 42.037109
241.69881 1173.3937 42.037109
-144.46062 989.43384 507.13086
-138.44141 989.43384 507.13086
-132.4223 989.43384 507.13086
-103.00481 1111.6661 188.56665
-97.583481 1111.6661 188.56665
-92.162254 1111.6661 188.56665
-86.740929 1111.6661 188.56665
-81.319603 1111.6661 188.56665
-75.898277 1111.6661 188.56665
-69.838737 1121.7028 162.40869
-64.466599 1121.7028 162.40869
-58.573627 1131.381 137.18506
-53.248734 1131.381 137.18506
-47.92384 1131.381 137.18506
-42.598946 1131.381 137.18506
-37.274155 1131.381 137.18506
-31.66522 1141.0592 111.96167
-26.387667 1141.0592 111.96167
-20.927767 1150.379 87.672363
-15.695801 1150.379 87.672363
-10.463933 1150.379 87.672363
-5.2319665 1150.379 87.672363
0 1150.379 87.672363
5.2318668 1150.379 87.672363
10.463933 1150.379 87.672363
15.695801 1150.379 87.672363
20.927866 1150.379 87.672363
26.159735 1150.379 87.672363
31.391602 1150.379 87.672363
36.623669 1150.379 87.672363
41.490841 1159.6986 63.383057
46.677322 1159.6986 63.383057
51.863602 1159.6986 63.383057
57.049881 1159.6986 63.383057
61.710361 1168.66 40.027832
66.852806 1168.66 40.027832
72.609123 1159.6986 63.383057
77.137901 1168.66 40.027832
82.28035 1168.66 40.027832
87.422989 1168.66 40.027832
92.565445 1168.66 40.027832
97.708092 1168.66 40.027832
102.85054 1168.66 40.027832
107.99298 1168.66 40.027832
112.1713 1177.6213 16.672363
117.26991 1177.6213 16.672363
122.36873 1177.6213 16.672363
127.46734 1177.6213 16.672363
132.56595 1177.6213 16.672363
137.66476 1177.6213 16.672363
142.76338 1177.6213 16.672363
147.86218 1177.6213 16.672363
152.9608 1177.6213 16.672363
158.05943 1177.6213 16.672363
163.15823 1177.6213 16.672363
168.25684 1177.6213 16.672363
173.35565 1177.6213 16.672363
178.45427 1177.6213 16.672363
183.5529 1177.6213 16.672363
188.6517 1177.6213 16.672363
195.41597 1168.66 40.027832
200.55862 1168.66 40.027832
205.70108 1168.66 40.027832
210.84354 1168.66 40.027832
215.98618 1168.66 40.027832
221.12862 1168.66 40.027832
226.27126 1168.66 40.027832
231.41371 1168.66 40.027832
236.55617 1168.66 40.027832
241.69881 1168.66 40.027832
-170.25565 971.29102 537.45215
-164.17517 971.29102 537.45215
-158.09459 971.29102 537.45215
-150.47984 983.89319 504.77905
-144.46062 983.89319 504.77905
-138.44141 983.89319 504.77905
-132.4223 983.89319 504.77905
-127.69179 971.29102 537.45215
-103.93758 1096.594 212.58667
-97.583481 1106.6758 186.44824
-92.162254 1106.6758 186.44824
-86.740929 1106.6758 186.44824
-81.319603 1106.6758 186.44824
-75.898277 1106.6758 186.44824
-69.838737 1116.7576 160.30981
-64.466599 1116.7576 160.30981
-58.573627 1126.4795 135.10449
-53.248734 1126.4795 135.10449
-47.92384 1126.4795 135.10449
-42.22023 1136.2012 109.89966
-36.942772 1136.2012 109.89966
-31.66522 1136.2012 109.89966
-26.387667 1136.2012 109.89966
-20.927767 1145.563 85.62793
-15.695801 1145.563 85.62793
-10.463933 1145.563 85.62793
-5.2319665 1145.563 85.62793
0 1145.563 85.62793
5.2318668 1145.563 85.62793
10.463933 1145.563 85.62793
15.695801 1145.563 85.62793
20.927866 1145.563 85.62793
26.159735 1145.563 85.62793
31.391602 1145.563 85.62793
36.623669 1145.563 85.62793
41.490841 1154.9246 61.356445
46.677322 1154.9246 61.356445
51.863602 1154.9246 61.356445
57.049881 1154.9246 61.356445
62.236362 1154.9246 61.356445
67.422646 1154.9246 61.356445
72.609123 1154.9246 61.356445
77.795403 1154.9246 61.356445
82.981682 1154.9246 61.356445
88.168159 1154.9246 61.356445
92.565445 1163.9263 38.018311
97.708092 1163.9263 38.018311
102.85054 1163.9263 38.018311
107.07249 1172.928 14.680176
112.1713 1172.928 14.680176
117.26991 1172.928 14.680176
122.36873 1172.928 14.680176
127.46734 1172.928 14.680176
132.56595 1172.928 14.680176
137.66476 1172.928 14.680176
142.76338 1172.928 14.680176
147.86218 1172.928 14.680176
152.9608 1172.928 14.680176
158.05943 1172.928 14.680176
163.15823 1172.928 14.680176
168.25684 1172.928 14.680176
173.35565 1172.928 14.680176
178.45427 1172.928 14.680176
183.5529 1172.928 14.680176
188.6517 1172.928 14.680176
195.41597 1163.9263 38.018311
200.55862 1163.9263 38.018311
203.94774 1172.928 14.680176
209.04636 1172.928 14.680176
215.98618 1163.9263 38.018311
221.12862 1163.9263 38.018311
226.27126 1163.9263 38.018311
231.41371 1163.9263 38.018311
236.55617 1163.9263 38.018311
241.69881 1163.9263 38.018311
248.94525 1154.9246 61.356445
-176.33621 965.69373 535.07642
-170.25565 965.69373 535.07642
-164.17517 965.69373 535.07642
-156.49907 978.35254 502.42725
-150.47984 978.35254 502.42725
-144.46062 978.35254 502.42725
-138.44141 978.35254 502.42725
-132.4223 978.35254 502.42725
-125.15121 990.64966 470.71094
-119.1916 990.64966 470.71094
-113.232 990.64966 470.71094
-97.583481 1101.6854 184.33008
-91.327667 1111.8125 158.21069
-85.955437 1111.8125 158.21069
-81.319603 1101.6854 184.33008
-75.210968 1111.8125 158.21069
-69.838737 1111.8125 158.21069
-63.898525 1121.5779 133.02393
-58.573627 1121.5779 133.02393
-53.248734 1121.5779 133.02393
-47.49778 1131.3431 107.8374
-42.22023 1131.3431 107.8374
-36.942772 1131.3431 107.8374
-31.391701 1140.7469 83.58374
-26.159735 1140.7469 83.58374
-20.927767 1140.7469 83.58374
-15.695801 1140.7469 83.58374
-10.463933 1140.7469 83.58374
-5.2319665 1140.7469 83.58374
0 1140.7469 83.58374
5.2318668 1140.7469 83.58374
10.463933 1140.7469 83.58374
15.695801 1140.7469 83.58374
20.927866 1140.7469 83.58374
26.159735 1140.7469 83.58374
31.391602 1140.7469 83.58374
36.623669 1140.7469 83.58374
41.855534 1140.7469 83.58374
47.087601 1140.7469 83.58374
51.863602 1150.1505 59.330078
57.049881 1150.1505 59.330078
62.236362 1150.1505 59.330078
67.422646 1150.1505 59.330078
72.609123 1150.1505 59.330078
77.795403 1150.1505 59.330078
82.981682 1150.1505 59.330078
88.168159 1150.1505 59.330078
92.565445 1159.1925 36.009033
97.708092 1159.1925 36.009033
102.85054 1159.1925 36.009033
107.07249 1168.2346 12.687988
112.1713 1168.2346 12.687988
117.26991 1168.2346 12.687988
122.36873 1168.2346 12.687988
127.46734 1168.2346 12.687988
132.56595 1168.2346 12.687988
137.66476 1168.2346 12.687988
142.76338 1168.2346 12.687988
147.86218 1168.2346 12.687988
152.9608 1168.2346 12.687988
158.05943 1168.2346 12.687988
163.15823 1168.2346 12.687988
168.25684 1168.2346 12.687988
173.35565 1168.2346 12.687988
178.45427 1168.2346 12.687988
183.5529 1168.2346 12.687988
188.6517 1168.2346 12.687988
195.41597 1159.1925 36.009033
200.55862 1159.1925 36.009033
203.94774 1168.2346 12.687988
209.04636 1168.2346 12.687988
215.98618 1159.1925 36.009033
221.12862 1159.1925 36.009033
226.27126 1159.1925 36.009033
231.41371 1159.1925 36.009033
236.55617 1159.1925 36.009033
241.69881 1159.1925 36.009033
248.94525 1150.1505 59.330078
256.36548 1140.7469 83.58374
-192.61424 972.81189 500.07544
-186.59503 972.81189 500.07544
-180.57581 972.81189 500.07544
-174.55658 972.81189 500.07544
-168.53737 972.81189 500.07544
-162.51826 972.81189 500.07544
-156.49907 972.81189 500.07544
-150.47984 972.81189 500.07544
-144.46062 972.81189 500.07544
-138.44141 972.81189 500.07544
-132.4223 972.81189 500.07544
-125.15121 985.16382 468.38232
-103.93758 1086.5229 208.31177
-97.583481 1096.6952 182.21191
-91.327667 1106.8673 156.11157
-85.955437 1106.8673 156.11157
-81.319603 1096.6952 182.21191
-75.210968 1106.8673 156.11157
-69.838737 1106.8673 156.11157
-63.898525 1116.6763 130.94336
-58.573627 1116.6763 130.94336
-53.248734 1116.6763 130.94336
-47.49778 1126.4852 105.77539
-42.22023 1126.4852 105.77539
-36.942772 1126.4852 105.77539
-31.391701 1135.9309 81.539551
-26.159735 1135.9309 81.539551
-20.927767 1135.9309 81.539551
-15.695801 1135.9309 81.539551
-10.463933 1135.9309 81.539551
-5.2319665 1135.9309 81.539551
0 1135.9309 81.539551
5.2318668 1135.9309 81.539551
10.463933 1135.9309 81.539551
15.695801 1135.9309 81.539551
20.927866 1135.9309 81.539551
26.159735 1135.9309 81.539551
31.391602 1135.9309 81.539551
36.623669 1135.9309 81.539551
41.855534 1135.9309 81.539551
47.087601 1135.9309 81.539551
52.319469 1135.9309 81.539551
57.551338 1135.9309 81.539551
62.236362 1145.3765 57.303467
67.422646 1145.3765 57.303467
72.609123 1145.3765 57.303467
77.795403 1145.3765 57.303467
82.981682 1145.3765 57.303467
88.168159 1145.3765 57.303467
93.354446 1145.3765 57.303467
97.708092 1154.4589 33.999756
102.85054 1154.4589 33.999756
107.99298 1154.4589 33.999756
112.1713 1163.5413 10.695801
117.26991 1163.5413 10.695801
122.36873 1163.5413 10.695801
127.46734 1163.5413 10.695801
132.56595 1163.5413 10.695801
137.66476 1163.5413 10.695801
142.76338 1163.5413 10.695801
147.86218 1163.5413 10.695801
152.9608 1163.5413 10.695801
158.05943 1163.5413 10.695801
163.15823 1163.5413 10.695801
169.70334 1154.4589 33.999756
173.35565 1163.5413 10.695801
178.45427 1163.5413 10.695801
183.5529 1163.5413 10.695801
188.6517 1163.5413 10.695801
195.41597 1154.4589 33.999756
200.55862 1154.4589 33.999756
203.94774 1163.5413 10.695801
209.04636 1163.5413 10.695801
214.14517 1163.5413 10.695801
219.24377 1163.5413 10.695801
226.27126 1154.4589 33.999756
229.44121 1163.5413 10.695801
234.53983 1163.5413 10.695801
241.69881 1154.4589 33.999756
246.84125 1154.4589 33.999756
254.13171 1145.3765 57.303467
259.31802 1145.3765 57.303467
266.82922 1135.9309 81.539551
-208.58531 979.6781 466.05371
-202.6257 979.6781 466.05371
-198.63335 967.27112 497.72339
-192.61424 967.27112 497.72339
-186.59503 967.27112 497.72339
-180.57581 967.27112 497.72339
-174.55658 967.27112 497.72339
-168.53737 967.27112 497.72339
-162.51826 967.27112 497.72339
-156.49907 967.27112 497.72339
-150.47984 967.27112 497.72339
-144.46062 967.27112 497.72339
-138.44141 967.27112 497.72339
-132.4223 967.27112 497.72339
-125.15121 979.6781 466.05371
-117.99934 992.08496 434.38354
-103.93758 1081.4874 206.17432
-96.699806 1101.9221 154.01245
-91.327667 1101.9221 154.01245
-85.955437 1101.9221 154.01245
-81.319603 1091.7048 180.09351
-75.898277 1091.7048 180.09351
-69.838737 1101.9221 154.01245
-64.466599 1101.9221 154.01245
-58.573627 1111.7748 128.86279
-53.248734 1111.7748 128.86279
-47.92384 1111.7748 128.86279
-42.22023 1121.6272 103.71338
-36.942772 1121.6272 103.71338
-31.66522 1121.6272 103.71338
-26.387667 1121.6272 103.71338
-20.927767 1131.1149 79.495117
-15.695801 1131.1149 79.495117
-10.463933 1131.1149 79.495117
-5.2319665 1131.1149 79.495117
0 1131.1149 79.495117
5.2318668 1131.1149 79.495117
10.463933 1131.1149 79.495117
15.695801 1131.1149 79.495117
20.927866 1131.1149 79.495117
26.159735 1131.1149 79.495117
31.391602 1131.1149 79.495117
36.623669 1131.1149 79.495117
41.855534 1131.1149 79.495117
47.087601 1131.1149 79.495117
52.319469 1131.1149 79.495117
57.551338 1131.1149 79.495117
62.783401 1131.1149 79.495117
67.422646 1140.6024 55.2771
72.609123 1140.6024 55.2771
77.795403 1140.6024 55.2771
82.981682 1140.6024 55.2771
88.168159 1140.6024 55.2771
93.354446 1140.6024 55.2771
97.708092 1149.7251 31.990234
102.85054 1149.7251 31.990234
107.99298 1149.7251 31.990234
112.1713 1158.8479 8.7036133
117.26991 1158.8479 8.7036133
122.36873 1158.8479 8.7036133
127.46734 1158.8479 8.7036133
132.56595 1158.8479 8.7036133
137.66476 1158.8479 8.7036133
142.76338 1158.8479 8.7036133
147.86218 1158.8479 8.7036133
152.9608 1158.8479 8.7036133
158.05943 1158.8479 8.7036133
163.15823 1158.8479 8.7036133
169.70334 1149.7251 31.990234
174.84598 1149.7251 31.990234
179.98843 1149.7251 31.990234
183.5529 1158.8479 8.7036133
188.6517 1158.8479 8.7036133
195.41597 1149.7251 31.990234
200.55862 1149.7251 31.990234
203.94774 1158.8479 8.7036133
209.04636 1158.8479 8.7036133
214.14517 1158.8479 8.7036133
219.24377 1158.8479 8.7036133
226.27126 1149.7251 31.990234
229.44121 1158.8479 8.7036133
234.53983 1158.8479 8.7036133
241.69881 1149.7251 31.990234
246.84125 1149.7251 31.990234
254.13171 1140.6024 55.2771
259.31802 1140.6024 55.2771
266.82922 1131.1149 79.495117
-264.84448 961.73047 495.37158
-258.82529 961.73047 495.37158
-252.80617 961.73047 495.37158
-246.78697 961.73047 495.37158
-240.76775 961.73047 495.37158
-234.74852 961.73047 495.37158
-228.72931 961.73047 495.37158
-220.50452 974.19226 463.7251
-214.54491 974.19226 463.7251
-208.58531 974.19226 463.7251
-202.6257 974.19226 463.7251
-198.63335 961.73047 495.37158
-192.61424 961.73047 495.37158
-186.59503 961.73047 495.37158
-180.57581 961.73047 495.37158
-174.55658 961.73047 495.37158
-168.53737 961.73047 495.37158
-162.51826 961.73047 495.37158
-156.49907 961.73047 495.37158
-150.47984 961.73047 495.37158
-144.46062 961.73047 495.37158
-138.44141 961.73047 495.37158
-132.4223 961.73047 495.37158
-125.15121 974.19226 463.7251
-117.99934 986.65405 432.07837
-103.93758 1076.4519 204.03687
-96.699806 1096.9771 151.91333
-91.327667 1096.9771 151.91333
-85.955437 1096.9771 151.91333
-81.319603 1086.7145 177.97534
-75.210968 1096.9771 151.91333
-69.838737 1096.9771 151.91333
-64.466599 1096.9771 151.91333
-58.573627 1106.8732 126.78223
-53.248734 1106.8732 126.78223
-47.92384 1106.8732 126.78223
-42.598946 1106.8732 126.78223
-36.942772 1116.7692 101.65112
-31.66522 1116.7692 101.65112
-26.387667 1116.7692 101.65112
-20.927767 1126.2988 77.450928
-15.695801 1126.2988 77.450928
-10.463933 1126.2988 77.450928
-5.2319665 1126.2988 77.450928
0 1126.2988 77.450928
5.2318668 1126.2988 77.450928
10.463933 1126.2988 77.450928
15.695801 1126.2988 77.450928
20.927866 1126.2988 77.450928
26.159735 1126.2988 77.450928
31.391602 1126.2988 77.450928
36.623669 1126.2988 77.450928
41.855534 1126.2988 77.450928
47.087601 1126.2988 77.450928
52.319469 1126.2988 77.450928
57.551338 1126.2988 77.450928
62.783401 1126.2988 77.450928
67.422646 1135.8284 53.250488
72.609123 1135.8284 53.250488
77.795403 1135.8284 53.250488
82.981682 1135.8284 53.250488
88.168159 1135.8284 53.250488
93.354446 1135.8284 53.250488
98.540924 1135.8284 53.250488
102.85054 1144.9915 29.980957
107.99298 1144.9915 29.980957
113.13563 1144.9915 29.980957
117.26991 1154.1545 6.7114258
122.36873 1154.1545 6.7114258
127.46734 1154.1545 6.7114258
132.56595 1154.1545 6.7114258
137.66476 1154.1545 6.7114258
142.76338 1154.1545 6.7114258
147.86218 1154.1545 6.7114258
152.9608 1154.1545 6.7114258
158.05943 1154.1545 6.7114258
164.5609 1144.9915 29.980957
169.70334 1144.9915 29.980957
174.84598 1144.9915 29.980957
179.98843 1144.9915 29.980957
183.5529 1154.1545 6.7114258
188.6517 1154.1545 6.7114258
195.41597 1144.9915 29.980957
200.55862 1144.9915 29.980957
203.94774 1154.1545 6.7114258
209.04636 1154.1545 6.7114258
214.14517 1154.1545 6.7114258
221.12862 1144.9915 29.980957
226.27126 1144.9915 29.980957
231.41371 1144.9915 29.980957
236.55617 1144.9915 29.980957
241.69881 1144.9915 29.980957
248.94525 1135.8284 53.250488
256.36548 1126.2988 77.450928
261.59735 1126.2988 77.450928
264.5043 1135.8284 53.250488
269.69077 1135.8284 53.250488
-315.8577 968.70642 461.39648
-309.89822 968.70642 461.39648
-303.9386 968.70642 461.39648
-297.979 968.70642 461.39648
-292.01941 968.70642 461.39648
-286.05981 968.70642 461.39648
-280.10031 968.70642 461.39648
-274.14072 968.70642 461.39648
-268.18112 968.70642 461.39648
-262.2215 968.70642 461.39648
-258.82529 956.1897 493.01978
-252.80617 956.1897 493.01978
-246.78697 956.1897 493.01978
-240.76775 956.1897 493.01978
-234.74852 956.1897 493.01978
-228.72931 956.1897 493.01978
-220.50452 968.70642 461.39648
-214.54491 968.70642 461.39648
-208.58531 968.70642 461.39648
-202.6257 968.70642 461.39648
-198.63335 956.1897 493.01978
-192.61424 956.1897 493.01978
-186.59503 956.1897 493.01978
-180.57581 956.1897 493.01978
-174.55658 956.1897 493.01978
-168.53737 956.1897 493.01978
-162.51826 956.1897 493.01978
-156.49907 956.1897 493.01978
-150.47984 956.1897 493.01978
-144.46062 956.1897 493.01978
-138.44141 956.1897 493.01978
-132.4223 956.1897 493.01978
-125.15121 968.70642 461.39648
-117.99934 981.22314 429.77295
-103.93758 1071.4164 201.89941
-97.583481 1081.7241 175.85693
-92.162254 1081.7241 175.85693
-86.740929 1081.7241 175.85693
-81.319603 1081.7241 175.85693
-75.210968 1092.0319 149.81421
-69.838737 1092.0319 149.81421
-64.466599 1092.0319 149.81421
-58.573627 1101.9717 124.70166
-53.248734 1101.9717 124.70166
-47.92384 1101.9717 124.70166
-42.598946 1101.9717 124.70166
-37.274155 1101.9717 124.70166
-31.66522 1111.9113 99.589111
-26.387667 1111.9113 99.589111
-20.927767 1121.4828 75.406494
-15.695801 1121.4828 75.406494
-10.463933 1121.4828 75.406494
-5.2319665 1121.4828 75.406494
0 1121.4828 75.406494
5.2318668 1121.4828 75.406494
10.555108 1111.9113 99.589111
15.695801 1121.4828 75.406494
20.927866 1121.4828 75.406494
26.159735 1121.4828 75.406494
31.391602 1121.4828 75.406494
36.623669 1121.4828 75.406494
41.855534 1121.4828 75.406494
47.087601 1121.4828 75.406494
52.319469 1121.4828 75.406494
57.551338 1121.4828 75.406494
62.783401 1121.4828 75.406494
68.015266 1121.4828 75.406494
73.247337 1121.4828 75.406494
78.479202 1121.4828 75.406494
82.981682 1131.0543 51.224121
88.168159 1131.0543 51.224121
93.354446 1131.0543 51.224121
98.540924 1131.0543 51.224121
102.85054 1140.2577 27.97168
107.99298 1140.2577 27.97168
113.13563 1140.2577 27.97168
117.26991 1149.4612 4.7192383
122.36873 1149.4612 4.7192383
127.46734 1149.4612 4.7192383
132.56595 1149.4612 4.7192383
137.66476 1149.4612 4.7192383
142.76338 1149.4612 4.7192383
147.86218 1149.4612 4.7192383
152.9608 1149.4612 4.7192383
159.41826 1140.2577 27.97168
164.5609 1140.2577 27.97168
169.70334 1140.2577 27.97168
174.84598 1140.2577 27.97168
179.98843 1140.2577 27.97168
183.5529 1149.4612 4.7192383
188.6517 1149.4612 4.7192383
195.41597 1140.2577 27.97168
200.55862 1140.2577 27.97168
203.94774 1149.4612 4.7192383
209.04636 1149.4612 4.7192383
214.14517 1149.4612 4.7192383
221.12862 1140.2577 27.97168
226.27126 1140.2577 27.97168
231.41371 1140.2577 27.97168
236.55617 1140.2577 27.97168
241.69881 1140.2577 27.97168
248.94525 1131.0543 51.224121
256.36548 1121.4828 75.406494
261.59735 1121.4828 75.406494
264.5043 1131.0543 51.224121
269.69077 1131.0543 51.224121
277.29312 1121.4828 75.406494
282.52521 1121.4828 75.406494
-339.69611 963.22058 459.06787
-333.73651 963.22058 459.06787
-327.77692 963.22058 459.06787
-321.81732 963.22058 459.06787
-312.69821 975.79211 427.46777
-306.79831 975.79211 427.46777
-303.9386 963.22058 459.06787
-297.979 963.22058 459.06787
-292.01941 963.22058 459.06787
-286.05981 963.22058 459.06787
-280.10031 963.22058 459.06787
-274.14072 963.22058 459.06787
-268.18112 963.22058 459.06787
-262.2215 963.22058 459.06787
-258.82529 950.64905 490.66772
-252.80617 950.64905 490.66772
-246.78697 950.64905 490.66772
-240.76775 950.64905 490.66772
-234.74852 950.64905 490.66772
-228.72931 950.64905 490.66772
-220.50452 963.22058 459.06787
-214.54491 963.22058 459.06787
-208.58531 963.22058 459.06787
-202.6257 963.22058 459.06787
-198.63335 950.64905 490.66772
-192.61424 950.64905 490.66772
-186.59503 950.64905 490.66772
-180.57581 950.64905 490.66772
-174.55658 950.64905 490.66772
-168.53737 950.64905 490.66772
-162.51826 950.64905 490.66772
-156.49907 950.64905 490.66772
-150.47984 950.64905 490.66772
-144.46062 950.64905 490.66772
-138.44141 950.64905 490.66772
-132.4223 950.64905 490.66772
-125.15121 963.22058 459.06787
-117.99934 975.79211 427.46777
-104.90366 1055.658 226.71509
-99.382401 1055.658 226.71509
-91.327667 1087.0868 147.71509
-85.955437 1087.0868 147.71509
-80.583206 1087.0868 147.71509
-75.210968 1087.0868 147.71509
-69.838737 1087.0868 147.71509
-64.466599 1087.0868 147.71509
-59.094368 1087.0868 147.71509
-53.248734 1097.0701 122.62085
-47.92384 1097.0701 122.62085
-42.598946 1097.0701 122.62085
-37.274155 1097.0701 122.62085
-31.66522 1107.0532 97.5271
-26.387667 1107.0532 97.5271
-20.927767 1116.6667 73.362305
-15.695801 1116.6667 73.362305
-10.463933 1116.6667 73.362305
-5.2319665 1116.6667 73.362305
0 1107.0532 97.5271
5.2774534 1107.0532 97.5271
10.555108 1107.0532 97.5271
15.695801 1116.6667 73.362305
20.927866 1116.6667 73.362305
26.159735 1116.6667 73.362305
31.391602 1116.6667 73.362305
36.623669 1116.6667 73.362305
41.855534 1116.6667 73.362305
47.087601 1116.6667 73.362305
52.319469 1116.6667 73.362305
57.551338 1116.6667 73.362305
62.783401 1116.6667 73.362305
68.015266 1116.6667 73.362305
73.247337 1116.6667 73.362305
78.479202 1116.6667 73.362305
83.711067 1116.6667 73.362305
88.943138 1116.6667 73.362305
93.354446 1126.2802 49.197754
98.540924 1126.2802 49.197754
102.85054 1135.5239 25.962402
107.99298 1135.5239 25.962402
113.13563 1135.5239 25.962402
117.26991 1144.7677 2.7270508
122.36873 1144.7677 2.7270508
127.46734 1144.7677 2.7270508
132.56595 1144.7677 2.7270508
137.66476 1144.7677 2.7270508
142.76338 1144.7677 2.7270508
147.86218 1144.7677 2.7270508
152.9608 1144.7677 2.7270508
159.41826 1135.5239 25.962402
164.5609 1135.5239 25.962402
169.70334 1135.5239 25.962402
174.84598 1135.5239 25.962402
179.98843 1135.5239 25.962402
183.5529 1144.7677 2.7270508
188.6517 1144.7677 2.7270508
193.75031 1144.7677 2.7270508
200.55862 1135.5239 25.962402
205.70108 1135.5239 25.962402
209.04636 1144.7677 2.7270508
214.14517 1144.7677 2.7270508
219.24377 1144.7677 2.7270508
226.27126 1135.5239 25.962402
231.41371 1135.5239 25.962402
236.55617 1135.5239 25.962402
241.69881 1135.5239 25.962402
248.94525 1126.2802 49.197754
254.13171 1126.2802 49.197754
259.31802 1126.2802 49.197754
266.82922 1116.6667 73.362305
272.06128 1116.6667 73.362305
277.29312 1116.6667 73.362305
282.52521 1116.6667 73.362305
-339.69611 957.73474 456.73926
-333.73651 957.73474 456.73926
-327.77692 957.73474 456.73926
-321.81732 957.73474 456.73926
-312.69821 970.36121 425.16235
-306.79831 970.36121 425.16235
-303.9386 957.73474 456.73926
-297.979 957.73474 456.73926
-292.01941 957.73474 456.73926
-286.05981 957.73474 456.73926
-280.10031 957.73474 456.73926
-274.14072 957.73474 456.73926
-268.18112 957.73474 456.73926
-262.2215 957.73474 456.73926
-256.2619 957.73474 456.73926
-250.30241 957.73474 456.73926
-244.34282 957.73474 456.73926
-238.38321 957.73474 456.73926
-232.4236 957.73474 456.73926
-226.464 957.73474 456.73926
-220.50452 957.73474 456.73926
-214.54491 957.73474 456.73926
-208.58531 957.73474 456.73926
-202.6257 957.73474 456.73926
-198.63335 945.1084 488.31592
-192.61424 945.1084 488.31592
-186.59503 945.1084 488.31592
-180.57581 945.1084 488.31592
-174.55658 945.1084 488.31592
-168.53737 945.1084 488.31592
-162.51826 945.1084 488.31592
-156.49907 945.1084 488.31592
-150.47984 945.1084 488.31592
-144.46062 945.1084 488.31592
-138.44141 945.1084 488.31592
-132.4223 945.1084 488.31592
-125.15121 957.73474 456.73926
-119.1916 957.73474 456.73926
-104.90366 1050.5757 224.55786
-99.382401 1050.5757 224.55786
-91.327667 1082.1416 145.61621
-85.955437 1082.1416 145.61621
-80.583206 1082.1416 145.61621
-75.210968 1082.1416 145.61621
-69.838737 1082.1416 145.61621
-64.466599 1082.1416 145.61621
-59.094368 1082.1416 145.61621
-53.248734 1092.1685 120.54028
-47.92384 1092.1685 120.54028
-42.598946 1092.1685 120.54028
-37.274155 1092.1685 120.54028
-31.66522 1102.1952 95.464844
-26.387667 1102.1952 95.464844
-20.927767 1111.8507 71.318115
-15.695801 1111.8507 71.318115
-10.463933 1111.8507 71.318115
-5.277554 1102.1952 95.464844
0 1102.1952 95.464844
5.2774534 1102.1952 95.464844
10.555108 1102.1952 95.464844
15.83256 1102.1952 95.464844
20.927866 1111.8507 71.318115
26.159735 1111.8507 71.318115
31.391602 1111.8507 71.318115
36.623669 1111.8507 71.318115
41.855534 1111.8507 71.318115
47.087601 1111.8507 71.318115
52.319469 1111.8507 71.318115
57.551338 1111.8507 71.318115
62.783401 1111.8507 71.318115
68.015266 1111.8507 71.318115
73.247337 1111.8507 71.318115
78.479202 1111.8507 71.318115
83.711067 1111.8507 71.318115
88.943138 1111.8507 71.318115
94.175003 1111.8507 71.318115
98.540924 1121.5061 47.171143
103.7272 1121.5061 47.171143
107.99298 1130.7903 23.952881
113.13563 1130.7903 23.952881
117.26991 1140.0743 0.73486328
122.36873 1140.0743 0.73486328
127.46734 1140.0743 0.73486328
132.56595 1140.0743 0.73486328
137.66476 1140.0743 0.73486328
142.76338 1140.0743 0.73486328
147.86218 1140.0743 0.73486328
152.9608 1140.0743 0.73486328
158.05943 1140.0743 0.73486328
163.15823 1140.0743 0.73486328
168.25684 1140.0743 0.73486328
173.35565 1140.0743 0.73486328
178.45427 1140.0743 0.73486328
183.5529 1140.0743 0.73486328
188.6517 1140.0743 0.73486328
193.75031 1140.0743 0.73486328
198.84912 1140.0743 0.73486328
203.94774 1140.0743 0.73486328
209.04636 1140.0743 0.73486328
214.14517 1140.0743 0.73486328
219.24377 1140.0743 0.73486328
224.34259 1140.0743 0.73486328
229.44121 1140.0743 0.73486328
234.53983 1140.0743 0.73486328
241.69881 1130.7903 23.952881
246.84125 1130.7903 23.952881
254.13171 1121.5061 47.171143
259.31802 1121.5061 47.171143
264.5043 1121.5061 47.171143
269.69077 1121.5061 47.171143
277.29312 1111.8507 71.318115
282.52521 1111.8507 71.318115
-345.65561 952.24902 454.41064
-339.69611 952.24902 454.41064
-333.73651 952.24902 454.41064
-327.77692 952.24902 454.41064
-321.81732 952.24902 454.41064
-315.8577 952.24902 454.41064
-309.89822 952.24902 454.41064
-303.9386 952.24902 454.41064
-297.979 952.24902 454.41064
-292.01941 952.24902 454.41064
-286.05981 952.24902 454.41064
-280.10031 952.24902 454.41064
-274.14072 952.24902 454.41064
-268.18112 952.24902 454.41064
-262.2215 952.24902 454.41064
-256.2619 952.24902 454.41064
-250.30241 952.24902 454.41064
-244.34282 952.24902 454.41064
-238.38321 952.24902 454.41064
-232.4236 952.24902 454.41064
-226.464 952.24902 454.41064
-220.50452 952.24902 454.41064
-214.54491 952.24902 454.41064
-208.58531 952.24902 454.41064
-202.6257 952.24902 454.41064
-198.63335 939.56763 485.96411
-190.70662 952.24902 454.41064
-184.74701 952.24902 454.41064
-178.7874 952.24902 454.41064
-172.8278 952.24902 454.41064
-166.86819 952.24902 454.41064
-160.90871 952.24902 454.41064
-154.94911 952.24902 454.41064
-150.47984 939.56763 485.96411
-144.46062 939.56763 485.96411
-138.44141 939.56763 485.96411
-132.4223 939.56763 485.96411
-125.15121 952.24902 454.41064
-119.1916 952.24902 454.41064
-103.93758 1056.3098 195.48706
-98.467163 1056.3098 195.48706
-91.327667 1077.1964 143.51709
-85.955437 1077.1964 143.51709
-81.319603 1066.7532 169.5022
-75.210968 1077.1964 143.51709
-69.838737 1077.1964 143.51709
-64.466599 1077.1964 143.51709
-59.094368 1077.1964 143.51709
-53.248734 1087.267 118.45972
-47.92384 1087.267 118.45972
-42.598946 1087.267 118.45972
-37.274155 1087.267 118.45972
-31.66522 1097.3373 93.402832
-26.387667 1097.3373 93.402832
-21.110115 1097.3373 93.402832
-15.83256 1097.3373 93.402832
-10.555108 1097.3373 93.402832
-5.277554 1097.3373 93.402832
0 1097.3373 93.402832
5.2774534 1097.3373 93.402832
10.555108 1097.3373 93.402832
15.83256 1097.3373 93.402832
20.927866 1107.0347 69.273682
26.159735 1107.0347 69.273682
31.391602 1107.0347 69.273682
36.623669 1107.0347 69.273682
41.855534 1107.0347 69.273682
47.087601 1107.0347 69.273682
52.319469 1107.0347 69.273682
57.551338 1107.0347 69.273682
62.783401 1107.0347 69.273682
68.607895 1097.3373 93.402832
73.885544 1097.3373 93.402832
79.163002 1097.3373 93.402832
84.44046 1097.3373 93.402832
88.943138 1107.0347 69.273682
94.175003 1107.0347 69.273682
99.407066 1107.0347 69.273682
103.7272 1116.7321 45.144775
108.91348 1116.7321 45.144775
113.13563 1126.0565 21.943604
118.27808 1126.0565 21.943604
123.42072 1126.0565 21.943604
128.56317 1126.0565 21.943604
133.70561 1126.0565 21.943604
137.66476 1135.381 -1.2575684
142.76338 1135.381 -1.2575684
147.86218 1135.381 -1.2575684
152.9608 1135.381 -1.2575684
158.05943 1135.381 -1.2575684
163.15823 1135.381 -1.2575684
168.25684 1135.381 -1.2575684
173.35565 1135.381 -1.2575684
178.45427 1135.381 -1.2575684
183.5529 1135.381 -1.2575684
188.6517 1135.381 -1.2575684
193.75031 1135.381 -1.2575684
198.84912 1135.381 -1.2575684
203.94774 1135.381 -1.2575684
209.04636 1135.381 -1.2575684
214.14517 1135.381 -1.2575684
219.24377 1135.381 -1.2575684
224.34259 1135.381 -1.2575684
229.44121 1135.381 -1.2575684
234.53983 1135.381 -1.2575684
241.69881 1126.0565 21.943604
246.84125 1126.0565 21.943604
254.13171 1116.7321 45.144775
259.31802 1116.7321 45.144775
264.5043 1116.7321 45.144775
269.69077 1116.7321 45.144775
277.29312 1107.0347 69.273682
282.52521 1107.0347 69.273682
-351.61523 946.76318 452.08203
-345.65561 946.76318 452.08203
-339.69611 946.76318 452.08203
-333.73651 946.76318 452.08203
-327.77692 946.76318 452.08203
-321.81732 946.76318 452.08203
-315.8577 946.76318 452.08203
-309.89822 946.76318 452.08203
-303.9386 946.76318 452.08203
-297.979 946.76318 452.08203
-292.01941 946.76318 452.08203
-286.05981 946.76318 452.08203
-280.10031 946.76318 452.08203
-274.14072 946.76318 452.08203
-268.18112 946.76318 452.08203
-262.2215 946.76318 452.08203
-256.2619 946.76318 452.08203
-250.30241 946.76318 452.08203
-244.34282 946.76318 452.08203
-238.38321 946.76318 452.08203
-232.4236 946.76318 452.08203
-226.464 946.76318 452.08203
-220.50452 946.76318 452.08203
-214.54491 946.76318 452.08203
-208.58531 946.76318 452.08203
-204.65256 934.02698 483.61206
-196.66609 946.76318 452.08203
-190.70662 946.76318 452.08203
-184.74701 946.76318 452.08203
-178.7874 946.76318 452.08203
-172.8278 946.76318 452.08203
-166.86819 946.76318 452.08203
-160.90871 946.76318 452.08203
-154.94911 946.76318 452.08203
-150.47984 934.02698 483.61206
-144.46062 934.02698 483.61206
-138.44141 934.02698 483.61206
-132.4223 934.02698 483.61206
-123.89933 959.49927 420.55176
-117.99934 959.49927 420.55176
-103.93758 1051.2743 193.34961
-98.467163 1051.2743 193.34961
-92.162254 1061.7628 167.38403
-86.740929 1061.7628 167.38403
-81.319603 1061.7628 167.38403
-75.210968 1072.2513 141.41797
-69.838737 1072.2513 141.41797
-64.466599 1072.2513 141.41797
-59.094368 1072.2513 141.41797
-53.248734 1082.3654 116.37915
-47.92384 1082.3654 116.37915
-42.598946 1082.3654 116.37915
-37.274155 1082.3654 116.37915
-31.949263 1082.3654 116.37915
-26.624367 1082.3654 116.37915
-21.110115 1092.4792 91.34082
-15.83256 1092.4792 91.34082
-10.555108 1092.4792 91.34082
-5.277554 1092.4792 91.34082
0 1092.4792 91.34082
5.2774534 1092.4792 91.34082
10.555108 1092.4792 91.34082
15.83256 1092.4792 91.34082
20.927866 1102.2188 67.229492
26.159735 1102.2188 67.229492
31.391602 1102.2188 67.229492
36.623669 1102.2188 67.229492
41.855534 1102.2188 67.229492
47.087601 1102.2188 67.229492
52.319469 1102.2188 67.229492
57.551338 1102.2188 67.229492
63.330441 1092.4792 91.34082
68.607895 1092.4792 91.34082
73.885544 1092.4792 91.34082
79.163002 1092.4792 91.34082
84.44046 1092.4792 91.34082
89.718109 1092.4792 91.34082
94.175003 1102.2188 67.229492
99.407066 1102.2188 67.229492
104.63894 1102.2188 67.229492
108.91348 1111.958 43.118164
