ply
format ascii 1.0
comment PCL generated
element vertex 1581
property float x
property float y
property float z
element camera 0
property float view_px
property float view_py
property float view_pz
property float x_axisx
property float x_axisy
property float x_axisz
property float y_axisx
property float y_axisy
property float y_axisz
property float z_axisx
property float z_axisy
property float z_axisz
property float focal
property float scalex
property float scaley
property float centerx
property float centery
property int viewportx
property int viewporty
property float k1
property float k2
end_header
4.8899722 1467.8492 10.590088
9.7801313 1467.8492 10.590088
14.670103 1467.8492 10.590088
19.560263 1467.8492 10.590088
24.450233 1467.8492 10.590088
29.340206 1467.8492 10.590088
34.230366 1467.8492 10.590088
39.120335 1467.8492 10.590088
44.010494 1467.8492 10.590088
48.900467 1467.8492 10.590088
53.79044 1467.8492 10.590088
58.680603 1467.8492 10.590088
64.094818 1461.6465 32.943604
69.025299 1461.6465 32.943604
73.955605 1461.6465 32.943604
80.877686 1442.499 101.94727
86.677826 1435.7568 126.24438
91.776451 1435.7568 126.24438
97.708092 1429.0146 150.54175
-35.089497 1444.3571 76.66333
-30.0767 1444.3571 76.66333
-24.8535 1450.8682 53.354736
-19.882782 1450.8682 53.354736
-14.912063 1450.8682 53.354736
-9.9414377 1450.8682 53.354736
-4.9303923 1457.108 31.01709
0 1457.108 31.01709
4.9302983 1457.108 31.01709
9.7801313 1463.3479 8.6794434
14.670103 1463.3479 8.6794434
19.560263 1463.3479 8.6794434
24.450233 1463.3479 8.6794434
29.340206 1463.3479 8.6794434
34.230366 1463.3479 8.6794434
39.120335 1463.3479 8.6794434
44.010494 1463.3479 8.6794434
48.900467 1463.3479 8.6794434
53.79044 1463.3479 8.6794434
59.16452 1457.108 31.01709
64.094818 1457.108 31.01709
69.589882 1450.8682 53.354736
75.822906 1437.8459 99.972168
81.579018 1431.0635 124.2522
86.677826 1431.0635 124.2522
91.776451 1431.0635 124.2522
97.708092 1424.281 148.53247
103.7272 1417.4984 172.8125
-45.493725 1433.1929 97.99707
-40.438843 1433.1929 97.99707
-35.38406 1433.1929 97.99707
-30.329182 1433.1929 97.99707
-25.0639 1439.7427 74.704834
-19.882782 1446.2926 51.412598
-14.912063 1446.2926 51.412598
-9.9414377 1446.2926 51.412598
-4.9707189 1446.2926 51.412598
0 1452.5696 29.090576
4.9302983 1452.5696 29.090576
9.7801313 1458.8467 6.7687988
14.670103 1458.8467 6.7687988
19.560263 1458.8467 6.7687988
24.450233 1458.8467 6.7687988
29.340206 1458.8467 6.7687988
34.230366 1458.8467 6.7687988
39.120335 1458.8467 6.7687988
44.010494 1458.8467 6.7687988
48.900467 1458.8467 6.7687988
54.234035 1452.5696 29.090576
59.16452 1452.5696 29.090576
65.1661 1439.7427 74.704834
70.178993 1439.7427 74.704834
75.822906 1433.1929 97.99707
81.579018 1426.3701 122.26001
86.677826 1426.3701 122.26001
91.776451 1426.3701 122.26001
97.708092 1419.5472 146.52295
103.7272 1412.7244 170.78613
-50.986935 1421.6768 120.26782
-45.493725 1428.5399 96.021973
-40.438843 1428.5399 96.021973
-35.38406 1428.5399 96.021973
-30.329182 1428.5399 96.021973
-25.0639 1435.1284 72.746094
-19.882782 1441.717 49.470215
-14.912063 1441.717 49.470215
-9.9414377 1441.717 49.470215
-4.9707189 1441.717 49.470215
0 1448.0312 27.164062
4.9302983 1448.0312 27.164062
9.8607845 1448.0312 27.164062
14.791082 1448.0312 27.164062
19.560263 1454.3453 4.8579102
24.450233 1454.3453 4.8579102
29.340206 1454.3453 4.8579102
34.230366 1454.3453 4.8579102
39.120335 1454.3453 4.8579102
44.010494 1454.3453 4.8579102
49.303734 1448.0312 27.164062
54.234035 1448.0312 27.164062
59.16452 1448.0312 27.164062
65.1661 1435.1284 72.746094
70.76812 1428.5399 96.021973
75.822906 1428.5399 96.021973
81.579018 1421.6768 120.26782
86.677826 1421.6768 120.26782
91.776451 1421.6768 120.26782
97.708092 1414.8135 144.51367
102.85054 1414.8135 144.51367
108.91348 1407.9503 168.75952
-71.995354 1410.0798 142.50439
-66.852806 1410.0798 142.50439
-61.710361 1410.0798 142.50439
-56.567814 1410.0798 142.50439
-50.986935 1416.9834 118.27563
-45.493725 1423.8868 94.046875
-40.438843 1423.8868 94.046875
-35.38406 1423.8868 94.046875
-30.329182 1423.8868 94.046875
-25.0639 1430.5142 70.787598
-20.051102 1430.5142 70.787598
-14.912063 1437.1416 47.528076
-9.9414377 1437.1416 47.528076
-4.9707189 1437.1416 47.528076
0 1437.1416 47.528076
4.9302983 1443.4928 25.237793
9.8607845 1443.4928 25.237793
14.791082 1443.4928 25.237793
19.721569 1443.4928 25.237793
24.651867 1443.4928 25.237793
29.582165 1443.4928 25.237793
34.51265 1443.4928 25.237793
39.442951 1443.4928 25.237793
44.373436 1443.4928 25.237793
49.303734 1443.4928 25.237793
54.234035 1443.4928 25.237793
59.648441 1437.1416 47.528076
65.713142 1423.8868 94.046875
70.76812 1423.8868 94.046875
75.822906 1423.8868 94.046875
81.579018 1416.9834 118.27563
86.677826 1416.9834 118.27563
91.776451 1416.9834 118.27563
97.708092 1410.0798 142.50439
102.85054 1410.0798 142.50439
108.91348 1403.1763 166.73315
-71.995354 1405.3461 140.49512
-66.852806 1405.3461 140.49512
-61.710361 1405.3461 140.49512
-56.567814 1405.3461 140.49512
-50.986935 1412.29 116.28345
-45.888226 1412.29 116.28345
-40.789509 1412.29 116.28345
-35.38406 1419.2339 92.071777
-30.329182 1419.2339 92.071777
-25.0639 1425.8999 68.828857
-20.051102 1425.8999 68.828857
-14.912063 1432.566 45.585938
-9.9414377 1432.566 45.585938
-4.9707189 1432.566 45.585938
0 1432.566 45.585938
4.970624 1432.566 45.585938
9.9414377 1432.566 45.585938
14.791082 1438.9543 23.311279
19.721569 1438.9543 23.311279
24.651867 1438.9543 23.311279
29.582165 1438.9543 23.311279
34.51265 1438.9543 23.311279
39.442951 1438.9543 23.311279
44.373436 1438.9543 23.311279
49.303734 1438.9543 23.311279
54.677624 1432.566 45.585938
59.648441 1432.566 45.585938
65.713142 1419.2339 92.071777
70.76812 1419.2339 92.071777
76.4804 1412.29 116.28345
81.579018 1412.29 116.28345
86.677826 1412.29 116.28345
91.776451 1412.29 116.28345
97.708092 1405.3461 140.49512
102.85054 1405.3461 140.49512
108.91348 1398.4022 164.70654
114.09996 1398.4022 164.70654
-88.943138 1386.3646 187.84229
-83.711174 1386.3646 187.84229
-78.479202 1386.3646 187.84229
-71.995354 1400.6123 138.4856
-66.852806 1400.6123 138.4856
-61.710361 1400.6123 138.4856
-56.567814 1400.6123 138.4856
-50.986935 1407.5967 114.29126
-45.888226 1407.5967 114.29126
-40.789509 1407.5967 114.29126
-35.690891 1407.5967 114.29126
-30.592182 1407.5967 114.29126
-25.274302 1414.5808 90.09668
-20.051102 1421.2856 66.870117
-15.038302 1421.2856 66.870117
-10.025599 1421.2856 66.870117
-5.0127993 1421.2856 66.870117
0 1421.2856 66.870117
4.970624 1427.9905 43.643555
9.9414377 1427.9905 43.643555
14.912063 1427.9905 43.643555
19.882875 1427.9905 43.643555
24.651867 1434.4159 21.384766
29.582165 1434.4159 21.384766
34.51265 1434.4159 21.384766
39.442951 1434.4159 21.384766
44.736378 1427.9905 43.643555
49.707001 1427.9905 43.643555
54.677624 1427.9905 43.643555
59.648441 1427.9905 43.643555
65.713142 1414.5808 90.09668
70.76812 1414.5808 90.09668
75.822906 1414.5808 90.09668
81.579018 1407.5967 114.29126
86.677826 1407.5967 114.29126
91.776451 1407.5967 114.29126
97.708092 1400.6123 138.4856
102.85054 1400.6123 138.4856
107.99298 1400.6123 138.4856
113.13563 1400.6123 138.4856
-94.175003 1381.5486 185.79785
-88.168159 1388.854 160.65356
-82.981789 1388.854 160.65356
-77.795403 1388.854 160.65356
-71.995354 1395.8787 136.47632
-66.282974 1402.9032 112.29907
-61.184364 1402.9032 112.29907
-56.085648 1402.9032 112.29907
-50.986935 1402.9032 112.29907
-45.888226 1402.9032 112.29907
-40.789509 1402.9032 112.29907
-35.690891 1402.9032 112.29907
-30.592182 1402.9032 112.29907
-25.274302 1409.9279 88.121582
-20.219421 1409.9279 88.121582
-15.038302 1416.6713 64.911621
-10.025599 1416.6713 64.911621
-5.0127993 1416.6713 64.911621
0 1416.6713 64.911621
5.0127034 1416.6713 64.911621
10.025599 1416.6713 64.911621
14.912063 1423.4149 41.701416
19.882875 1423.4149 41.701416
24.8535 1423.4149 41.701416
29.824125 1423.4149 41.701416
34.794941 1423.4149 41.701416
39.765564 1423.4149 41.701416
44.736378 1423.4149 41.701416
50.1278 1416.6713 64.911621
55.140507 1416.6713 64.911621
60.1534 1416.6713 64.911621
65.713142 1409.9279 88.121582
70.76812 1409.9279 88.121582
75.822906 1409.9279 88.121582
81.579018 1402.9032 112.29907
86.677826 1402.9032 112.29907
91.776451 1402.9032 112.29907
96.875259 1402.9032 112.29907
102.85054 1395.8787 136.47632
107.99298 1395.8787 136.47632
113.13563 1395.8787 136.47632
119.28625 1388.854 160.65356
-98.540825 1384.08 158.6272
-93.354446 1384.08 158.6272
-87.422989 1391.1449 134.46704
-82.280449 1391.1449 134.46704
-77.137901 1391.1449 134.46704
-71.995354 1391.1449 134.46704
-66.282974 1398.2098 110.30664
-61.184364 1398.2098 110.30664
-56.085648 1398.2098 110.30664
-50.986935 1398.2098 110.30664
-45.888226 1398.2098 110.30664
-40.789509 1398.2098 110.30664
-35.690891 1398.2098 110.30664
-30.592182 1398.2098 110.30664
-25.274302 1405.2747 86.146484
-20.219421 1405.2747 86.146484
-15.038302 1412.0569 62.952881
-10.025599 1412.0569 62.952881
-5.0127993 1412.0569 62.952881
0 1412.0569 62.952881
5.0127034 1412.0569 62.952881
10.025599 1412.0569 62.952881
15.038302 1412.0569 62.952881
19.882875 1418.8392 39.759277
24.8535 1418.8392 39.759277
29.824125 1418.8392 39.759277
34.794941 1418.8392 39.759277
40.102203 1412.0569 62.952881
45.115097 1412.0569 62.952881
50.1278 1412.0569 62.952881
55.140507 1412.0569 62.952881
60.658363 1405.2747 86.146484
65.713142 1405.2747 86.146484
70.76812 1405.2747 86.146484
75.822906 1405.2747 86.146484
81.579018 1398.2098 110.30664
86.677826 1398.2098 110.30664
91.776451 1398.2098 110.30664
96.875259 1398.2098 110.30664
102.85054 1391.1449 134.46704
108.91348 1384.08 158.6272
114.09996 1384.08 158.6272
119.28625 1384.08 158.6272
125.5668 1376.7325 183.75366
-103.7272 1379.3059 156.60059
-98.540825 1379.3059 156.60059
-93.354446 1379.3059 156.60059
-87.422989 1386.4111 132.45752
-82.280449 1386.4111 132.45752
-77.137901 1386.4111 132.45752
-71.995354 1386.4111 132.45752
-66.282974 1393.5165 108.31445
-61.184364 1393.5165 108.31445
-56.085648 1393.5165 108.31445
-50.986935 1393.5165 108.31445
-45.888226 1393.5165 108.31445
-40.789509 1393.5165 108.31445
-35.690891 1393.5165 108.31445
-30.592182 1393.5165 108.31445
-25.274302 1400.6217 84.171387
-20.219421 1400.6217 84.171387
-15.164542 1400.6217 84.171387
-10.025599 1407.4426 60.994141
-5.0127993 1407.4426 60.994141
0 1407.4426 60.994141
5.0127034 1407.4426 60.994141
10.025599 1407.4426 60.994141
15.038302 1407.4426 60.994141
20.051197 1407.4426 60.994141
25.0639 1407.4426 60.994141
30.076605 1407.4426 60.994141
35.089497 1407.4426 60.994141
40.102203 1407.4426 60.994141
45.115097 1407.4426 60.994141
50.1278 1407.4426 60.994141
55.603386 1400.6217 84.171387
60.658363 1400.6217 84.171387
65.713142 1400.6217 84.171387
70.76812 1400.6217 84.171387
75.822906 1400.6217 84.171387
81.579018 1393.5165 108.31445
86.677826 1393.5165 108.31445
91.776451 1393.5165 108.31445
96.875259 1393.5165 108.31445
102.85054 1386.4111 132.45752
108.91348 1379.3059 156.60059
114.09996 1379.3059 156.60059
119.28625 1379.3059 156.60059
124.47272 1379.3059 156.60059
129.65901 1379.3059 156.60059
138.84827 1386.4111 132.45752
143.99071 1386.4111 132.45752
-113.13563 1381.6775 130.44824
-108.91359 1374.5317 154.57422
-103.7272 1374.5317 154.57422
-98.540825 1374.5317 154.57422
-92.565445 1381.6775 130.44824
-87.422989 1381.6775 130.44824
-81.579117 1388.823 106.32227
-76.4804 1388.823 106.32227
-71.381691 1388.823 106.32227
-66.282974 1388.823 106.32227
-61.184364 1388.823 106.32227
-56.085648 1388.823 106.32227
-50.986935 1388.823 106.32227
-45.888226 1388.823 106.32227
-40.789509 1388.823 106.32227
-35.690891 1388.823 106.32227
-30.592182 1388.823 106.32227
-25.274302 1395.9688 82.196289
-20.219421 1395.9688 82.196289
-15.164542 1395.9688 82.196289
-10.025599 1402.8284 59.035645
-5.0127993 1402.8284 59.035645
0 1402.8284 59.035645
5.0127034 1402.8284 59.035645
10.025599 1402.8284 59.035645
15.038302 1402.8284 59.035645
20.051197 1402.8284 59.035645
25.0639 1402.8284 59.035645
30.076605 1402.8284 59.035645
35.089497 1402.8284 59.035645
40.102203 1402.8284 59.035645
45.493816 1395.9688 82.196289
50.548603 1395.9688 82.196289
55.603386 1395.9688 82.196289
60.658363 1395.9688 82.196289
65.713142 1395.9688 82.196289
70.76812 1395.9688 82.196289
75.822906 1395.9688 82.196289
81.579018 1388.823 106.32227
86.677826 1388.823 106.32227
91.776451 1388.823 106.32227
96.875259 1388.823 106.32227
102.85054 1381.6775 130.44824
107.99298 1381.6775 130.44824
113.13563 1381.6775 130.44824
118.27808 1381.6775 130.44824
123.42072 1381.6775 130.44824
128.56317 1381.6775 130.44824
133.70561 1381.6775 130.44824
138.84827 1381.6775 130.44824
143.99071 1381.6775 130.44824
-118.27808 1376.9437 128.43896
-113.13563 1376.9437 128.43896
-107.99309 1376.9437 128.43896
-102.85054 1376.9437 128.43896
-97.707985 1376.9437 128.43896
-92.565445 1376.9437 128.43896
-87.422989 1376.9437 128.43896
-81.579117 1384.1296 104.33008
-76.4804 1384.1296 104.33008
-71.381691 1384.1296 104.33008
-66.282974 1384.1296 104.33008
-61.184364 1384.1296 104.33008
-56.085648 1384.1296 104.33008
-50.986935 1384.1296 104.33008
-45.888226 1384.1296 104.33008
-40.789509 1384.1296 104.33008
-35.690891 1384.1296 104.33008
-30.592182 1384.1296 104.33008
-25.274302 1391.3157 80.221191
-20.219421 1391.3157 80.221191
-15.164542 1391.3157 80.221191
-10.109758 1391.3157 80.221191
-5.0548792 1391.3157 80.221191
0 1398.2141 57.076904
5.0127034 1398.2141 57.076904
10.109758 1391.3157 80.221191
15.038302 1398.2141 57.076904
20.051197 1398.2141 57.076904
25.0639 1398.2141 57.076904
30.076605 1398.2141 57.076904
35.38406 1391.3157 80.221191
40.438843 1391.3157 80.221191
45.493816 1391.3157 80.221191
50.548603 1391.3157 80.221191
55.603386 1391.3157 80.221191
60.658363 1391.3157 80.221191
65.713142 1391.3157 80.221191
70.76812 1391.3157 80.221191
76.4804 1384.1296 104.33008
81.579018 1384.1296 104.33008
86.677826 1384.1296 104.33008
91.776451 1384.1296 104.33008
96.875259 1384.1296 104.33008
102.85054 1376.9437 128.43896
107.99298 1376.9437 128.43896
113.13563 1376.9437 128.43896
118.27808 1376.9437 128.43896
123.42072 1376.9437 128.43896
128.56317 1376.9437 128.43896
133.70561 1376.9437 128.43896
138.84827 1376.9437 128.43896
143.99071 1376.9437 128.43896
150.40451 1369.7577 152.54785
-123.42062 1372.21 126.42944
-118.27808 1372.21 126.42944
-113.13563 1372.21 126.42944
-107.99309 1372.21 126.42944
-102.85054 1372.21 126.42944
-97.707985 1372.21 126.42944
-92.565445 1372.21 126.42944
-87.422989 1372.21 126.42944
-81.579117 1379.4363 102.33789
-76.4804 1379.4363 102.33789
-71.381691 1379.4363 102.33789
-66.282974 1379.4363 102.33789
-61.184364 1379.4363 102.33789
-56.085648 1379.4363 102.33789
-50.986935 1379.4363 102.33789
-45.888226 1379.4363 102.33789
-40.789509 1379.4363 102.33789
-35.690891 1379.4363 102.33789
-30.592182 1379.4363 102.33789
-25.274302 1386.6627 78.246094
-20.219421 1386.6627 78.246094
-15.164542 1386.6627 78.246094
-10.109758 1386.6627 78.246094
-5.0548792 1386.6627 78.246094
0 1386.6627 78.246094
5.0547829 1386.6627 78.246094
10.109758 1386.6627 78.246094
15.164542 1386.6627 78.246094
20.219517 1386.6627 78.246094
25.274302 1386.6627 78.246094
30.329084 1386.6627 78.246094
35.38406 1386.6627 78.246094
40.438843 1386.6627 78.246094
45.493816 1386.6627 78.246094
50.548603 1386.6627 78.246094
55.603386 1386.6627 78.246094
60.658363 1386.6627 78.246094
65.713142 1386.6627 78.246094
70.76812 1386.6627 78.246094
75.822906 1386.6627 78.246094
81.579018 1379.4363 102.33789
86.677826 1379.4363 102.33789
91.776451 1379.4363 102.33789
96.875259 1379.4363 102.33789
101.97387 1379.4363 102.33789
107.99298 1372.21 126.42944
113.13563 1372.21 126.42944
118.27808 1372.21 126.42944
123.42072 1372.21 126.42944
128.56317 1372.21 126.42944
133.70561 1372.21 126.42944
138.84827 1372.21 126.42944
143.99071 1372.21 126.42944
150.40451 1364.9836 150.52124
155.59081 1364.9836 150.52124
160.7771 1364.9836 150.52124
-138.84827 1367.4763 124.42017
-133.70572 1367.4763 124.42017
-128.56317 1367.4763 124.42017
-123.42062 1367.4763 124.42017
-118.27808 1367.4763 124.42017
-113.13563 1367.4763 124.42017
-107.99309 1367.4763 124.42017
-102.85054 1367.4763 124.42017
-97.707985 1367.4763 124.42017
-91.776451 1374.7429 100.3457
-86.677826 1374.7429 100.3457
-81.579117 1374.7429 100.3457
-76.4804 1374.7429 100.3457
-71.381691 1374.7429 100.3457
-65.713142 1382.0096 76.270996
-60.658363 1382.0096 76.270996
-55.603481 1382.0096 76.270996
-50.548603 1382.0096 76.270996
-45.888226 1374.7429 100.3457
-40.789509 1374.7429 100.3457
-35.690891 1374.7429 100.3457
-30.592182 1374.7429 100.3457
-25.274302 1382.0096 76.270996
-20.219421 1382.0096 76.270996
-15.164542 1382.0096 76.270996
-10.109758 1382.0096 76.270996
-5.0548792 1382.0096 76.270996
0 1382.0096 76.270996
5.0547829 1382.0096 76.270996
10.109758 1382.0096 76.270996
15.164542 1382.0096 76.270996
20.219517 1382.0096 76.270996
25.274302 1382.0096 76.270996
30.329084 1382.0096 76.270996
35.38406 1382.0096 76.270996
40.438843 1382.0096 76.270996
45.493816 1382.0096 76.270996
50.548603 1382.0096 76.270996
55.603386 1382.0096 76.270996
60.658363 1382.0096 76.270996
65.713142 1382.0096 76.270996
70.76812 1382.0096 76.270996
75.822906 1382.0096 76.270996
81.579018 1374.7429 100.3457
86.677826 1374.7429 100.3457
91.776451 1374.7429 100.3457
96.875259 1374.7429 100.3457
101.97387 1374.7429 100.3457
107.99298 1367.4763 124.42017
113.13563 1367.4763 124.42017
117.26991 1374.7429 100.3457
122.36873 1374.7429 100.3457
127.46734 1374.7429 100.3457
133.70561 1367.4763 124.42017
137.66476 1374.7429 100.3457
142.76338 1374.7429 100.3457
147.86218 1374.7429 100.3457
152.9608 1374.7429 100.3457
160.7771 1360.2096 148.49487
165.96358 1360.2096 148.49487
-155.59081 1355.4355 146.46826
-150.40443 1355.4355 146.46826
-145.21805 1355.4355 146.46826
-138.84827 1362.7426 122.41089
-133.70572 1362.7426 122.41089
-128.56317 1362.7426 122.41089
-123.42062 1362.7426 122.41089
-118.27808 1362.7426 122.41089
-113.13563 1362.7426 122.41089
-107.99309 1362.7426 122.41089
-102.85054 1362.7426 122.41089
-96.875153 1370.0496 98.353516
-91.776451 1370.0496 98.353516
-86.677826 1370.0496 98.353516
-81.579117 1370.0496 98.353516
-76.4804 1370.0496 98.353516
-71.381691 1370.0496 98.353516
-65.713142 1377.3567 74.295898
-60.658363 1377.3567 74.295898
-55.603481 1377.3567 74.295898
-50.548603 1377.3567 74.295898
-45.888226 1370.0496 98.353516
-40.789509 1370.0496 98.353516
-35.690891 1370.0496 98.353516
-30.592182 1370.0496 98.353516
-25.274302 1377.3567 74.295898
-20.219421 1377.3567 74.295898
-15.164542 1377.3567 74.295898
-10.109758 1377.3567 74.295898
-5.0548792 1377.3567 74.295898
0 1377.3567 74.295898
5.0547829 1377.3567 74.295898
10.109758 1377.3567 74.295898
15.164542 1377.3567 74.295898
20.219517 1377.3567 74.295898
25.274302 1377.3567 74.295898
30.329084 1377.3567 74.295898
35.38406 1377.3567 74.295898
40.438843 1377.3567 74.295898
45.493816 1377.3567 74.295898
50.548603 1377.3567 74.295898
55.603386 1377.3567 74.295898
60.658363 1377.3567 74.295898
65.713142 1377.3567 74.295898
70.76812 1377.3567 74.295898
75.822906 1377.3567 74.295898
81.579018 1370.0496 98.353516
86.677826 1370.0496 98.353516
91.776451 1370.0496 98.353516
96.875259 1370.0496 98.353516
101.97387 1370.0496 98.353516
107.07249 1370.0496 98.353516
112.1713 1370.0496 98.353516
117.26991 1370.0496 98.353516
122.36873 1370.0496 98.353516
127.46734 1370.0496 98.353516
133.70561 1362.7426 122.41089
137.66476 1370.0496 98.353516
142.76338 1370.0496 98.353516
147.86218 1370.0496 98.353516
152.9608 1370.0496 98.353516
159.41826 1362.7426 122.41089
164.5609 1362.7426 122.41089
169.70334 1362.7426 122.41089
-160.77718 1350.6615 144.44189
-155.59081 1350.6615 144.44189
-150.40443 1350.6615 144.44189
-145.21805 1350.6615 144.44189
-138.84827 1358.0088 120.40161
-133.70572 1358.0088 120.40161
-128.56317 1358.0088 120.40161
-123.42062 1358.0088 120.40161
-117.26991 1365.3562 96.361328
-112.1713 1365.3562 96.361328
-107.07259 1365.3562 96.361328
-101.97387 1365.3562 96.361328
-96.875153 1365.3562 96.361328
-91.776451 1365.3562 96.361328
-86.677826 1365.3562 96.361328
-81.579117 1365.3562 96.361328
-76.4804 1365.3562 96.361328
-71.381691 1365.3562 96.361328
-65.713142 1372.7036 72.320801
-60.658363 1372.7036 72.320801
-55.603481 1372.7036 72.320801
-50.548603 1372.7036 72.320801
-45.888226 1365.3562 96.361328
-40.789509 1365.3562 96.361328
-35.690891 1365.3562 96.361328
-30.592182 1365.3562 96.361328
-25.274302 1372.7036 72.320801
-20.219421 1372.7036 72.320801
-15.164542 1372.7036 72.320801
-10.109758 1372.7036 72.320801
-5.0548792 1372.7036 72.320801
0 1372.7036 72.320801
5.0547829 1372.7036 72.320801
10.109758 1372.7036 72.320801
15.038302 1379.757 49.242432
20.051197 1379.757 49.242432
25.274302 1372.7036 72.320801
30.329084 1372.7036 72.320801
35.38406 1372.7036 72.320801
40.438843 1372.7036 72.320801
45.493816 1372.7036 72.320801
50.548603 1372.7036 72.320801
55.603386 1372.7036 72.320801
60.658363 1372.7036 72.320801
66.282974 1365.3562 96.361328
71.381783 1365.3562 96.361328
76.4804 1365.3562 96.361328
81.579018 1365.3562 96.361328
86.677826 1365.3562 96.361328
91.776451 1365.3562 96.361328
96.875259 1365.3562 96.361328
101.97387 1365.3562 96.361328
107.07249 1365.3562 96.361328
112.1713 1365.3562 96.361328
117.26991 1365.3562 96.361328
122.36873 1365.3562 96.361328
127.46734 1365.3562 96.361328
133.70561 1358.0088 120.40161
137.66476 1365.3562 96.361328
142.76338 1365.3562 96.361328
147.86218 1365.3562 96.361328
154.2758 1358.0088 120.40161
159.41826 1358.0088 120.40161
164.5609 1358.0088 120.40161
169.70334 1358.0088 120.40161
174.84598 1358.0088 120.40161
-159.41835 1353.2751 118.39209
-154.2758 1353.2751 118.39209
-150.40443 1345.8875 142.41528
-145.21805 1345.8875 142.41528
-138.84827 1353.2751 118.39209
-133.70572 1353.2751 118.39209
-128.56317 1353.2751 118.39209
-123.42062 1353.2751 118.39209
-117.26991 1360.6628 94.368896
-112.1713 1360.6628 94.368896
-107.07259 1360.6628 94.368896
-101.97387 1360.6628 94.368896
-96.875153 1360.6628 94.368896
-91.776451 1360.6628 94.368896
-86.677826 1360.6628 94.368896
-81.579117 1360.6628 94.368896
-76.4804 1360.6628 94.368896
-71.381691 1360.6628 94.368896
-65.713142 1368.0505 70.345703
-60.658363 1368.0505 70.345703
-55.603481 1368.0505 70.345703
-50.548603 1368.0505 70.345703
-45.493725 1368.0505 70.345703
-40.438843 1368.0505 70.345703
-35.38406 1368.0505 70.345703
-30.329182 1368.0505 70.345703
-25.493467 1360.6628 94.368896
-20.219421 1368.0505 70.345703
-15.164542 1368.0505 70.345703
-10.109758 1368.0505 70.345703
-5.0548792 1368.0505 70.345703
0 1368.0505 70.345703
5.0547829 1368.0505 70.345703
10.109758 1368.0505 70.345703
15.038302 1375.1427 47.283691
20.051197 1375.1427 47.283691
25.274302 1368.0505 70.345703
30.329084 1368.0505 70.345703
35.38406 1368.0505 70.345703
40.438843 1368.0505 70.345703
45.493816 1368.0505 70.345703
50.548603 1368.0505 70.345703
55.603386 1368.0505 70.345703
60.658363 1368.0505 70.345703
66.282974 1360.6628 94.368896
71.381783 1360.6628 94.368896
76.4804 1360.6628 94.368896
81.579018 1360.6628 94.368896
86.677826 1360.6628 94.368896
91.776451 1360.6628 94.368896
96.875259 1360.6628 94.368896
101.97387 1360.6628 94.368896
107.07249 1360.6628 94.368896
112.1713 1360.6628 94.368896
117.26991 1360.6628 94.368896
122.36873 1360.6628 94.368896
127.46734 1360.6628 94.368896
133.70561 1353.2751 118.39209
138.84827 1353.2751 118.39209
142.76338 1360.6628 94.368896
147.86218 1360.6628 94.368896
154.2758 1353.2751 118.39209
159.41826 1353.2751 118.39209
163.15823 1360.6628 94.368896
168.25684 1360.6628 94.368896
174.84598 1353.2751 118.39209
179.98843 1353.2751 118.39209
186.70889 1345.8875 142.41528
191.89537 1345.8875 142.41528
197.08165 1345.8875 142.41528
202.26811 1345.8875 142.41528
-164.5609 1348.5414 116.38281
-159.41835 1348.5414 116.38281
-154.2758 1348.5414 116.38281
-149.13327 1348.5414 116.38281
-143.99071 1348.5414 116.38281
-138.84827 1348.5414 116.38281
-133.70572 1348.5414 116.38281
-128.56317 1348.5414 116.38281
-123.42062 1348.5414 116.38281
-118.27808 1348.5414 116.38281
-112.1713 1355.9695 92.376709
-107.07259 1355.9695 92.376709
-101.97387 1355.9695 92.376709
-96.875153 1355.9695 92.376709
-91.776451 1355.9695 92.376709
-86.677826 1355.9695 92.376709
-81.579117 1355.9695 92.376709
-76.4804 1355.9695 92.376709
-71.381691 1355.9695 92.376709
-65.713142 1363.3976 68.370605
-60.658363 1363.3976 68.370605
-55.603481 1363.3976 68.370605
-50.548603 1363.3976 68.370605
-45.493725 1363.3976 68.370605
-40.438843 1363.3976 68.370605
-35.38406 1363.3976 68.370605
-30.329182 1363.3976 68.370605
-25.493467 1355.9695 92.376709
-20.219421 1363.3976 68.370605
-15.164542 1363.3976 68.370605
-10.109758 1363.3976 68.370605
-5.0548792 1363.3976 68.370605
0 1363.3976 68.370605
5.0547829 1363.3976 68.370605
10.109758 1363.3976 68.370605
15.164542 1363.3976 68.370605
20.219517 1363.3976 68.370605
25.274302 1363.3976 68.370605
30.329084 1363.3976 68.370605
35.38406 1363.3976 68.370605
40.438843 1363.3976 68.370605
45.493816 1363.3976 68.370605
50.548603 1363.3976 68.370605
55.603386 1363.3976 68.370605
60.658363 1363.3976 68.370605
66.282974 1355.9695 92.376709
71.381783 1355.9695 92.376709
76.4804 1355.9695 92.376709
81.579018 1355.9695 92.376709
86.677826 1355.9695 92.376709
91.776451 1355.9695 92.376709
96.875259 1355.9695 92.376709
101.97387 1355.9695 92.376709
107.07249 1355.9695 92.376709
112.1713 1355.9695 92.376709
117.26991 1355.9695 92.376709
122.36873 1355.9695 92.376709
127.46734 1355.9695 92.376709
132.56595 1355.9695 92.376709
137.66476 1355.9695 92.376709
142.76338 1355.9695 92.376709
147.86218 1355.9695 92.376709
152.9608 1355.9695 92.376709
158.05943 1355.9695 92.376709
163.15823 1355.9695 92.376709
168.25684 1355.9695 92.376709
174.84598 1348.5414 116.38281
179.98843 1348.5414 116.38281
185.13089 1348.5414 116.38281
190.27354 1348.5414 116.38281
197.08165 1341.1133 140.38892
202.26811 1341.1133 140.38892
-164.5609 1343.8076 114.37354
-159.41835 1343.8076 114.37354
-154.2758 1343.8076 114.37354
-149.13327 1343.8076 114.37354
-143.99071 1343.8076 114.37354
-138.84827 1343.8076 114.37354
-133.70572 1343.8076 114.37354
-128.56317 1343.8076 114.37354
-123.42062 1343.8076 114.37354
-118.27808 1343.8076 114.37354
-112.1713 1351.2761 90.384521
-107.07259 1351.2761 90.384521
-101.97387 1351.2761 90.384521
-96.875153 1351.2761 90.384521
-91.776451 1351.2761 90.384521
-86.677826 1351.2761 90.384521
-81.579117 1351.2761 90.384521
-76.4804 1351.2761 90.384521
-71.381691 1351.2761 90.384521
-65.713142 1358.7446 66.395752
-60.658363 1358.7446 66.395752
-55.603481 1358.7446 66.395752
-50.548603 1358.7446 66.395752
-45.493725 1358.7446 66.395752
-40.438843 1358.7446 66.395752
-35.38406 1358.7446 66.395752
-30.329182 1358.7446 66.395752
-25.493467 1351.2761 90.384521
-20.219421 1358.7446 66.395752
-15.164542 1358.7446 66.395752
-10.109758 1358.7446 66.395752
-5.0548792 1358.7446 66.395752
0 1358.7446 66.395752
5.0547829 1358.7446 66.395752
10.109758 1358.7446 66.395752
15.164542 1358.7446 66.395752
20.219517 1358.7446 66.395752
25.274302 1358.7446 66.395752
30.329084 1358.7446 66.395752
35.38406 1358.7446 66.395752
40.438843 1358.7446 66.395752
45.493816 1358.7446 66.395752
50.548603 1358.7446 66.395752
55.603386 1358.7446 66.395752
60.658363 1358.7446 66.395752
66.282974 1351.2761 90.384521
71.381783 1351.2761 90.384521
76.4804 1351.2761 90.384521
81.579018 1351.2761 90.384521
86.677826 1351.2761 90.384521
91.776451 1351.2761 90.384521
96.875259 1351.2761 90.384521
101.97387 1351.2761 90.384521
107.07249 1351.2761 90.384521
112.1713 1351.2761 90.384521
117.26991 1351.2761 90.384521
122.36873 1351.2761 90.384521
127.46734 1351.2761 90.384521
132.56595 1351.2761 90.384521
137.66476 1351.2761 90.384521
142.76338 1351.2761 90.384521
147.86218 1351.2761 90.384521
152.9608 1351.2761 90.384521
158.05943 1351.2761 90.384521
164.5609 1343.8076 114.37354
169.70334 1343.8076 114.37354
174.84598 1343.8076 114.37354
179.98843 1343.8076 114.37354
185.13089 1343.8076 114.37354
190.27354 1343.8076 114.37354
195.41597 1343.8076 114.37354
200.55862 1343.8076 114.37354
207.45441 1336.3392 138.36255
-174.8459 1339.074 112.36426
-169.70334 1339.074 112.36426
-164.5609 1339.074 112.36426
-159.41835 1339.074 112.36426
-154.2758 1339.074 112.36426
-149.13327 1339.074 112.36426
-143.99071 1339.074 112.36426
-138.84827 1339.074 112.36426
-133.70572 1339.074 112.36426
-128.56317 1339.074 112.36426
-123.42062 1339.074 112.36426
-118.27808 1339.074 112.36426
-112.1713 1346.5828 88.392334
-107.07259 1346.5828 88.392334
-101.97387 1346.5828 88.392334
-96.875153 1346.5828 88.392334
-91.776451 1346.5828 88.392334
-86.677826 1346.5828 88.392334
-81.579117 1346.5828 88.392334
-76.4804 1346.5828 88.392334
-71.381691 1346.5828 88.392334
-66.282974 1346.5828 88.392334
-61.184364 1346.5828 88.392334
-55.603481 1354.0916 64.420654
-50.548603 1354.0916 64.420654
-45.888226 1346.5828 88.392334
-40.789509 1346.5828 88.392334
-35.690891 1346.5828 88.392334
-30.592182 1346.5828 88.392334
-25.493467 1346.5828 88.392334
-20.219421 1354.0916 64.420654
-15.164542 1354.0916 64.420654
-10.109758 1354.0916 64.420654
-5.0548792 1354.0916 64.420654
0 1354.0916 64.420654
5.0547829 1354.0916 64.420654
10.109758 1354.0916 64.420654
15.164542 1354.0916 64.420654
20.219517 1354.0916 64.420654
25.274302 1354.0916 64.420654
30.329084 1354.0916 64.420654
35.38406 1354.0916 64.420654
40.438843 1354.0916 64.420654
45.493816 1354.0916 64.420654
50.548603 1354.0916 64.420654
55.603386 1354.0916 64.420654
60.658363 1354.0916 64.420654
65.713142 1354.0916 64.420654
70.76812 1354.0916 64.420654
76.4804 1346.5828 88.392334
81.579018 1346.5828 88.392334
86.677826 1346.5828 88.392334
91.776451 1346.5828 88.392334
96.875259 1346.5828 88.392334
101.97387 1346.5828 88.392334
107.07249 1346.5828 88.392334
112.1713 1346.5828 88.392334
117.26991 1346.5828 88.392334
122.36873 1346.5828 88.392334
127.46734 1346.5828 88.392334
132.56595 1346.5828 88.392334
137.66476 1346.5828 88.392334
142.76338 1346.5828 88.392334
147.86218 1346.5828 88.392334
152.9608 1346.5828 88.392334
158.05943 1346.5828 88.392334
164.5609 1339.074 112.36426
169.70334 1339.074 112.36426
174.84598 1339.074 112.36426
179.98843 1339.074 112.36426
185.13089 1339.074 112.36426
190.27354 1339.074 112.36426
195.41597 1339.074 112.36426
202.26811 1331.5652 136.33594
207.45441 1331.5652 136.33594
214.50974 1323.7562 161.2666
-185.13098 1334.3403 110.35474
-179.98843 1334.3403 110.35474
-174.8459 1334.3403 110.35474
-169.70334 1334.3403 110.35474
-164.5609 1334.3403 110.35474
-159.41835 1334.3403 110.35474
-154.2758 1334.3403 110.35474
-149.13327 1334.3403 110.35474
-143.99071 1334.3403 110.35474
-138.84827 1334.3403 110.35474
-133.70572 1334.3403 110.35474
-128.56317 1334.3403 110.35474
-123.42062 1334.3403 110.35474
-118.27808 1334.3403 110.35474
-112.1713 1341.8894 86.400146
-107.07259 1341.8894 86.400146
-101.97387 1341.8894 86.400146
-96.875153 1341.8894 86.400146
-91.776451 1341.8894 86.400146
-86.677826 1341.8894 86.400146
-81.579117 1341.8894 86.400146
-76.4804 1341.8894 86.400146
-71.381691 1341.8894 86.400146
-66.282974 1341.8894 86.400146
-61.184364 1341.8894 86.400146
-56.085648 1341.8894 86.400146
-50.986935 1341.8894 86.400146
-45.888226 1341.8894 86.400146
-40.789509 1341.8894 86.400146
-35.690891 1341.8894 86.400146
-30.592182 1341.8894 86.400146
-25.493467 1341.8894 86.400146
-20.219421 1349.4385 62.445557
-15.164542 1349.4385 62.445557
-10.109758 1349.4385 62.445557
-5.0127993 1356.6855 39.449219
0 1356.6855 39.449219
5.0127034 1356.6855 39.449219
10.025599 1356.6855 39.449219
15.038302 1356.6855 39.449219
20.051197 1356.6855 39.449219
25.0639 1356.6855 39.449219
30.076605 1356.6855 39.449219
35.38406 1349.4385 62.445557
40.438843 1349.4385 62.445557
45.493816 1349.4385 62.445557
50.548603 1349.4385 62.445557
55.603386 1349.4385 62.445557
60.658363 1349.4385 62.445557
65.713142 1349.4385 62.445557
70.76812 1349.4385 62.445557
76.4804 1341.8894 86.400146
81.579018 1341.8894 86.400146
86.677826 1341.8894 86.400146
91.776451 1341.8894 86.400146
96.875259 1341.8894 86.400146
101.97387 1341.8894 86.400146
107.07249 1341.8894 86.400146
112.1713 1341.8894 86.400146
117.26991 1341.8894 86.400146
122.36873 1341.8894 86.400146
127.46734 1341.8894 86.400146
132.56595 1341.8894 86.400146
137.66476 1341.8894 86.400146
142.76338 1341.8894 86.400146
147.86218 1341.8894 86.400146
152.9608 1341.8894 86.400146
158.05943 1341.8894 86.400146
163.15823 1341.8894 86.400146
168.25684 1341.8894 86.400146
174.84598 1334.3403 110.35474
179.98843 1334.3403 110.35474
185.13089 1334.3403 110.35474
190.27354 1334.3403 110.35474
195.41597 1334.3403 110.35474
202.26811 1326.7911 134.30957
207.45441 1326.7911 134.30957
214.50974 1318.9402 159.22217
219.74182 1318.9402 159.22217
-197.08165 1322.0171 132.28296
-190.27354 1329.6066 108.34546
-185.13098 1329.6066 108.34546
-179.98843 1329.6066 108.34546
-174.8459 1329.6066 108.34546
-169.70334 1329.6066 108.34546
-164.5609 1329.6066 108.34546
-159.41835 1329.6066 108.34546
-154.2758 1329.6066 108.34546
-149.13327 1329.6066 108.34546
-143.99071 1329.6066 108.34546
-138.84827 1329.6066 108.34546
-133.70572 1329.6066 108.34546
-128.56317 1329.6066 108.34546
-123.42062 1329.6066 108.34546
-118.27808 1329.6066 108.34546
-112.1713 1337.196 84.407959
-107.07259 1337.196 84.407959
-102.85054 1329.6066 108.34546
-96.875153 1337.196 84.407959
-91.776451 1337.196 84.407959
-86.677826 1337.196 84.407959
-81.579117 1337.196 84.407959
-76.4804 1337.196 84.407959
-71.381691 1337.196 84.407959
-66.282974 1337.196 84.407959
-61.184364 1337.196 84.407959
-56.085648 1337.196 84.407959
-50.986935 1337.196 84.407959
-45.888226 1337.196 84.407959
-40.789509 1337.196 84.407959
-35.690891 1337.196 84.407959
-30.592182 1337.196 84.407959
-25.493467 1337.196 84.407959
-20.219421 1344.7855 60.470459
-15.164542 1344.7855 60.470459
-10.109758 1344.7855 60.470459
-5.0127993 1352.0713 37.490479
0 1352.0713 37.490479
5.0127034 1352.0713 37.490479
10.025599 1352.0713 37.490479
15.038302 1352.0713 37.490479
20.051197 1352.0713 37.490479
25.0639 1352.0713 37.490479
30.076605 1352.0713 37.490479
35.38406 1344.7855 60.470459
40.438843 1344.7855 60.470459
45.493816 1344.7855 60.470459
50.548603 1344.7855 60.470459
55.603386 1344.7855 60.470459
60.658363 1344.7855 60.470459
65.713142 1344.7855 60.470459
70.76812 1344.7855 60.470459
75.822906 1344.7855 60.470459
81.579018 1337.196 84.407959
86.677826 1337.196 84.407959
91.776451 1337.196 84.407959
96.875259 1337.196 84.407959
101.97387 1337.196 84.407959
107.07249 1337.196 84.407959
112.1713 1337.196 84.407959
117.26991 1337.196 84.407959
122.36873 1337.196 84.407959
127.46734 1337.196 84.407959
132.56595 1337.196 84.407959
137.66476 1337.196 84.407959
143.99071 1329.6066 108.34546
147.86218 1337.196 84.407959
152.9608 1337.196 84.407959
158.05943 1337.196 84.407959
163.15823 1337.196 84.407959
168.25684 1337.196 84.407959
173.35565 1337.196 84.407959
179.98843 1329.6066 108.34546
185.13089 1329.6066 108.34546
190.27354 1329.6066 108.34546
195.41597 1329.6066 108.34546
200.55862 1329.6066 108.34546
205.70108 1329.6066 108.34546
212.6407 1322.0171 132.28296
219.74182 1314.1241 157.17798
224.97366 1314.1241 157.17798
-202.26804 1317.243 130.25659
-195.41597 1324.8728 106.33618
-190.27354 1324.8728 106.33618
-185.13098 1324.8728 106.33618
-179.98843 1324.8728 106.33618
-174.8459 1324.8728 106.33618
-169.70334 1324.8728 106.33618
-164.5609 1324.8728 106.33618
-159.41835 1324.8728 106.33618
-154.2758 1324.8728 106.33618
-149.13327 1324.8728 106.33618
-143.99071 1324.8728 106.33618
-138.84827 1324.8728 106.33618
-133.70572 1324.8728 106.33618
-128.56317 1324.8728 106.33618
-123.42062 1324.8728 106.33618
-118.27808 1324.8728 106.33618
-112.1713 1332.5027 82.415771
-107.07259 1332.5027 82.415771
-102.85054 1324.8728 106.33618
-96.875153 1332.5027 82.415771
-91.776451 1332.5027 82.415771
-86.677826 1332.5027 82.415771
-81.579117 1332.5027 82.415771
-76.4804 1332.5027 82.415771
-71.381691 1332.5027 82.415771
-66.282974 1332.5027 82.415771
-61.184364 1332.5027 82.415771
-56.085648 1332.5027 82.415771
-50.986935 1332.5027 82.415771
-45.888226 1332.5027 82.415771
-40.789509 1332.5027 82.415771
-35.690891 1332.5027 82.415771
-30.592182 1332.5027 82.415771
-25.493467 1332.5027 82.415771
-20.219421 1340.1326 58.495361
-15.164542 1340.1326 58.495361
-10.109758 1340.1326 58.495361
-5.0127993 1347.457 35.531738
0 1347.457 35.531738
5.0127034 1347.457 35.531738
10.025599 1347.457 35.531738
15.038302 1347.457 35.531738
20.051197 1347.457 35.531738
25.0639 1347.457 35.531738
30.076605 1347.457 35.531738
35.089497 1347.457 35.531738
40.438843 1340.1326 58.495361
45.493816 1340.1326 58.495361
50.548603 1340.1326 58.495361
55.603386 1340.1326 58.495361
60.658363 1340.1326 58.495361
65.713142 1340.1326 58.495361
70.76812 1340.1326 58.495361
75.822906 1340.1326 58.495361
81.579018 1332.5027 82.415771
86.677826 1332.5027 82.415771
91.776451 1332.5027 82.415771
96.875259 1332.5027 82.415771
101.97387 1332.5027 82.415771
107.07249 1332.5027 82.415771
112.1713 1332.5027 82.415771
117.26991 1332.5027 82.415771
122.36873 1332.5027 82.415771
127.46734 1332.5027 82.415771
132.56595 1332.5027 82.415771
137.66476 1332.5027 82.415771
142.76338 1332.5027 82.415771
147.86218 1332.5027 82.415771
152.9608 1332.5027 82.415771
158.05943 1332.5027 82.415771
163.15823 1332.5027 82.415771
168.25684 1332.5027 82.415771
173.35565 1332.5027 82.415771
179.98843 1324.8728 106.33618
185.13089 1324.8728 106.33618
190.27354 1324.8728 106.33618
195.41597 1324.8728 106.33618
200.55862 1324.8728 106.33618
205.70108 1324.8728 106.33618
212.6407 1317.243 130.25659
219.74182 1309.3081 155.13379
226.93391 1301.373 180.01074
232.21156 1301.373 180.01074
-200.55853 1320.139 104.32666
-195.41597 1320.139 104.32666
-190.27354 1320.139 104.32666
-185.13098 1320.139 104.32666
-179.98843 1320.139 104.32666
-174.8459 1320.139 104.32666
-168.25684 1327.8092 80.42334
-163.15823 1327.8092 80.42334
-158.05951 1327.8092 80.42334
-152.9608 1327.8092 80.42334
-147.86209 1327.8092 80.42334
-142.76338 1327.8092 80.42334
-138.84827 1320.139 104.32666
-133.70572 1320.139 104.32666
-128.56317 1320.139 104.32666
-123.42062 1320.139 104.32666
-118.27808 1320.139 104.32666
-112.1713 1327.8092 80.42334
-107.07259 1327.8092 80.42334
-101.97387 1327.8092 80.42334
-96.875153 1327.8092 80.42334
-91.776451 1327.8092 80.42334
-86.677826 1327.8092 80.42334
-81.579117 1327.8092 80.42334
-76.4804 1327.8092 80.42334
-71.381691 1327.8092 80.42334
-66.282974 1327.8092 80.42334
-61.184364 1327.8092 80.42334
-56.085648 1327.8092 80.42334
-50.986935 1327.8092 80.42334
-45.888226 1327.8092 80.42334
-40.789509 1327.8092 80.42334
-35.690891 1327.8092 80.42334
-30.592182 1327.8092 80.42334
-25.493467 1327.8092 80.42334
-20.219421 1335.4794 56.520264
-15.164542 1335.4794 56.520264
-10.109758 1335.4794 56.520264
-5.0127993 1342.8427 33.573242
0 1342.8427 33.573242
5.0127034 1342.8427 33.573242
10.025599 1342.8427 33.573242
15.038302 1342.8427 33.573242
20.051197 1342.8427 33.573242
25.0639 1342.8427 33.573242
30.076605 1342.8427 33.573242
35.089497 1342.8427 33.573242
40.438843 1335.4794 56.520264
45.493816 1335.4794 56.520264
50.548603 1335.4794 56.520264
55.603386 1335.4794 56.520264
60.658363 1335.4794 56.520264
65.713142 1335.4794 56.520264
70.76812 1335.4794 56.520264
75.822906 1335.4794 56.520264
80.877686 1335.4794 56.520264
85.932655 1335.4794 56.520264
91.776451 1327.8092 80.42334
96.875259 1327.8092 80.42334
101.97387 1327.8092 80.42334
107.07249 1327.8092 80.42334
112.1713 1327.8092 80.42334
117.26991 1327.8092 80.42334
122.36873 1327.8092 80.42334
127.46734 1327.8092 80.42334
132.56595 1327.8092 80.42334
137.66476 1327.8092 80.42334
142.76338 1327.8092 80.42334
147.86218 1327.8092 80.42334
152.9608 1327.8092 80.42334
158.05943 1327.8092 80.42334
163.15823 1327.8092 80.42334
168.25684 1327.8092 80.42334
173.35565 1327.8092 80.42334
178.45427 1327.8092 80.42334
185.13089 1320.139 104.32666
190.27354 1320.139 104.32666
195.41597 1320.139 104.32666
200.55862 1320.139 104.32666
205.70108 1320.139 104.32666
212.6407 1312.4689 128.22998
219.74182 1304.4919 153.08936
224.97366 1304.4919 153.08936
230.20573 1304.4919 153.08936
235.43761 1304.4919 153.08936
-200.55853 1315.4053 102.31738
-195.41597 1315.4053 102.31738
-190.27354 1315.4053 102.31738
-185.13098 1315.4053 102.31738
-179.98843 1315.4053 102.31738
-173.35556 1323.1158 78.431152
-168.25684 1323.1158 78.431152
-163.15823 1323.1158 78.431152
-158.05951 1323.1158 78.431152
-152.9608 1323.1158 78.431152
-147.86209 1323.1158 78.431152
-142.76338 1323.1158 78.431152
-137.66476 1323.1158 78.431152
-133.70572 1315.4053 102.31738
-128.56317 1315.4053 102.31738
-123.42062 1315.4053 102.31738
-118.27808 1315.4053 102.31738
-112.1713 1323.1158 78.431152
-107.07259 1323.1158 78.431152
-101.97387 1323.1158 78.431152
-96.875153 1323.1158 78.431152
-91.776451 1323.1158 78.431152
-86.677826 1323.1158 78.431152
-81.579117 1323.1158 78.431152
-76.4804 1323.1158 78.431152
-71.381691 1323.1158 78.431152
-65.713142 1330.8264 54.545166
-60.658363 1330.8264 54.545166
-55.603481 1330.8264 54.545166
-50.548603 1330.8264 54.545166
-45.493725 1330.8264 54.545166
-40.789509 1323.1158 78.431152
-35.690891 1323.1158 78.431152
-30.592182 1323.1158 78.431152
-25.493467 1323.1158 78.431152
-20.219421 1330.8264 54.545166
-15.164542 1330.8264 54.545166
-10.109758 1330.8264 54.545166
-5.0127993 1338.2283 31.614502
0 1338.2283 31.614502
5.0127034 1338.2283 31.614502
10.025599 1338.2283 31.614502
15.038302 1338.2283 31.614502
20.051197 1338.2283 31.614502
25.0639 1338.2283 31.614502
30.076605 1338.2283 31.614502
35.38406 1330.8264 54.545166
40.438843 1330.8264 54.545166
45.493816 1330.8264 54.545166
50.548603 1330.8264 54.545166
55.603386 1330.8264 54.545166
60.658363 1330.8264 54.545166
65.713142 1330.8264 54.545166
70.76812 1330.8264 54.545166
75.822906 1330.8264 54.545166
80.877686 1330.8264 54.545166
85.932655 1330.8264 54.545166
91.776451 1323.1158 78.431152
96.875259 1323.1158 78.431152
101.97387 1323.1158 78.431152
107.07249 1323.1158 78.431152
112.1713 1323.1158 78.431152
117.26991 1323.1158 78.431152
122.36873 1323.1158 78.431152
127.46734 1323.1158 78.431152
132.56595 1323.1158 78.431152
137.66476 1323.1158 78.431152
142.76338 1323.1158 78.431152
147.86218 1323.1158 78.431152
152.9608 1323.1158 78.431152
158.05943 1323.1158 78.431152
163.15823 1323.1158 78.431152
168.25684 1323.1158 78.431152
173.35565 1323.1158 78.431152
178.45427 1323.1158 78.431152
183.5529 1323.1158 78.431152
190.27354 1315.4053 102.31738
195.41597 1315.4053 102.31738
200.55862 1315.4053 102.31738
205.70108 1315.4053 102.31738
212.6407 1307.6948 126.20361
219.74182 1299.676 151.04517
224.97366 1299.676 151.04517
230.20573 1299.676 151.04517
237.48901 1291.657 175.88672
242.76645 1291.657 175.88672
-200.55853 1310.6716 100.30811
-195.41597 1310.6716 100.30811
-190.27354 1310.6716 100.30811
-185.13098 1310.6716 100.30811
-179.98843 1310.6716 100.30811
-173.35556 1318.4225 76.438965
-168.25684 1318.4225 76.438965
-163.15823 1318.4225 76.438965
-158.05951 1318.4225 76.438965
-152.9608 1318.4225 76.438965
-147.86209 1318.4225 76.438965
-142.76338 1318.4225 76.438965
-137.66476 1318.4225 76.438965
-132.56606 1318.4225 76.438965
-128.56317 1310.6716 100.30811
-123.42062 1310.6716 100.30811
-118.27808 1310.6716 100.30811
-113.13563 1310.6716 100.30811
-107.99309 1310.6716 100.30811
-101.97387 1318.4225 76.438965
-96.875153 1318.4225 76.438965
-91.776451 1318.4225 76.438965
-86.677826 1318.4225 76.438965
-81.579117 1318.4225 76.438965
-76.4804 1318.4225 76.438965
-70.768028 1326.1733 52.570068
-65.713142 1326.1733 52.570068
-60.658363 1326.1733 52.570068
-55.603481 1326.1733 52.570068
-50.548603 1326.1733 52.570068
-45.493725 1326.1733 52.570068
-40.438843 1326.1733 52.570068
-35.38406 1326.1733 52.570068
-30.592182 1318.4225 76.438965
-25.493467 1318.4225 76.438965
-20.219421 1326.1733 52.570068
-15.164542 1326.1733 52.570068
-10.109758 1326.1733 52.570068
-5.0127993 1333.614 29.655762
0 1333.614 29.655762
5.0127034 1333.614 29.655762
10.025599 1333.614 29.655762
15.038302 1333.614 29.655762
20.219517 1326.1733 52.570068
25.274302 1326.1733 52.570068
30.329084 1326.1733 52.570068
35.38406 1326.1733 52.570068
40.438843 1326.1733 52.570068
45.493816 1326.1733 52.570068
50.548603 1326.1733 52.570068
55.603386 1326.1733 52.570068
60.658363 1326.1733 52.570068
65.713142 1326.1733 52.570068
70.76812 1326.1733 52.570068
75.822906 1326.1733 52.570068
80.877686 1326.1733 52.570068
85.932655 1326.1733 52.570068
91.776451 1318.4225 76.438965
96.875259 1318.4225 76.438965
101.97387 1318.4225 76.438965
107.07249 1318.4225 76.438965
112.1713 1318.4225 76.438965
117.26991 1318.4225 76.438965
122.36873 1318.4225 76.438965
127.46734 1318.4225 76.438965
132.56595 1318.4225 76.438965
137.66476 1318.4225 76.438965
142.76338 1318.4225 76.438965
147.86218 1318.4225 76.438965
152.9608 1318.4225 76.438965
158.05943 1318.4225 76.438965
163.15823 1318.4225 76.438965
168.25684 1318.4225 76.438965
173.35565 1318.4225 76.438965
178.45427 1318.4225 76.438965
183.5529 1318.4225 76.438965
188.6517 1318.4225 76.438965
195.41597 1310.6716 100.30811
200.55862 1310.6716 100.30811
205.70108 1310.6716 100.30811
212.6407 1302.9207 124.177
219.74182 1294.86 149.00073
224.97366 1294.86 149.00073
230.20573 1294.86 149.00073
235.43761 1294.86 149.00073
240.66948 1294.86 149.00073
-200.55853 1305.938 98.298828
-195.41597 1305.938 98.298828
-190.27354 1305.938 98.298828
-185.13098 1305.938 98.298828
-178.45427 1313.7291 74.446777
-173.35556 1313.7291 74.446777
-168.25684 1313.7291 74.446777
-163.15823 1313.7291 74.446777
-158.05951 1313.7291 74.446777
-152.9608 1313.7291 74.446777
-147.86209 1313.7291 74.446777
-142.76338 1313.7291 74.446777
-137.66476 1313.7291 74.446777
-132.56606 1313.7291 74.446777
-128.56317 1305.938 98.298828
-123.42062 1305.938 98.298828
-118.27808 1305.938 98.298828
-113.13563 1305.938 98.298828
-107.99309 1305.938 98.298828
-101.97387 1313.7291 74.446777
-96.875153 1313.7291 74.446777
-91.776451 1313.7291 74.446777
-86.677826 1313.7291 74.446777
-81.579117 1313.7291 74.446777
-75.822906 1321.5203 50.594971
-70.768028 1321.5203 50.594971
-65.713142 1321.5203 50.594971
-60.658363 1321.5203 50.594971
-55.603481 1321.5203 50.594971
-50.548603 1321.5203 50.594971
-45.493725 1321.5203 50.594971
-40.438843 1321.5203 50.594971
-35.38406 1321.5203 50.594971
-30.592182 1313.7291 74.446777
-25.493467 1313.7291 74.446777
-20.219421 1321.5203 50.594971
-15.164542 1321.5203 50.594971
-10.109758 1321.5203 50.594971
-5.0548792 1321.5203 50.594971
0 1328.9998 27.697266
5.0127034 1328.9998 27.697266
10.109758 1321.5203 50.594971
15.164542 1321.5203 50.594971
20.219517 1321.5203 50.594971
25.274302 1321.5203 50.594971
30.329084 1321.5203 50.594971
35.38406 1321.5203 50.594971
40.438843 1321.5203 50.594971
45.493816 1321.5203 50.594971
50.548603 1321.5203 50.594971
55.603386 1321.5203 50.594971
60.658363 1321.5203 50.594971
65.713142 1321.5203 50.594971
70.76812 1321.5203 50.594971
75.822906 1321.5203 50.594971
80.877686 1321.5203 50.594971
85.932655 1321.5203 50.594971
90.98745 1321.5203 50.594971
96.875259 1313.7291 74.446777
101.97387 1313.7291 74.446777
107.07249 1313.7291 74.446777
112.1713 1313.7291 74.446777
117.26991 1313.7291 74.446777
122.36873 1313.7291 74.446777
127.46734 1313.7291 74.446777
132.56595 1313.7291 74.446777
137.66476 1313.7291 74.446777
142.76338 1313.7291 74.446777
147.86218 1313.7291 74.446777
152.9608 1313.7291 74.446777
158.05943 1313.7291 74.446777
163.15823 1313.7291 74.446777
168.25684 1313.7291 74.446777
173.35565 1313.7291 74.446777
178.45427 1313.7291 74.446777
183.5529 1313.7291 74.446777
188.6517 1313.7291 74.446777
195.41597 1305.938 98.298828
200.55862 1305.938 98.298828
205.70108 1305.938 98.298828
212.6407 1298.1467 122.15063
