ply
format ascii 1.0
comment PCL generated
element vertex 1581
property float x
property float y
property float z
element camera 0
property float view_px
property float view_py
property float view_pz
property float x_axisx
property float x_axisy
property float x_axisz
property float y_axisx
property float y_axisy
property float y_axisz
property float z_axisx
property float z_axisy
property float z_axisz
property float focal
property float scalex
property float scaley
property float centerx
property float centery
property int viewportx
property int viewporty
property float k1
property float k2
end_header
-98.467163 844.8175 105.71387
-93.861237 832.03516 131.79297
-87.526421 844.8175 105.71387
-82.056 844.8175 105.71387
-76.585587 844.8175 105.71387
-71.115158 844.8175 105.71387
-65.644844 844.8175 105.71387
-60.174423 844.8175 105.71387
-54.704002 844.8175 105.71387
-49.233582 844.8175 105.71387
-43.763157 844.8175 105.71387
-38.292843 844.8175 105.71387
-32.822422 844.8175 105.71387
-27.352001 844.8175 105.71387
-21.685207 857.15881 80.534668
-16.26388 857.15881 80.534668
-10.842655 857.15881 80.534668
-5.4213276 857.15881 80.534668
0 857.15881 80.534668
5.3721313 869.50012 55.355225
10.744469 869.50012 55.355225
16.116598 869.50012 55.355225
21.488937 869.50012 55.355225
27.106535 857.15881 80.534668
32.233196 869.50012 55.355225
37.605534 869.50012 55.355225
42.977669 869.50012 55.355225
48.350006 869.50012 55.355225
53.722134 869.50012 55.355225
59.094265 869.50012 55.355225
64.466599 869.50012 55.355225
69.838737 869.50012 55.355225
75.211067 869.50012 55.355225
80.583206 869.50012 55.355225
85.955338 869.50012 55.355225
92.162254 857.15881 80.534668
97.583481 857.15881 80.534668
103.00491 857.15881 80.534668
109.408 844.8175 105.71387
114.87832 844.8175 105.71387
120.34885 844.8175 105.71387
125.81916 844.8175 105.71387
131.28969 844.8175 105.71387
136.76001 844.8175 105.71387
143.55234 832.03516 131.79297
149.07372 832.03516 131.79297
156.01857 819.25305 157.87158
163.1162 806.03015 184.84961
167.16281 819.25305 157.87158
172.73482 819.25305 157.87158
170.396 881.40088 31.074707
174.15857 893.30139 6.7946777
179.43622 893.30139 6.7946777
183.11813 904.76123 -16.586182
188.35001 904.76123 -16.586182
193.58208 904.76123 -16.586182
198.81393 904.76123 -16.586182
204.04601 904.76123 -16.586182
209.27788 904.76123 -16.586182
214.50974 904.76123 -16.586182
219.74182 904.76123 -16.586182
224.97366 904.76123 -16.586182
230.20573 904.76123 -16.586182
235.43761 904.76123 -16.586182
240.66948 904.76123 -16.586182
245.90155 904.76123 -16.586182
251.13341 904.76123 -16.586182
256.36548 904.76123 -16.586182
261.59735 904.76123 -16.586182
266.82922 904.76123 -16.586182
272.06128 904.76123 -16.586182
277.29312 904.76123 -16.586182
282.52521 904.76123 -16.586182
-132.5099 826.953 129.6355
-126.98864 826.953 129.6355
-121.46747 826.953 129.6355
-115.94621 826.953 129.6355
-109.408 839.78198 103.57642
-103.93758 839.78198 103.57642
-98.467163 839.78198 103.57642
-92.996849 839.78198 103.57642
-87.526421 839.78198 103.57642
-82.056 839.78198 103.57642
-76.585587 839.78198 103.57642
-71.115158 839.78198 103.57642
-65.644844 839.78198 103.57642
-60.174423 839.78198 103.57642
-54.704002 839.78198 103.57642
-49.233582 839.78198 103.57642
-43.763157 839.78198 103.57642
-38.292843 839.78198 103.57642
-32.822422 839.78198 103.57642
-27.352001 839.78198 103.57642
-21.685207 852.16858 78.416504
-16.26388 852.16858 78.416504
-10.842655 852.16858 78.416504
-5.4213276 852.16858 78.416504
0 852.16858 78.416504
5.4212241 852.16858 78.416504
10.744469 864.55505 53.256104
16.116598 864.55505 53.256104
21.488937 864.55505 53.256104
27.106535 852.16858 78.416504
32.233196 864.55505 53.256104
37.605534 864.55505 53.256104
42.977669 864.55505 53.256104
48.350006 864.55505 53.256104
53.722134 864.55505 53.256104
59.094265 864.55505 53.256104
64.466599 864.55505 53.256104
69.838737 864.55505 53.256104
75.211067 864.55505 53.256104
80.583206 864.55505 53.256104
86.740829 852.16858 78.416504
92.162254 852.16858 78.416504
97.583481 852.16858 78.416504
103.00491 852.16858 78.416504
109.408 839.78198 103.57642
114.87832 839.78198 103.57642
120.34885 839.78198 103.57642
125.81916 839.78198 103.57642
131.28969 839.78198 103.57642
138.03117 826.953 129.6355
143.55234 826.953 129.6355
149.07372 826.953 129.6355
157.49138 800.85278 182.65186
163.1162 800.85278 182.65186
167.16281 814.12402 155.69434
172.73482 814.12402 155.69434
168.8811 888.44348 4.732666
174.15857 888.44348 4.732666
179.43622 888.44348 4.732666
183.11813 899.94531 -18.630371
188.35001 899.94531 -18.630371
193.58208 899.94531 -18.630371
198.81393 899.94531 -18.630371
204.04601 899.94531 -18.630371
209.27788 899.94531 -18.630371
214.50974 899.94531 -18.630371
219.74182 899.94531 -18.630371
224.97366 899.94531 -18.630371
230.20573 899.94531 -18.630371
235.43761 899.94531 -18.630371
240.66948 899.94531 -18.630371
245.90155 899.94531 -18.630371
251.13341 899.94531 -18.630371
256.36548 899.94531 -18.630371
261.59735 899.94531 -18.630371
266.82922 899.94531 -18.630371
272.06128 899.94531 -18.630371
277.29312 899.94531 -18.630371
282.52521 899.94531 -18.630371
-128.15811 808.99487 153.51709
-121.46747 821.87061 127.47827
-115.94621 821.87061 127.47827
-109.408 834.74634 101.43896
-103.93758 834.74634 101.43896
-98.467163 834.74634 101.43896
-92.996849 834.74634 101.43896
-87.526421 834.74634 101.43896
-82.056 834.74634 101.43896
-76.585587 834.74634 101.43896
-71.115158 834.74634 101.43896
-66.255005 821.87061 127.47827
-60.174423 834.74634 101.43896
-54.704002 834.74634 101.43896
-49.233582 834.74634 101.43896
-43.763157 834.74634 101.43896
-38.292843 834.74634 101.43896
-32.822422 834.74634 101.43896
-27.352001 834.74634 101.43896
-21.685207 847.1781 76.298096
-16.26388 847.1781 76.298096
-10.842655 847.1781 76.298096
-5.4213276 847.1781 76.298096
0 847.1781 76.298096
5.4212241 847.1781 76.298096
10.744469 859.60986 51.156982
16.116598 859.60986 51.156982
21.488937 859.60986 51.156982
27.106535 847.1781 76.298096
32.52776 847.1781 76.298096
37.949188 847.1781 76.298096
43.370415 847.1781 76.298096
48.791843 847.1781 76.298096
54.21307 847.1781 76.298096
59.634293 847.1781 76.298096
65.055725 847.1781 76.298096
69.838737 859.60986 51.156982
75.211067 859.60986 51.156982
80.583206 859.60986 51.156982
86.740829 847.1781 76.298096
92.162254 847.1781 76.298096
97.583481 847.1781 76.298096
103.00491 847.1781 76.298096
109.408 834.74634 101.43896
114.87832 834.74634 101.43896
120.34885 834.74634 101.43896
126.98864 821.87061 127.47827
132.51001 821.87061 127.47827
138.03117 821.87061 127.47827
144.87434 808.99487 153.51709
150.44656 808.99487 153.51709
157.49138 795.67505 180.4541
163.1162 795.67505 180.4541
167.16281 808.99487 153.51709
169.58232 834.74634 101.43896
168.8811 883.58545 2.6704102
174.15857 883.58545 2.6704102
179.43622 883.58545 2.6704102
183.11813 895.12927 -20.674805
188.35001 895.12927 -20.674805
193.58208 895.12927 -20.674805
198.81393 895.12927 -20.674805
204.04601 895.12927 -20.674805
209.27788 895.12927 -20.674805
214.50974 895.12927 -20.674805
219.74182 895.12927 -20.674805
224.97366 895.12927 -20.674805
230.20573 895.12927 -20.674805
235.43761 895.12927 -20.674805
240.66948 895.12927 -20.674805
245.90155 895.12927 -20.674805
251.13341 895.12927 -20.674805
256.36548 895.12927 -20.674805
261.59735 895.12927 -20.674805
269.15411 883.58545 2.6704102
274.43176 883.58545 2.6704102
279.70923 883.58545 2.6704102
284.98691 883.58545 2.6704102
-128.15811 803.86572 151.34009
-121.46747 816.78833 125.32104
-115.94621 816.78833 125.32104
-109.408 829.71094 99.301514
-103.93758 829.71094 99.301514
-99.382401 816.78833 125.32104
-93.861237 816.78833 125.32104
-88.339973 816.78833 125.32104
-82.056 829.71094 99.301514
-76.585587 829.71094 99.301514
-71.115158 829.71094 99.301514
-66.255005 816.78833 125.32104
-60.733734 816.78833 125.32104
-54.704002 829.71094 99.301514
-49.233582 829.71094 99.301514
-43.763157 829.71094 99.301514
-38.648773 816.78833 125.32104
-32.822422 829.71094 99.301514
-27.352001 829.71094 99.301514
-21.685207 842.18787 74.179932
-16.26388 842.18787 74.179932
-10.842655 842.18787 74.179932
-5.4213276 842.18787 74.179932
0 842.18787 74.179932
5.4212241 842.18787 74.179932
10.842655 842.18787 74.179932
16.26388 842.18787 74.179932
21.68531 842.18787 74.179932
27.106535 842.18787 74.179932
32.52776 842.18787 74.179932
37.949188 842.18787 74.179932
43.370415 842.18787 74.179932
48.791843 842.18787 74.179932
54.21307 842.18787 74.179932
59.634293 842.18787 74.179932
65.055725 842.18787 74.179932
70.476952 842.18787 74.179932
75.211067 854.66479 49.057861
80.583206 854.66479 49.057861
86.740829 842.18787 74.179932
92.162254 842.18787 74.179932
97.583481 842.18787 74.179932
103.00491 842.18787 74.179932
109.408 829.71094 99.301514
114.87832 829.71094 99.301514
120.34885 829.71094 99.301514
126.98864 816.78833 125.32104
132.51001 816.78833 125.32104
138.03117 816.78833 125.32104
144.87434 803.86572 151.34009
150.44656 803.86572 151.34009
157.49138 790.49756 178.25659
161.59081 803.86572 151.34009
165.63741 816.78833 125.32104
165.071 866.69617 24.833008
168.8811 878.72754 0.60839844
174.15857 878.72754 0.60839844
179.43622 878.72754 0.60839844
183.11813 890.31323 -22.718994
188.35001 890.31323 -22.718994
195.26877 878.72754 0.60839844
200.54623 878.72754 0.60839844
204.04601 890.31323 -22.718994
209.27788 890.31323 -22.718994
214.50974 890.31323 -22.718994
219.74182 890.31323 -22.718994
224.97366 890.31323 -22.718994
230.20573 890.31323 -22.718994
235.43761 890.31323 -22.718994
240.66948 890.31323 -22.718994
245.90155 890.31323 -22.718994
251.13341 890.31323 -22.718994
256.36548 890.31323 -22.718994
263.87668 878.72754 0.60839844
269.15411 878.72754 0.60839844
274.43176 878.72754 0.60839844
279.70923 878.72754 0.60839844
284.98691 878.72754 0.60839844
-123.7433 785.31995 176.05859
-117.01398 798.73657 149.16284
-110.42493 811.70593 123.16357
-104.90366 811.70593 123.16357
-99.382401 811.70593 123.16357
-93.861237 811.70593 123.16357
-88.339973 811.70593 123.16357
-82.056 824.67529 97.164062
-76.585587 824.67529 97.164062
-71.115158 824.67529 97.164062
-66.255005 811.70593 123.16357
-60.174423 824.67529 97.164062
-54.704002 824.67529 97.164062
-49.233582 824.67529 97.164062
-43.763157 824.67529 97.164062
-38.648773 811.70593 123.16357
-32.822422 824.67529 97.164062
-27.352001 824.67529 97.164062
-21.685207 837.19751 72.061523
-16.26388 837.19751 72.061523
-10.842655 837.19751 72.061523
-5.4213276 837.19751 72.061523
0 837.19751 72.061523
5.4212241 837.19751 72.061523
10.842655 837.19751 72.061523
16.26388 837.19751 72.061523
21.68531 837.19751 72.061523
27.106535 837.19751 72.061523
32.52776 837.19751 72.061523
37.949188 837.19751 72.061523
43.370415 837.19751 72.061523
48.791843 837.19751 72.061523
54.21307 837.19751 72.061523
59.634293 837.19751 72.061523
65.055725 837.19751 72.061523
70.476952 837.19751 72.061523
75.898376 837.19751 72.061523
81.319603 837.19751 72.061523
86.740829 837.19751 72.061523
92.162254 837.19751 72.061523
97.583481 837.19751 72.061523
103.00491 837.19751 72.061523
109.408 824.67529 97.164062
114.87832 824.67529 97.164062
121.46747 811.70593 123.16357
126.98864 811.70593 123.16357
132.51001 811.70593 123.16357
138.03117 811.70593 123.16357
144.87434 798.73657 149.16284
150.44656 798.73657 149.16284
157.49138 785.31995 176.05859
161.59081 798.73657 149.16284
165.63741 811.70593 123.16357
165.071 861.79456 22.752441
168.8811 873.86938 -1.4536133
174.15857 873.86938 -1.4536133
179.43622 873.86938 -1.4536133
183.11813 885.49719 -24.763428
188.35001 885.49719 -24.763428
195.26877 873.86938 -1.4536133
198.81393 885.49719 -24.763428
204.04601 885.49719 -24.763428
209.27788 885.49719 -24.763428
214.50974 885.49719 -24.763428
219.74182 885.49719 -24.763428
224.97366 885.49719 -24.763428
230.20573 885.49719 -24.763428
235.43761 885.49719 -24.763428
240.66948 885.49719 -24.763428
245.90155 885.49719 -24.763428
253.32158 873.86938 -1.4536133
258.59924 873.86938 -1.4536133
263.87668 873.86938 -1.4536133
269.15411 873.86938 -1.4536133
274.43176 873.86938 -1.4536133
279.70923 873.86938 -1.4536133
284.98691 873.86938 -1.4536133
-123.7433 780.14246 173.86108
-115.94621 806.62366 121.00635
-110.42493 806.62366 121.00635
-104.90366 806.62366 121.00635
-99.382401 806.62366 121.00635
-93.861237 806.62366 121.00635
-88.339973 806.62366 121.00635
-82.056 819.63989 95.026611
-76.585587 819.63989 95.026611
-71.115158 819.63989 95.026611
-66.255005 806.62366 121.00635
-60.174423 819.63989 95.026611
-54.704002 819.63989 95.026611
-49.233582 819.63989 95.026611
-43.763157 819.63989 95.026611
-38.648773 806.62366 121.00635
-33.127502 806.62366 121.00635
-27.352001 819.63989 95.026611
-21.685207 832.20715 69.943359
-16.26388 832.20715 69.943359
-10.842655 832.20715 69.943359
-5.4213276 832.20715 69.943359
0 832.20715 69.943359
5.4212241 832.20715 69.943359
10.842655 832.20715 69.943359
16.26388 832.20715 69.943359
21.68531 832.20715 69.943359
27.106535 832.20715 69.943359
32.52776 832.20715 69.943359
37.949188 832.20715 69.943359
43.370415 832.20715 69.943359
48.791843 832.20715 69.943359
54.21307 832.20715 69.943359
59.634293 832.20715 69.943359
65.055725 832.20715 69.943359
70.476952 832.20715 69.943359
75.898376 832.20715 69.943359
81.319603 832.20715 69.943359
86.740829 832.20715 69.943359
92.996849 819.63989 95.026611
98.467163 819.63989 95.026611
103.93769 819.63989 95.026611
109.408 819.63989 95.026611
114.87832 819.63989 95.026611
121.46747 806.62366 121.00635
126.98864 806.62366 121.00635
132.51001 806.62366 121.00635
139.30234 793.60754 146.9856
144.87434 793.60754 146.9856
150.44656 793.60754 146.9856
157.49138 780.14246 173.86108
161.59081 793.60754 146.9856
165.63741 806.62366 121.00635
168.06042 832.20715 69.943359
170.396 856.89307 20.671875
174.15857 869.01147 -3.515625
179.43622 869.01147 -3.515625
183.11813 880.68127 -26.807617
188.35001 880.68127 -26.807617
195.26877 869.01147 -3.515625
198.81393 880.68127 -26.807617
204.04601 880.68127 -26.807617
209.27788 880.68127 -26.807617
214.50974 880.68127 -26.807617
219.74182 880.68127 -26.807617
224.97366 880.68127 -26.807617
230.20573 880.68127 -26.807617
235.43761 880.68127 -26.807617
240.66948 880.68127 -26.807617
245.90155 880.68127 -26.807617
253.32158 869.01147 -3.515625
258.59924 869.01147 -3.515625
263.87668 869.01147 -3.515625
269.15411 869.01147 -3.515625
276.89346 856.89307 20.671875
282.21826 856.89307 20.671875
-115.94621 801.54126 118.84888
-110.42493 801.54126 118.84888
-104.90366 801.54126 118.84888
-99.382401 801.54126 118.84888
-93.861237 801.54126 118.84888
-88.339973 801.54126 118.84888
-82.056 814.60425 92.88916
-76.585587 814.60425 92.88916
-71.115158 814.60425 92.88916
-65.644844 814.60425 92.88916
-60.174423 814.60425 92.88916
-54.704002 814.60425 92.88916
-49.233582 814.60425 92.88916
-43.763157 814.60425 92.88916
-38.648773 801.54126 118.84888
-33.127502 801.54126 118.84888
-27.352001 814.60425 92.88916
-21.685207 827.2168 67.824951
-16.26388 827.2168 67.824951
-10.842655 827.2168 67.824951
-5.4213276 827.2168 67.824951
0 827.2168 67.824951
5.4212241 827.2168 67.824951
10.842655 827.2168 67.824951
16.26388 827.2168 67.824951
21.68531 827.2168 67.824951
27.106535 827.2168 67.824951
32.52776 827.2168 67.824951
37.949188 827.2168 67.824951
43.370415 827.2168 67.824951
48.791843 827.2168 67.824951
54.21307 827.2168 67.824951
59.634293 827.2168 67.824951
65.055725 827.2168 67.824951
70.476952 827.2168 67.824951
75.898376 827.2168 67.824951
81.319603 827.2168 67.824951
86.740829 827.2168 67.824951
92.996849 814.60425 92.88916
98.467163 814.60425 92.88916
103.93769 814.60425 92.88916
109.408 814.60425 92.88916
114.87832 814.60425 92.88916
121.46747 801.54126 118.84888
126.98864 801.54126 118.84888
132.51001 801.54126 118.84888
139.30234 788.47827 144.80835
144.87434 788.47827 144.80835
150.44656 788.47827 144.80835
157.49138 774.96484 171.66333
161.59081 788.47827 144.80835
165.63741 801.54126 118.84888
168.06042 827.2168 67.824951
170.396 851.99146 18.591309
174.15857 864.15344 -5.5778809
179.43622 864.15344 -5.5778809
184.71367 864.15344 -5.5778809
189.99112 864.15344 -5.5778809
195.26877 864.15344 -5.5778809
198.81393 875.86511 -28.851807
204.04601 875.86511 -28.851807
209.27788 875.86511 -28.851807
214.50974 875.86511 -28.851807
219.74182 875.86511 -28.851807
224.97366 875.86511 -28.851807
230.20573 875.86511 -28.851807
235.43761 875.86511 -28.851807
240.66948 875.86511 -28.851807
245.90155 875.86511 -28.851807
253.32158 864.15344 -5.5778809
258.59924 864.15344 -5.5778809
266.24368 851.99146 18.591309
271.56848 851.99146 18.591309
276.89346 851.99146 18.591309
-118.11858 769.78735 169.46558
-111.44187 783.34924 142.63135
-105.86976 783.34924 142.63135
-99.382401 796.45898 116.69165
-93.861237 796.45898 116.69165
-88.339973 796.45898 116.69165
-82.056 809.56885 90.751709
-76.585587 809.56885 90.751709
-71.115158 809.56885 90.751709
-65.644844 809.56885 90.751709
-60.174423 809.56885 90.751709
-54.704002 809.56885 90.751709
-49.233582 809.56885 90.751709
-43.763157 809.56885 90.751709
-38.648773 796.45898 116.69165
-33.127502 796.45898 116.69165
-27.352001 809.56885 90.751709
-21.685207 822.22656 65.706787
-16.26388 822.22656 65.706787
-10.842655 822.22656 65.706787
-5.4213276 822.22656 65.706787
0 822.22656 65.706787
5.4212241 822.22656 65.706787
10.842655 822.22656 65.706787
16.26388 822.22656 65.706787
21.68531 822.22656 65.706787
27.106535 822.22656 65.706787
32.52776 822.22656 65.706787
37.949188 822.22656 65.706787
43.370415 822.22656 65.706787
48.791843 822.22656 65.706787
54.21307 822.22656 65.706787
59.634293 822.22656 65.706787
65.055725 822.22656 65.706787
70.476952 822.22656 65.706787
75.898376 822.22656 65.706787
81.319603 822.22656 65.706787
87.526314 809.56885 90.751709
92.996849 809.56885 90.751709
98.467163 809.56885 90.751709
103.93769 809.56885 90.751709
109.408 809.56885 90.751709
115.9461 796.45898 116.69165
121.46747 796.45898 116.69165
126.98864 796.45898 116.69165
132.51001 796.45898 116.69165
139.30234 783.34924 142.63135
144.87434 783.34924 142.63135
150.44656 783.34924 142.63135
157.49138 769.78735 169.46558
161.59081 783.34924 142.63135
165.63741 796.45898 116.69165
166.53854 834.88416 40.661621
170.396 847.08984 16.510742
175.72078 847.08984 16.510742
179.43622 859.29553 -7.6398926
184.71367 859.29553 -7.6398926
189.99112 859.29553 -7.6398926
195.26877 859.29553 -7.6398926
198.81393 871.04919 -30.89624
204.04601 871.04919 -30.89624
209.27788 871.04919 -30.89624
214.50974 871.04919 -30.89624
219.74182 871.04919 -30.89624
224.97366 871.04919 -30.89624
230.20573 871.04919 -30.89624
235.43761 871.04919 -30.89624
242.76645 859.29553 -7.6398926
248.04411 859.29553 -7.6398926
253.32158 859.29553 -7.6398926
258.59924 859.29553 -7.6398926
268.61069 834.88416 40.661621
273.98282 834.88416 40.661621
-112.49387 764.60974 167.26782
-105.86976 778.21997 140.4541
-99.382401 791.37659 114.53442
-93.861237 791.37659 114.53442
-88.339973 791.37659 114.53442
-82.056 804.5332 88.614258
-76.585587 804.5332 88.614258
-71.115158 804.5332 88.614258
-65.644844 804.5332 88.614258
-60.174423 804.5332 88.614258
-54.704002 804.5332 88.614258
-49.233582 804.5332 88.614258
-43.763157 804.5332 88.614258
-38.292843 804.5332 88.614258
-32.822422 804.5332 88.614258
-27.352001 804.5332 88.614258
-21.685207 817.23608 63.588623
-16.26388 817.23608 63.588623
-10.842655 817.23608 63.588623
-5.4213276 817.23608 63.588623
0 817.23608 63.588623
5.4212241 817.23608 63.588623
10.842655 817.23608 63.588623
16.26388 817.23608 63.588623
21.68531 817.23608 63.588623
27.106535 817.23608 63.588623
32.52776 817.23608 63.588623
37.949188 817.23608 63.588623
43.370415 817.23608 63.588623
48.791843 817.23608 63.588623
54.21307 817.23608 63.588623
59.634293 817.23608 63.588623
65.644844 804.5332 88.614258
71.115158 804.5332 88.614258
76.585686 804.5332 88.614258
82.056 804.5332 88.614258
87.526314 804.5332 88.614258
92.996849 804.5332 88.614258
98.467163 804.5332 88.614258
103.93769 804.5332 88.614258
110.42493 791.37659 114.53442
115.9461 791.37659 114.53442
121.46747 791.37659 114.53442
126.98864 791.37659 114.53442
132.51001 791.37659 114.53442
139.30234 778.21997 140.4541
146.24194 764.60974 167.26782
150.44656 778.21997 140.4541
156.01857 778.21997 140.4541
160.11624 791.37659 114.53442
162.63921 817.23608 63.588623
166.53854 829.93896 38.5625
170.396 842.18823 14.430176
175.72078 842.18823 14.430176
179.43622 854.4375 -9.7021484
184.71367 854.4375 -9.7021484
189.99112 854.4375 -9.7021484
195.26877 854.4375 -9.7021484
198.81393 866.23303 -32.94043
204.04601 866.23303 -32.94043
209.27788 866.23303 -32.94043
214.50974 866.23303 -32.94043
219.74182 866.23303 -32.94043
224.97366 866.23303 -32.94043
230.20573 866.23303 -32.94043
235.43761 866.23303 -32.94043
242.76645 854.4375 -9.7021484
248.04411 854.4375 -9.7021484
253.32158 854.4375 -9.7021484
258.59924 854.4375 -9.7021484
263.87668 854.4375 -9.7021484
273.98282 829.93896 38.5625
-112.49387 759.43225 165.07007
-106.86916 759.43225 165.07007
-100.29764 773.09094 138.27686
-93.861237 786.29431 112.37695
-88.339973 786.29431 112.37695
-82.818703 786.29431 112.37695
-76.585587 799.4978 86.476807
-71.115158 799.4978 86.476807
-65.644844 799.4978 86.476807
-60.174423 799.4978 86.476807
-54.704002 799.4978 86.476807
-49.233582 799.4978 86.476807
-43.763157 799.4978 86.476807
-38.292843 799.4978 86.476807
-32.822422 799.4978 86.476807
-27.352001 799.4978 86.476807
-21.685207 812.24585 61.470215
-16.26388 812.24585 61.470215
-10.842655 812.24585 61.470215
-5.4213276 812.24585 61.470215
0 812.24585 61.470215
5.4212241 812.24585 61.470215
10.842655 812.24585 61.470215
16.26388 812.24585 61.470215
21.68531 812.24585 61.470215
27.106535 812.24585 61.470215
32.52776 812.24585 61.470215
37.949188 812.24585 61.470215
43.370415 812.24585 61.470215
48.791843 812.24585 61.470215
54.21307 812.24585 61.470215
59.634293 812.24585 61.470215
65.644844 799.4978 86.476807
71.115158 799.4978 86.476807
76.585686 799.4978 86.476807
82.056 799.4978 86.476807
87.526314 799.4978 86.476807
92.996849 799.4978 86.476807
98.467163 799.4978 86.476807
103.93769 799.4978 86.476807
110.42493 786.29431 112.37695
115.9461 786.29431 112.37695
121.46747 786.29431 112.37695
126.98864 786.29431 112.37695
133.73033 773.09094 138.27686
139.30234 773.09094 138.27686
146.24194 759.43225 165.07007
150.44656 773.09094 138.27686
156.01857 773.09094 138.27686
158.64169 799.4978 86.476807
162.63921 812.24585 61.470215
166.53854 824.9939 36.463379
170.396 837.28674 12.349609
174.15857 849.57959 -11.76416
179.43622 849.57959 -11.76416
184.71367 849.57959 -11.76416
189.99112 849.57959 -11.76416
195.26877 849.57959 -11.76416
198.81393 861.41711 -34.984619
204.04601 861.41711 -34.984619
209.27788 861.41711 -34.984619
214.50974 861.41711 -34.984619
221.65645 849.57959 -11.76416
226.93391 849.57959 -11.76416
232.21156 849.57959 -11.76416
237.48901 849.57959 -11.76416
242.76645 849.57959 -11.76416
248.04411 849.57959 -11.76416
253.32158 849.57959 -11.76416
258.59924 849.57959 -11.76416
263.87668 849.57959 -11.76416
273.98282 824.9939 36.463379
-119.22319 740.54761 189.64453
-113.54587 740.54761 189.64453
-106.86916 754.25464 162.87231
-100.29764 767.96179 136.09961
-93.861237 781.21191 110.21973
-88.339973 781.21191 110.21973
-82.818703 781.21191 110.21973
-77.297432 781.21191 110.21973
-71.776169 781.21191 110.21973
-65.644844 794.46216 84.339355
-60.174423 794.46216 84.339355
-54.704002 794.46216 84.339355
-49.233582 794.46216 84.339355
-43.763157 794.46216 84.339355
-38.292843 794.46216 84.339355
-32.822422 794.46216 84.339355
-27.352001 794.46216 84.339355
-21.685207 807.25537 59.352051
-16.26388 807.25537 59.352051
-10.842655 807.25537 59.352051
-5.4213276 807.25537 59.352051
0 807.25537 59.352051
5.4212241 807.25537 59.352051
10.842655 807.25537 59.352051
16.26388 807.25537 59.352051
21.68531 807.25537 59.352051
27.106535 807.25537 59.352051
32.52776 807.25537 59.352051
37.949188 807.25537 59.352051
43.370415 807.25537 59.352051
49.233688 794.46216 84.339355
54.704002 794.46216 84.339355
60.174316 794.46216 84.339355
65.644844 794.46216 84.339355
71.115158 794.46216 84.339355
76.585686 794.46216 84.339355
82.056 794.46216 84.339355
87.526314 794.46216 84.339355
92.996849 794.46216 84.339355
98.467163 794.46216 84.339355
104.90378 781.21191 110.21973
110.42493 781.21191 110.21973
115.9461 781.21191 110.21973
121.46747 781.21191 110.21973
128.15811 767.96179 136.09961
133.73033 767.96179 136.09961
139.30234 767.96179 136.09961
146.24194 754.25464 162.87231
150.44656 767.96179 136.09961
156.01857 767.96179 136.09961
158.64169 794.46216 84.339355
164.112 794.46216 84.339355
166.53854 820.04871 34.364258
170.396 832.38513 10.268799
174.15857 844.72144 -13.826172
179.43622 844.72144 -13.826172
184.71367 844.72144 -13.826172
189.99112 844.72144 -13.826172
195.26877 844.72144 -13.826172
200.54623 844.72144 -13.826172
205.8239 844.72144 -13.826172
211.10133 844.72144 -13.826172
216.37878 844.72144 -13.826172
221.65645 844.72144 -13.826172
226.93391 844.72144 -13.826172
232.21156 844.72144 -13.826172
237.48901 844.72144 -13.826172
244.94411 832.38513 10.268799
250.2691 832.38513 10.268799
255.59389 832.38513 10.268799
260.91888 832.38513 10.268799
268.61069 820.04871 34.364258
276.48657 807.25537 59.352051
-119.22319 735.32166 187.42627
-113.54587 735.32166 187.42627
-106.86916 749.07715 160.67456
-100.29764 762.83276 133.92261
-93.861237 776.12964 108.0625
-88.339973 776.12964 108.0625
-82.818703 776.12964 108.0625
-77.297432 776.12964 108.0625
-71.776169 776.12964 108.0625
-65.644844 789.42676 82.201904
-60.174423 789.42676 82.201904
-54.704002 789.42676 82.201904
-49.233582 789.42676 82.201904
-43.763157 789.42676 82.201904
-38.292843 789.42676 82.201904
-32.822422 789.42676 82.201904
-27.352001 789.42676 82.201904
-21.685207 802.26514 57.233643
-16.26388 802.26514 57.233643
-10.842655 802.26514 57.233643
-5.4213276 802.26514 57.233643
0 802.26514 57.233643
5.4212241 802.26514 57.233643
10.842655 802.26514 57.233643
16.26388 802.26514 57.233643
21.68531 802.26514 57.233643
27.106535 802.26514 57.233643
32.52776 802.26514 57.233643
37.949188 802.26514 57.233643
43.370415 802.26514 57.233643
49.233688 789.42676 82.201904
54.704002 789.42676 82.201904
60.174316 789.42676 82.201904
65.644844 789.42676 82.201904
71.115158 789.42676 82.201904
76.585686 789.42676 82.201904
82.056 789.42676 82.201904
87.526314 789.42676 82.201904
92.996849 789.42676 82.201904
98.467163 789.42676 82.201904
104.90378 776.12964 108.0625
110.42493 776.12964 108.0625
115.9461 776.12964 108.0625
122.58611 762.83276 133.92261
128.15811 762.83276 133.92261
133.73033 762.83276 133.92261
139.30234 762.83276 133.92261
146.24194 749.07715 160.67456
150.44656 762.83276 133.92261
156.01857 762.83276 133.92261
160.11624 776.12964 108.0625
162.63921 802.26514 57.233643
166.53854 815.10364 32.265137
170.396 827.48364 8.1882324
175.72078 827.48364 8.1882324
179.43622 839.86353 -15.888184
184.71367 839.86353 -15.888184
189.99112 839.86353 -15.888184
195.26877 839.86353 -15.888184
200.54623 839.86353 -15.888184
205.8239 839.86353 -15.888184
211.10133 839.86353 -15.888184
216.37878 839.86353 -15.888184
221.65645 839.86353 -15.888184
228.96953 827.48364 8.1882324
232.21156 839.86353 -15.888184
237.48901 839.86353 -15.888184
244.94411 827.48364 8.1882324
250.2691 827.48364 8.1882324
255.59389 827.48364 8.1882324
260.91888 827.48364 8.1882324
266.24368 827.48364 8.1882324
276.48657 802.26514 57.233643
-105.86976 757.70349 131.74536
-100.29764 757.70349 131.74536
-93.861237 771.04724 105.90503
-88.339973 771.04724 105.90503
-82.818703 771.04724 105.90503
-77.297432 771.04724 105.90503
-71.776169 771.04724 105.90503
-66.255005 771.04724 105.90503
-60.174423 784.39111 80.064453
-54.704002 784.39111 80.064453
-49.6912 771.04724 105.90503
-44.16993 771.04724 105.90503
-38.292843 784.39111 80.064453
-32.822422 784.39111 80.064453
-27.352001 784.39111 80.064453
-21.685207 797.27478 55.115479
-16.26388 797.27478 55.115479
-10.842655 797.27478 55.115479
-5.4213276 797.27478 55.115479
0 797.27478 55.115479
5.4212241 797.27478 55.115479
10.842655 797.27478 55.115479
16.26388 797.27478 55.115479
21.68531 797.27478 55.115479
27.106535 797.27478 55.115479
32.52776 797.27478 55.115479
37.949188 797.27478 55.115479
43.370415 797.27478 55.115479
49.233688 784.39111 80.064453
54.704002 784.39111 80.064453
60.174316 784.39111 80.064453
65.644844 784.39111 80.064453
71.115158 784.39111 80.064453
76.585686 784.39111 80.064453
82.056 784.39111 80.064453
87.526314 784.39111 80.064453
92.996849 784.39111 80.064453
98.467163 784.39111 80.064453
104.90378 771.04724 105.90503
110.42493 771.04724 105.90503
115.9461 771.04724 105.90503
122.58611 757.70349 131.74536
128.15811 757.70349 131.74536
133.73033 757.70349 131.74536
140.61734 743.89954 158.47681
146.24194 743.89954 158.47681
150.44656 757.70349 131.74536
154.59486 771.04724 105.90503
158.64169 784.39111 80.064453
162.63921 797.27478 55.115479
166.53854 810.15845 30.166016
170.396 822.58203 6.107666
174.15857 835.00549 -17.950439
179.43622 835.00549 -17.950439
184.71367 835.00549 -17.950439
189.99112 835.00549 -17.950439
195.26877 835.00549 -17.950439
200.54623 835.00549 -17.950439
205.8239 835.00549 -17.950439
211.10133 835.00549 -17.950439
216.37878 835.00549 -17.950439
221.65645 835.00549 -17.950439
228.96953 822.58203 6.107666
234.29451 822.58203 6.107666
239.61931 822.58203 6.107666
244.94411 822.58203 6.107666
250.2691 822.58203 6.107666
255.59389 822.58203 6.107666
260.91888 822.58203 6.107666
266.24368 822.58203 6.107666
276.48657 797.27478 55.115479
-105.86976 752.57446 129.56812
-100.29764 752.57446 129.56812
-93.861237 765.96497 103.7478
-88.339973 765.96497 103.7478
-82.818703 765.96497 103.7478
-77.297432 765.96497 103.7478
-71.776169 765.96497 103.7478
-66.255005 765.96497 103.7478
-60.174423 779.35571 77.927002
-54.704002 779.35571 77.927002
-49.6912 765.96497 103.7478
-44.16993 765.96497 103.7478
-38.292843 779.35571 77.927002
-32.822422 779.35571 77.927002
-27.352001 779.35571 77.927002
-21.685207 792.28455 52.99707
-16.26388 792.28455 52.99707
-10.842655 792.28455 52.99707
-5.4213276 792.28455 52.99707
0 792.28455 52.99707
5.4212241 792.28455 52.99707
10.842655 792.28455 52.99707
16.26388 792.28455 52.99707
21.68531 792.28455 52.99707
27.106535 792.28455 52.99707
32.52776 792.28455 52.99707
37.949188 792.28455 52.99707
43.370415 792.28455 52.99707
49.233688 779.35571 77.927002
54.704002 779.35571 77.927002
60.174316 779.35571 77.927002
65.644844 779.35571 77.927002
71.115158 779.35571 77.927002
76.585686 779.35571 77.927002
82.056 779.35571 77.927002
87.526314 779.35571 77.927002
92.996849 779.35571 77.927002
98.467163 779.35571 77.927002
104.90378 765.96497 103.7478
110.42493 765.96497 103.7478
117.01388 752.57446 129.56812
122.58611 752.57446 129.56812
128.15811 752.57446 129.56812
133.73033 752.57446 129.56812
140.61734 738.72205 156.27905
146.24194 738.72205 156.27905
150.44656 752.57446 129.56812
154.59486 765.96497 103.7478
158.64169 779.35571 77.927002
161.16641 805.21338 28.067139
165.071 817.68054 4.0270996
170.396 817.68054 4.0270996
174.15857 830.14758 -20.012451
179.43622 830.14758 -20.012451
184.71367 830.14758 -20.012451
189.99112 830.14758 -20.012451
195.26877 830.14758 -20.012451
200.54623 830.14758 -20.012451
205.8239 830.14758 -20.012451
211.10133 830.14758 -20.012451
216.37878 830.14758 -20.012451
221.65645 830.14758 -20.012451
228.96953 817.68054 4.0270996
234.29451 817.68054 4.0270996
239.61931 817.68054 4.0270996
244.94411 817.68054 4.0270996
250.2691 817.68054 4.0270996
255.59389 817.68054 4.0270996
260.91888 817.68054 4.0270996
268.61069 805.21338 28.067139
276.48657 792.28455 52.99707
-100.29764 747.44519 127.39087
-94.725632 747.44519 127.39087
-89.153519 747.44519 127.39087
-82.818703 760.88257 101.59033
-77.297432 760.88257 101.59033
-71.776169 760.88257 101.59033
-66.255005 760.88257 101.59033
-60.174423 774.32007 75.789551
-54.704002 774.32007 75.789551
-49.6912 760.88257 101.59033
-44.16993 760.88257 101.59033
-38.648773 760.88257 101.59033
-33.127502 760.88257 101.59033
-27.352001 774.32007 75.789551
-21.685207 787.29407 50.878906
-16.26388 787.29407 50.878906
-10.842655 787.29407 50.878906
-5.4213276 787.29407 50.878906
0 787.29407 50.878906
5.4212241 787.29407 50.878906
10.842655 787.29407 50.878906
16.26388 787.29407 50.878906
21.68531 787.29407 50.878906
27.106535 787.29407 50.878906
32.52776 787.29407 50.878906
37.949188 787.29407 50.878906
43.370415 787.29407 50.878906
49.233688 774.32007 75.789551
54.704002 774.32007 75.789551
60.174316 774.32007 75.789551
65.644844 774.32007 75.789551
71.115158 774.32007 75.789551
76.585686 774.32007 75.789551
82.056 774.32007 75.789551
87.526314 774.32007 75.789551
92.996849 774.32007 75.789551
99.382401 760.88257 101.59033
104.90378 760.88257 101.59033
110.42493 760.88257 101.59033
117.01388 747.44519 127.39087
122.58611 747.44519 127.39087
128.15811 747.44519 127.39087
134.99274 733.54443 154.0813
140.61734 733.54443 154.0813
146.24194 733.54443 154.0813
150.44656 747.44519 127.39087
154.59486 760.88257 101.59033
160.11624 760.88257 101.59033
161.16641 800.26807 25.968018
165.071 812.77893 1.9465332
170.396 812.77893 1.9465332
174.15857 825.28955 -22.074707
179.43622 825.28955 -22.074707
184.71367 825.28955 -22.074707
189.99112 825.28955 -22.074707
195.26877 825.28955 -22.074707
200.54623 825.28955 -22.074707
205.8239 825.28955 -22.074707
211.10133 825.28955 -22.074707
216.37878 825.28955 -22.074707
221.65645 825.28955 -22.074707
228.96953 812.77893 1.9465332
234.29451 812.77893 1.9465332
239.61931 812.77893 1.9465332
244.94411 812.77893 1.9465332
250.2691 812.77893 1.9465332
255.59389 812.77893 1.9465332
263.23856 800.26807 25.968018
268.61069 800.26807 25.968018
276.48657 787.29407 50.878906
-100.29764 742.31604 125.21362
-94.725632 742.31604 125.21362
-89.153519 742.31604 125.21362
-82.818703 755.80017 99.433105
-77.297432 755.80017 99.433105
-71.776169 755.80017 99.433105
-66.255005 755.80017 99.433105
-60.174423 769.28455 73.6521
-54.704002 769.28455 73.6521
-49.233582 769.28455 73.6521
-44.16993 755.80017 99.433105
-38.648773 755.80017 99.433105
-33.127502 755.80017 99.433105
-27.352001 769.28455 73.6521
-21.685207 782.30371 48.760498
-16.26388 782.30371 48.760498
-10.842655 782.30371 48.760498
-5.4213276 782.30371 48.760498
0 782.30371 48.760498
5.4212241 782.30371 48.760498
10.842655 782.30371 48.760498
16.26388 782.30371 48.760498
21.68531 782.30371 48.760498
27.106535 782.30371 48.760498
32.52776 782.30371 48.760498
37.949188 782.30371 48.760498
43.370415 782.30371 48.760498
49.233688 769.28455 73.6521
54.704002 769.28455 73.6521
60.174316 769.28455 73.6521
65.644844 769.28455 73.6521
71.115158 769.28455 73.6521
76.585686 769.28455 73.6521
82.056 769.28455 73.6521
87.526314 769.28455 73.6521
92.996849 769.28455 73.6521
99.382401 755.80017 99.433105
104.90378 755.80017 99.433105
111.44187 742.31604 125.21362
117.01388 742.31604 125.21362
123.7433 728.36682 151.88354
129.3679 728.36682 151.88354
134.99274 728.36682 151.88354
140.61734 728.36682 151.88354
146.24194 728.36682 151.88354
151.86678 728.36682 151.88354
157.49138 728.36682 151.88354
154.42142 807.8772 -0.1340332
159.7462 807.8772 -0.1340332
165.071 807.8772 -0.1340332
170.396 807.8772 -0.1340332
174.15857 820.43152 -24.136719
179.43622 820.43152 -24.136719
184.71367 820.43152 -24.136719
189.99112 820.43152 -24.136719
195.26877 820.43152 -24.136719
200.54623 820.43152 -24.136719
205.8239 820.43152 -24.136719
211.10133 820.43152 -24.136719
216.37878 820.43152 -24.136719
223.64473 807.8772 -0.1340332
228.96953 807.8772 -0.1340332
234.29451 807.8772 -0.1340332
239.61931 807.8772 -0.1340332
244.94411 807.8772 -0.1340332
250.2691 807.8772 -0.1340332
257.86621 795.32288 23.868896
263.23856 795.32288 23.868896
271.06534 782.30371 48.760498
276.48657 782.30371 48.760498
-100.29764 737.18689 123.03662
-94.725632 737.18689 123.03662
-89.153519 737.18689 123.03662
-82.818703 750.7179 97.275635
-77.297432 750.7179 97.275635
-71.776169 750.7179 97.275635
-66.255005 750.7179 97.275635
-60.174423 764.24902 71.514648
-54.704002 764.24902 71.514648
-49.233582 764.24902 71.514648
-43.763157 764.24902 71.514648
-38.292843 764.24902 71.514648
-33.127502 750.7179 97.275635
-27.606234 750.7179 97.275635
-21.685207 777.31348 46.642334
-16.26388 777.31348 46.642334
-10.842655 777.31348 46.642334
-5.4213276 777.31348 46.642334
0 777.31348 46.642334
5.4212241 777.31348 46.642334
10.842655 777.31348 46.642334
16.26388 777.31348 46.642334
21.68531 777.31348 46.642334
27.106535 777.31348 46.642334
32.52776 777.31348 46.642334
37.949188 777.31348 46.642334
43.763157 764.24902 71.514648
49.233688 764.24902 71.514648
54.704002 764.24902 71.514648
60.174316 764.24902 71.514648
65.644844 764.24902 71.514648
71.115158 764.24902 71.514648
76.585686 764.24902 71.514648
82.056 764.24902 71.514648
87.526314 764.24902 71.514648
92.996849 764.24902 71.514648
99.382401 750.7179 97.275635
105.86987 737.18689 123.03662
111.44187 737.18689 123.03662
118.11848 723.18933 149.68579
123.7433 723.18933 149.68579
129.3679 723.18933 149.68579
134.99274 723.18933 149.68579
140.61734 723.18933 149.68579
146.24194 723.18933 149.68579
151.86678 723.18933 149.68579
157.49138 723.18933 149.68579
154.42142 802.97571 -2.2145996
159.7462 802.97571 -2.2145996
163.60345 815.57349 -26.19873
168.8811 815.57349 -26.19873
174.15857 815.57349 -26.19873
179.43622 815.57349 -26.19873
184.71367 815.57349 -26.19873
189.99112 815.57349 -26.19873
195.26877 815.57349 -26.19873
200.54623 815.57349 -26.19873
205.8239 815.57349 -26.19873
211.10133 815.57349 -26.19873
216.37878 815.57349 -26.19873
223.64473 802.97571 -2.2145996
228.96953 802.97571 -2.2145996
234.29451 802.97571 -2.2145996
239.61931 802.97571 -2.2145996
244.94411 802.97571 -2.2145996
250.2691 802.97571 -2.2145996
257.86621 790.37781 21.769775
260.91888 802.97571 -2.2145996
266.24368 802.97571 -2.2145996
276.48657 777.31348 46.642334
-106.86916 718.01172 147.48804
-100.29764 732.05774 120.85938
-94.725632 732.05774 120.85938
-89.153519 732.05774 120.85938
-82.818703 745.6355 95.118408
-77.297432 745.6355 95.118408
-71.776169 745.6355 95.118408
-66.255005 745.6355 95.118408
-60.174423 759.2135 69.377197
-54.704002 759.2135 69.377197
-49.233582 759.2135 69.377197
-43.763157 759.2135 69.377197
-38.292843 759.2135 69.377197
-33.127502 745.6355 95.118408
-27.352001 759.2135 69.377197
-21.685207 772.323 44.523926
-16.26388 772.323 44.523926
-10.842655 772.323 44.523926
-5.4213276 772.323 44.523926
0 772.323 44.523926
5.4212241 772.323 44.523926
10.842655 772.323 44.523926
16.26388 772.323 44.523926
21.68531 772.323 44.523926
27.106535 772.323 44.523926
32.52776 772.323 44.523926
37.949188 772.323 44.523926
43.763157 759.2135 69.377197
49.233688 759.2135 69.377197
54.704002 759.2135 69.377197
60.174316 759.2135 69.377197
65.644844 759.2135 69.377197
71.115158 759.2135 69.377197
76.585686 759.2135 69.377197
82.056 759.2135 69.377197
87.526314 759.2135 69.377197
93.861237 745.6355 95.118408
99.382401 745.6355 95.118408
105.86987 732.05774 120.85938
111.44187 732.05774 120.85938
118.11848 718.01172 147.48804
123.7433 718.01172 147.48804
129.3679 718.01172 147.48804
134.99274 718.01172 147.48804
141.93234 703.9657 174.11646
147.60954 703.9657 174.11646
153.28697 703.9657 174.11646
154.42142 798.0741 -4.295166
159.7462 798.0741 -4.295166
163.60345 810.71545 -28.260986
168.8811 810.71545 -28.260986
174.15857 810.71545 -28.260986
179.43622 810.71545 -28.260986
184.71367 810.71545 -28.260986
189.99112 810.71545 -28.260986
195.26877 810.71545 -28.260986
200.54623 810.71545 -28.260986
205.8239 810.71545 -28.260986
211.10133 810.71545 -28.260986
216.37878 810.71545 -28.260986
221.65645 810.71545 -28.260986
226.93391 810.71545 -28.260986
232.21156 810.71545 -28.260986
237.48901 810.71545 -28.260986
244.94411 798.0741 -4.295166
250.2691 798.0741 -4.295166
257.86621 785.43262 19.670654
260.91888 798.0741 -4.295166
266.24368 798.0741 -4.295166
-112.49387 712.83423 145.29028
-105.86976 726.92871 118.68213
-100.29764 726.92871 118.68213
-94.725632 726.92871 118.68213
-88.339973 740.55322 92.961182
-82.818703 740.55322 92.961182
-77.297432 740.55322 92.961182
-71.776169 740.55322 92.961182
-66.255005 740.55322 92.961182
-60.174423 754.17798 67.239746
-54.704002 754.17798 67.239746
-49.233582 754.17798 67.239746
-43.763157 754.17798 67.239746
-38.292843 754.17798 67.239746
-33.127502 740.55322 92.961182
-27.352001 754.17798 67.239746
-21.685207 767.33276 42.405762
-16.26388 767.33276 42.405762
-10.842655 767.33276 42.405762
-5.4213276 767.33276 42.405762
0 767.33276 42.405762
5.4212241 767.33276 42.405762
10.842655 767.33276 42.405762
16.26388 767.33276 42.405762
21.68531 767.33276 42.405762
27.106535 767.33276 42.405762
32.822319 754.17798 67.239746
38.292843 754.17798 67.239746
43.763157 754.17798 67.239746
49.233688 754.17798 67.239746
54.704002 754.17798 67.239746
60.174316 754.17798 67.239746
65.644844 754.17798 67.239746
71.115158 754.17798 67.239746
76.585686 754.17798 67.239746
82.056 754.17798 67.239746
87.526314 754.17798 67.239746
93.861237 740.55322 92.961182
100.29764 726.92871 118.68213
105.86987 726.92871 118.68213
112.49387 712.83423 145.29028
118.11848 712.83423 145.29028
123.7433 712.83423 145.29028
130.57771 698.73975 171.89819
136.25513 698.73975 171.89819
141.93234 698.73975 171.89819
147.60954 698.73975 171.89819
149.09642 793.17261 -6.3759766
154.42142 793.17261 -6.3759766
159.7462 793.17261 -6.3759766
165.071 793.17261 -6.3759766
170.396 793.17261 -6.3759766
175.72078 793.17261 -6.3759766
179.43622 805.85754 -30.322998
184.71367 805.85754 -30.322998
189.99112 805.85754 -30.322998
195.26877 805.85754 -30.322998
200.54623 805.85754 -30.322998
205.8239 805.85754 -30.322998
211.10133 805.85754 -30.322998
216.37878 805.85754 -30.322998
221.65645 805.85754 -30.322998
226.93391 805.85754 -30.322998
232.21156 805.85754 -30.322998
237.48901 805.85754 -30.322998
244.94411 793.17261 -6.3759766
250.2691 793.17261 -6.3759766
257.86621 780.48755 17.571533
263.23856 780.48755 17.571533
271.06534 767.33276 42.405762
-112.49387 707.65662 143.09253
-105.86976 721.79944 116.50488
-100.29764 721.79944 116.50488
-93.861237 735.47083 90.803711
-88.339973 735.47083 90.803711
-82.818703 735.47083 90.803711
-77.297432 735.47083 90.803711
-71.776169 735.47083 90.803711
-66.255005 735.47083 90.803711
-60.174423 749.14246 65.102295
-54.704002 749.14246 65.102295
-49.233582 749.14246 65.102295
-43.763157 749.14246 65.102295
-38.292843 749.14246 65.102295
-32.822422 749.14246 65.102295
-27.352001 749.14246 65.102295
-21.685207 762.34241 40.287598
-16.26388 762.34241 40.287598
-10.940842 749.14246 65.102295
-5.4213276 762.34241 40.287598
0 762.34241 40.287598
5.4212241 762.34241 40.287598
10.842655 762.34241 40.287598
16.26388 762.34241 40.287598
21.68531 762.34241 40.287598
27.106535 762.34241 40.287598
32.822319 749.14246 65.102295
38.292843 749.14246 65.102295
43.763157 749.14246 65.102295
49.233688 749.14246 65.102295
54.704002 749.14246 65.102295
60.174316 749.14246 65.102295
65.644844 749.14246 65.102295
71.115158 749.14246 65.102295
76.585686 749.14246 65.102295
82.056 749.14246 65.102295
87.526314 749.14246 65.102295
94.725632 721.79944 116.50488
100.29764 721.79944 116.50488
106.86926 707.65662 143.09253
112.49387 707.65662 143.09253
119.22308 693.51379 169.67993
124.90051 693.51379 169.67993
130.57771 693.51379 169.67993
136.25513 693.51379 169.67993
143.29117 678.89941 197.15381
154.42142 788.271 -8.456543
159.7462 788.271 -8.456543
165.071 788.271 -8.456543
170.396 788.271 -8.456543
175.72078 788.271 -8.456543
181.04578 788.271 -8.456543
184.71367 800.99951 -32.38501
189.99112 800.99951 -32.38501
197.02036 788.271 -8.456543
202.34515 788.271 -8.456543
205.8239 800.99951 -32.38501
211.10133 800.99951 -32.38501
216.37878 800.99951 -32.38501
221.65645 800.99951 -32.38501
226.93391 800.99951 -32.38501
232.21156 800.99951 -32.38501
237.48901 800.99951 -32.38501
244.94411 788.271 -8.456543
250.2691 788.271 -8.456543
257.86621 775.54236 15.472412
263.23856 775.54236 15.472412
273.52002 749.14246 65.102295
278.99033 749.14246 65.102295
-111.44187 716.67041 114.32788
-105.86976 716.67041 114.32788
-100.29764 716.67041 114.32788
-93.861237 730.38867 88.646484
-88.339973 730.38867 88.646484
-82.818703 730.38867 88.646484
-77.297432 730.38867 88.646484
-71.776169 730.38867 88.646484
-66.255005 730.38867 88.646484
-60.733734 730.38867 88.646484
-54.704002 744.10693 62.964844
-49.233582 744.10693 62.964844
-43.763157 744.10693 62.964844
-38.292843 744.10693 62.964844
-32.822422 744.10693 62.964844
-27.352001 744.10693 62.964844
-21.685207 757.35205 38.169189
-16.26388 757.35205 38.169189
-10.940842 744.10693 62.964844
-5.4704208 744.10693 62.964844
0 757.35205 38.169189
5.4212241 757.35205 38.169189
10.842655 757.35205 38.169189
16.26388 757.35205 38.169189
21.68531 757.35205 38.169189
27.106535 757.35205 38.169189
32.822319 744.10693 62.964844
38.292843 744.10693 62.964844
43.763157 744.10693 62.964844
49.233688 744.10693 62.964844
54.704002 744.10693 62.964844
60.174316 744.10693 62.964844
65.644844 744.10693 62.964844
71.776169 730.38867 88.646484
77.297546 730.38867 88.646484
82.818703 730.38867 88.646484
89.153404 716.67041 114.32788
94.725632 716.67041 114.32788
101.24444 702.47913 140.89478
106.86926 702.47913 140.89478
112.49387 702.47913 140.89478
119.22308 688.28784 167.46167
124.90051 688.28784 167.46167
131.82784 673.62354 194.91431
137.55962 673.62354 194.91431
154.94899 612.12793 310.03784
149.09642 783.36951 -10.537109
154.42142 783.36951 -10.537109
159.7462 783.36951 -10.537109
165.071 783.36951 -10.537109
170.396 783.36951 -10.537109
175.72078 783.36951 -10.537109
181.04578 783.36951 -10.537109
186.37057 783.36951 -10.537109
191.69536 783.36951 -10.537109
197.02036 783.36951 -10.537109
202.34515 783.36951 -10.537109
205.8239 796.1416 -34.447266
211.10133 796.1416 -34.447266
216.37878 796.1416 -34.447266
221.65645 796.1416 -34.447266
226.93391 796.1416 -34.447266
232.21156 796.1416 -34.447266
237.48901 796.1416 -34.447266
244.94411 783.36951 -10.537109
250.2691 783.36951 -10.537109
257.86621 770.59729 13.373291
265.6441 757.35205 38.169189
271.06534 757.35205 38.169189
-111.44187 711.54126 112.15063
-105.86976 711.54126 112.15063
-100.29764 711.54126 112.15063
-93.861237 725.30615 86.489014
-88.339973 725.30615 86.489014
-82.818703 725.30615 86.489014
-77.297432 725.30615 86.489014
-71.776169 725.30615 86.489014
-66.255005 725.30615 86.489014
-60.733734 725.30615 86.489014
-54.704002 739.07129 60.827393
-49.233582 739.07129 60.827393
-43.763157 739.07129 60.827393
-38.292843 739.07129 60.827393
-32.822422 739.07129 60.827393
-27.352001 739.07129 60.827393
-21.685207 752.36169 36.051025
-16.26388 752.36169 36.051025
-10.940842 739.07129 60.827393
-5.4704208 739.07129 60.827393
0 752.36169 36.051025
5.4212241 752.36169 36.051025
10.842655 752.36169 36.051025
16.26388 752.36169 36.051025
21.68531 752.36169 36.051025
27.352001 739.07129 60.827393
32.822319 739.07129 60.827393
38.292843 739.07129 60.827393
43.763157 739.07129 60.827393
49.233688 739.07129 60.827393
54.704002 739.07129 60.827393
60.174316 739.07129 60.827393
66.255005 725.30615 86.489014
71.776169 725.30615 86.489014
77.297546 725.30615 86.489014
83.581406 711.54126 112.15063
89.153404 711.54126 112.15063
94.725632 711.54126 112.15063
101.24444 697.30151 138.69702
106.86926 697.30151 138.69702
113.54587 683.06177 165.24341
119.22308 683.06177 165.24341
126.09628 668.34741 192.67456
131.82784 668.34741 192.67456
140.25273 637.96936 249.30713
148.9895 606.64209 307.70923
154.42142 778.46777 -12.617676
159.7462 778.46777 -12.617676
165.071 778.46777 -12.617676
170.396 778.46777 -12.617676
175.72078 778.46777 -12.617676
181.04578 778.46777 -12.617676
186.37057 778.46777 -12.617676
191.69536 778.46777 -12.617676
