ply
format ascii 1.0
comment PCL generated
element vertex 1577
property float x
property float y
property float z
element camera 0
property float view_px
property float view_py
property float view_pz
property float x_axisx
property float x_axisy
property float x_axisz
property float y_axisx
property float y_axisy
property float y_axisz
property float z_axisx
property float z_axisy
property float z_axisz
property float focal
property float scalex
property float scaley
property float centerx
property float centery
property int viewportx
property int viewporty
property float k1
property float k2
end_header
48.791843 907.06226 101.71753
54.21307 907.06226 101.71753
59.634293 907.06226 101.71753
65.055725 907.06226 101.71753
70.476952 907.06226 101.71753
75.898376 907.06226 101.71753
81.319603 907.06226 101.71753
86.740829 907.06226 101.71753
92.162254 907.06226 101.71753
97.583481 907.06226 101.71753
103.00491 907.06226 101.71753
108.42614 907.06226 101.71753
113.84736 907.06226 101.71753
119.26879 907.06226 101.71753
124.69002 907.06226 101.71753
130.11145 907.06226 101.71753
135.53267 907.06226 101.71753
140.9539 907.06226 101.71753
146.37532 907.06226 101.71753
153.17117 895.17285 127.08862
158.64169 895.17285 127.08862
164.112 895.17285 127.08862
169.58232 895.17285 127.08862
175.05284 895.17285 127.08862
180.52318 895.17285 127.08862
185.9937 895.17285 127.08862
191.464 895.17285 127.08862
196.93433 895.17285 127.08862
204.28618 882.85864 153.36621
209.80733 882.85864 153.36621
217.31174 870.54456 179.64355
222.88374 870.54456 179.64355
228.45575 870.54456 179.64355
234.02797 870.54456 179.64355
367.75809 870.54456 179.64355
373.33029 870.54456 179.64355
378.90234 870.54456 179.64355
384.47455 870.54456 179.64355
390.04654 870.54456 179.64355
395.61856 870.54456 179.64355
401.19077 870.54456 179.64355
406.76279 870.54456 179.64355
412.33502 870.54456 179.64355
417.90701 870.54456 179.64355
427.47662 857.80591 206.82715
433.10144 857.80591 206.82715
438.72607 857.80591 206.82715
444.35089 857.80591 206.82715
449.97549 857.80591 206.82715
455.6001 857.80591 206.82715
461.22488 857.80591 206.82715
-414.09351 877.77625 151.20874
-408.57227 877.77625 151.20874
-403.05096 877.77625 151.20874
-393.86884 890.13721 124.95117
-388.39844 890.13721 124.95117
-382.92801 890.13721 124.95117
-380.96603 877.77625 151.20874
-371.98718 890.13721 124.95117
-366.51685 890.13721 124.95117
-364.40231 877.77625 151.20874
-358.88104 877.77625 151.20874
-353.3598 877.77625 151.20874
-347.8385 877.77625 151.20874
-342.31735 877.77625 151.20874
-336.79605 877.77625 151.20874
-331.27481 877.77625 151.20874
-325.75357 877.77625 151.20874
-320.23227 877.77625 151.20874
-314.71112 877.77625 151.20874
-182.2011 877.77625 151.20874
-175.05284 890.13721 124.95117
-169.58243 890.13721 124.95117
-164.112 890.13721 124.95117
-157.21788 902.0719 99.599121
-149.09642 925.51501 49.800049
-143.77162 925.51501 49.800049
-138.44673 925.51501 49.800049
-133.12184 925.51501 49.800049
-127.79694 925.51501 49.800049
-123.56087 914.00647 74.24707
-118.18874 914.00647 74.24707
-113.84747 902.0719 99.599121
-108.42614 902.0719 99.599121
-103.00481 902.0719 99.599121
-98.467163 890.13721 124.95117
-92.996849 890.13721 124.95117
-86.740929 902.0719 99.599121
-81.319603 902.0719 99.599121
-75.898277 902.0719 99.599121
-70.476952 902.0719 99.599121
-65.055725 902.0719 99.599121
-59.634396 902.0719 99.599121
-54.21307 902.0719 99.599121
-48.79174 902.0719 99.599121
-43.370415 902.0719 99.599121
-37.949188 902.0719 99.599121
-32.527863 902.0719 99.599121
-27.106535 902.0719 99.599121
-21.488834 914.00647 74.24707
-16.116598 914.00647 74.24707
-10.744469 914.00647 74.24707
-5.324894 925.51501 49.800049
0 925.51501 49.800049
5.3721313 914.00647 74.24707
10.744469 914.00647 74.24707
16.116598 914.00647 74.24707
21.488937 914.00647 74.24707
26.861067 914.00647 74.24707
32.233196 914.00647 74.24707
37.605534 914.00647 74.24707
43.370415 902.0719 99.599121
48.791843 902.0719 99.599121
54.21307 902.0719 99.599121
59.634293 902.0719 99.599121
65.055725 902.0719 99.599121
70.476952 902.0719 99.599121
75.898376 902.0719 99.599121
81.319603 902.0719 99.599121
86.740829 902.0719 99.599121
92.162254 902.0719 99.599121
97.583481 902.0719 99.599121
103.00491 902.0719 99.599121
108.42614 902.0719 99.599121
113.84736 902.0719 99.599121
119.26879 902.0719 99.599121
124.69002 902.0719 99.599121
131.28969 890.13721 124.95117
135.53267 902.0719 99.599121
140.9539 902.0719 99.599121
147.70084 890.13721 124.95117
153.17117 890.13721 124.95117
158.64169 890.13721 124.95117
164.112 890.13721 124.95117
169.58232 890.13721 124.95117
175.05284 890.13721 124.95117
180.52318 890.13721 124.95117
185.9937 890.13721 124.95117
191.464 890.13721 124.95117
196.93433 890.13721 124.95117
204.28618 877.77625 151.20874
211.73952 865.41541 177.46631
217.31174 865.41541 177.46631
222.88374 865.41541 177.46631
228.45575 865.41541 177.46631
234.02797 865.41541 177.46631
371.22968 852.62817 204.62939
373.33029 865.41541 177.46631
378.90234 865.41541 177.46631
384.47455 865.41541 177.46631
390.04654 865.41541 177.46631
395.61856 865.41541 177.46631
401.19077 865.41541 177.46631
406.76279 865.41541 177.46631
412.33502 865.41541 177.46631
417.90701 865.41541 177.46631
423.47903 865.41541 177.46631
433.10144 852.62817 204.62939
438.72607 852.62817 204.62939
444.35089 852.62817 204.62939
449.97549 852.62817 204.62939
455.6001 852.62817 204.62939
461.22488 852.62817 204.62939
-410.28003 885.10181 122.81372
-404.80957 885.10181 122.81372
-399.33917 885.10181 122.81372
-393.86884 885.10181 122.81372
-388.39844 885.10181 122.81372
-382.92801 885.10181 122.81372
-377.45758 885.10181 122.81372
-371.98718 885.10181 122.81372
-366.51685 885.10181 122.81372
-364.40231 872.69397 149.05151
-358.88104 872.69397 149.05151
-353.3598 872.69397 149.05151
-347.8385 872.69397 149.05151
-342.31735 872.69397 149.05151
-336.79605 872.69397 149.05151
-331.27481 872.69397 149.05151
-325.75357 872.69397 149.05151
-320.23227 872.69397 149.05151
-314.71112 872.69397 149.05151
-182.2011 872.69397 149.05151
-175.05284 885.10181 122.81372
-169.58243 885.10181 122.81372
-164.112 885.10181 122.81372
-157.21788 897.08167 97.480957
-149.09642 920.61353 47.719482
-143.77162 920.61353 47.719482
-138.44673 920.61353 47.719482
-133.12184 920.61353 47.719482
-127.79694 920.61353 47.719482
-123.56087 909.0614 72.147949
-118.18874 909.0614 72.147949
-113.84747 897.08167 97.480957
-108.42614 897.08167 97.480957
-103.00481 897.08167 97.480957
-98.467163 885.10181 122.81372
-92.996849 885.10181 122.81372
-87.526421 885.10181 122.81372
-82.056 885.10181 122.81372
-76.585587 885.10181 122.81372
-70.476952 897.08167 97.480957
-65.055725 897.08167 97.480957
-59.634396 897.08167 97.480957
-54.21307 897.08167 97.480957
-48.79174 897.08167 97.480957
-43.370415 897.08167 97.480957
-37.949188 897.08167 97.480957
-32.527863 897.08167 97.480957
-27.106535 897.08167 97.480957
-21.488834 909.0614 72.147949
-16.116598 909.0614 72.147949
-10.744469 909.0614 72.147949
-5.324894 920.61353 47.719482
0 920.61353 47.719482
5.3721313 909.0614 72.147949
10.744469 909.0614 72.147949
16.116598 909.0614 72.147949
21.488937 909.0614 72.147949
26.861067 909.0614 72.147949
32.233196 909.0614 72.147949
37.605534 909.0614 72.147949
43.370415 897.08167 97.480957
48.791843 897.08167 97.480957
54.21307 897.08167 97.480957
59.634293 897.08167 97.480957
65.055725 897.08167 97.480957
70.476952 897.08167 97.480957
75.898376 897.08167 97.480957
81.319603 897.08167 97.480957
86.740829 897.08167 97.480957
92.162254 897.08167 97.480957
97.583481 897.08167 97.480957
103.00491 897.08167 97.480957
108.42614 897.08167 97.480957
113.84736 897.08167 97.480957
119.26879 897.08167 97.480957
124.69002 897.08167 97.480957
131.28969 885.10181 122.81372
136.76001 885.10181 122.81372
142.23032 885.10181 122.81372
147.70084 885.10181 122.81372
153.17117 885.10181 122.81372
158.64169 885.10181 122.81372
164.112 885.10181 122.81372
169.58232 885.10181 122.81372
175.05284 885.10181 122.81372
180.52318 885.10181 122.81372
185.9937 885.10181 122.81372
191.464 885.10181 122.81372
198.7648 872.69397 149.05151
206.16751 860.28638 175.28906
211.73952 860.28638 175.28906
217.31174 860.28638 175.28906
224.98775 847.45081 202.43164
230.61235 847.45081 202.43164
373.33029 860.28638 175.28906
378.90234 860.28638 175.28906
384.47455 860.28638 175.28906
390.04654 860.28638 175.28906
395.61856 860.28638 175.28906
401.19077 860.28638 175.28906
406.76279 860.28638 175.28906
412.33502 860.28638 175.28906
417.90701 860.28638 175.28906
423.47903 860.28638 175.28906
433.10144 847.45081 202.43164
434.62326 860.28638 175.28906
440.19547 860.28638 175.28906
449.97549 847.45081 202.43164
455.6001 847.45081 202.43164
461.22488 847.45081 202.43164
-421.22086 880.06616 120.67627
-415.75046 880.06616 120.67627
-410.28003 880.06616 120.67627
-404.80957 880.06616 120.67627
-399.33917 880.06616 120.67627
-393.86884 880.06616 120.67627
-388.39844 880.06616 120.67627
-382.92801 880.06616 120.67627
-377.45758 880.06616 120.67627
-371.98718 880.06616 120.67627
-366.51685 880.06616 120.67627
-364.40231 867.61157 146.89404
-358.88104 867.61157 146.89404
-353.3598 867.61157 146.89404
-347.8385 867.61157 146.89404
-342.31735 867.61157 146.89404
-336.79605 867.61157 146.89404
-331.27481 867.61157 146.89404
-328.75351 855.1571 173.11182
-323.1814 855.1571 173.11182
-187.72237 867.61157 146.89404
-182.2011 867.61157 146.89404
-175.05284 880.06616 120.67627
-169.58243 880.06616 120.67627
-162.63921 892.09119 95.362549
-157.21788 892.09119 95.362549
-150.42194 904.11621 70.048828
-143.77162 915.71191 45.638916
-138.44673 915.71191 45.638916
-133.12184 915.71191 45.638916
-128.93311 904.11621 70.048828
-123.56087 904.11621 70.048828
-119.26879 892.09119 95.362549
-113.84747 892.09119 95.362549
-108.42614 892.09119 95.362549
-103.93758 880.06616 120.67627
-98.467163 880.06616 120.67627
-92.996849 880.06616 120.67627
-87.526421 880.06616 120.67627
-82.056 880.06616 120.67627
-76.585587 880.06616 120.67627
-71.115158 880.06616 120.67627
-65.055725 892.09119 95.362549
-59.634396 892.09119 95.362549
-54.21307 892.09119 95.362549
-48.79174 892.09119 95.362549
-43.763157 880.06616 120.67627
-38.292843 880.06616 120.67627
-32.822422 880.06616 120.67627
-27.106535 892.09119 95.362549
-21.488834 904.11621 70.048828
-16.116598 904.11621 70.048828
-10.744469 904.11621 70.048828
-5.3722343 904.11621 70.048828
0 904.11621 70.048828
5.3721313 904.11621 70.048828
10.744469 904.11621 70.048828
16.116598 904.11621 70.048828
21.488937 904.11621 70.048828
26.861067 904.11621 70.048828
32.233196 904.11621 70.048828
37.605534 904.11621 70.048828
42.977669 904.11621 70.048828
48.350006 904.11621 70.048828
53.722134 904.11621 70.048828
59.634293 892.09119 95.362549
65.055725 892.09119 95.362549
70.476952 892.09119 95.362549
75.898376 892.09119 95.362549
81.319603 892.09119 95.362549
86.740829 892.09119 95.362549
92.162254 892.09119 95.362549
97.583481 892.09119 95.362549
103.00491 892.09119 95.362549
109.408 880.06616 120.67627
114.87832 880.06616 120.67627
120.34885 880.06616 120.67627
125.81916 880.06616 120.67627
131.28969 880.06616 120.67627
136.76001 880.06616 120.67627
142.23032 880.06616 120.67627
147.70084 880.06616 120.67627
153.17117 880.06616 120.67627
158.64169 880.06616 120.67627
164.112 880.06616 120.67627
169.58232 880.06616 120.67627
175.05284 880.06616 120.67627
180.52318 880.06616 120.67627
185.9937 880.06616 120.67627
191.464 880.06616 120.67627
196.93433 880.06616 120.67627
206.16751 855.1571 173.11182
211.73952 855.1571 173.11182
217.31174 855.1571 173.11182
224.98775 842.27319 200.23389
232.76895 829.38916 227.35571
382.47913 842.27319 200.23389
384.47455 855.1571 173.11182
390.04654 855.1571 173.11182
399.35315 842.27319 200.23389
401.19077 855.1571 173.11182
406.76279 855.1571 173.11182
412.33502 855.1571 173.11182
417.90701 855.1571 173.11182
423.47903 855.1571 173.11182
433.10144 842.27319 200.23389
434.62326 855.1571 173.11182
440.19547 855.1571 173.11182
449.97549 842.27319 200.23389
455.6001 842.27319 200.23389
461.22488 842.27319 200.23389
-415.75046 875.03076 118.53882
-410.28003 875.03076 118.53882
-404.80957 875.03076 118.53882
-399.33917 875.03076 118.53882
-393.86884 875.03076 118.53882
-388.39844 875.03076 118.53882
-382.92801 875.03076 118.53882
-377.45758 875.03076 118.53882
-371.98718 875.03076 118.53882
-369.92358 862.5293 144.73682
-364.40231 862.5293 144.73682
-358.88104 862.5293 144.73682
-353.3598 862.5293 144.73682
-347.8385 862.5293 144.73682
-342.31735 862.5293 144.73682
-336.79605 862.5293 144.73682
-331.27481 862.5293 144.73682
-328.75351 850.02808 170.93481
-187.72237 862.5293 144.73682
-182.2011 862.5293 144.73682
-175.05284 875.03076 118.53882
-168.06053 887.10095 93.244385
-162.63921 887.10095 93.244385
-157.21788 887.10095 93.244385
-150.42194 899.17114 67.949707
-145.04982 899.17114 67.949707
-139.67758 899.17114 67.949707
-134.30534 899.17114 67.949707
-128.93311 899.17114 67.949707
-123.56087 899.17114 67.949707
-119.26879 887.10095 93.244385
-113.84747 887.10095 93.244385
-108.42614 887.10095 93.244385
-103.93758 875.03076 118.53882
-98.467163 875.03076 118.53882
-92.996849 875.03076 118.53882
-87.526421 875.03076 118.53882
-82.056 875.03076 118.53882
-76.585587 875.03076 118.53882
-71.115158 875.03076 118.53882
-65.644844 875.03076 118.53882
-60.174423 875.03076 118.53882
-54.21307 887.10095 93.244385
-48.79174 887.10095 93.244385
-43.763157 875.03076 118.53882
-38.292843 875.03076 118.53882
-32.822422 875.03076 118.53882
-27.352001 875.03076 118.53882
-21.685207 887.10095 93.244385
-16.26388 887.10095 93.244385
-10.842655 887.10095 93.244385
-5.4213276 887.10095 93.244385
0 887.10095 93.244385
5.3721313 899.17114 67.949707
10.744469 899.17114 67.949707
16.116598 899.17114 67.949707
21.488937 899.17114 67.949707
26.861067 899.17114 67.949707
32.233196 899.17114 67.949707
37.605534 899.17114 67.949707
42.977669 899.17114 67.949707
48.350006 899.17114 67.949707
53.722134 899.17114 67.949707
59.634293 887.10095 93.244385
65.055725 887.10095 93.244385
70.476952 887.10095 93.244385
75.898376 887.10095 93.244385
81.319603 887.10095 93.244385
86.740829 887.10095 93.244385
92.162254 887.10095 93.244385
97.583481 887.10095 93.244385
103.93769 875.03076 118.53882
109.408 875.03076 118.53882
114.87832 875.03076 118.53882
120.34885 875.03076 118.53882
125.81916 875.03076 118.53882
131.28969 875.03076 118.53882
136.76001 875.03076 118.53882
142.23032 875.03076 118.53882
147.70084 875.03076 118.53882
153.17117 875.03076 118.53882
158.64169 875.03076 118.53882
164.112 875.03076 118.53882
169.58232 875.03076 118.53882
175.05284 875.03076 118.53882
180.52318 875.03076 118.53882
185.9937 875.03076 118.53882
191.464 875.03076 118.53882
196.93433 875.03076 118.53882
204.28618 862.5293 144.73682
209.80733 862.5293 144.73682
219.36314 837.0957 198.03613
224.98775 837.0957 198.03613
230.61235 837.0957 198.03613
382.47913 837.0957 198.03613
388.10394 837.0957 198.03613
393.72855 837.0957 198.03613
399.35315 837.0957 198.03613
401.19077 850.02808 170.93481
406.76279 850.02808 170.93481
412.33502 850.02808 170.93481
417.90701 850.02808 170.93481
423.47903 850.02808 170.93481
433.10144 837.0957 198.03613
434.62326 850.02808 170.93481
440.19547 850.02808 170.93481
449.97549 837.0957 198.03613
455.6001 837.0957 198.03613
461.22488 837.0957 198.03613
-421.22086 869.99512 116.40137
-415.75046 869.99512 116.40137
-410.28003 869.99512 116.40137
-404.80957 869.99512 116.40137
-399.33917 869.99512 116.40137
-393.86884 869.99512 116.40137
-388.39844 869.99512 116.40137
-382.92801 869.99512 116.40137
-377.45758 869.99512 116.40137
-371.98718 869.99512 116.40137
-369.92358 857.4469 142.57959
-364.40231 857.4469 142.57959
-358.88104 857.4469 142.57959
-353.3598 857.4469 142.57959
-347.8385 857.4469 142.57959
-342.31735 857.4469 142.57959
-336.79605 857.4469 142.57959
-331.27481 857.4469 142.57959
-182.2011 857.4469 142.57959
-175.05284 869.99512 116.40137
-168.06053 882.1106 91.125977
-162.63921 882.1106 91.125977
-157.21788 882.1106 91.125977
-151.79655 882.1106 91.125977
-145.04982 894.22595 65.850586
-139.67758 894.22595 65.850586
-134.30534 894.22595 65.850586
-128.93311 894.22595 65.850586
-124.69002 882.1106 91.125977
-119.26879 882.1106 91.125977
-113.84747 882.1106 91.125977
-108.42614 882.1106 91.125977
-103.93758 869.99512 116.40137
-98.467163 869.99512 116.40137
-92.996849 869.99512 116.40137
-87.526421 869.99512 116.40137
-82.056 869.99512 116.40137
-76.585587 869.99512 116.40137
-71.115158 869.99512 116.40137
-65.644844 869.99512 116.40137
-60.174423 869.99512 116.40137
-54.21307 882.1106 91.125977
-48.79174 882.1106 91.125977
-43.763157 869.99512 116.40137
-38.292843 869.99512 116.40137
-32.822422 869.99512 116.40137
-27.352001 869.99512 116.40137
-21.685207 882.1106 91.125977
-16.26388 882.1106 91.125977
-10.842655 882.1106 91.125977
-5.4213276 882.1106 91.125977
0 882.1106 91.125977
5.4212241 882.1106 91.125977
10.842655 882.1106 91.125977
16.26388 882.1106 91.125977
21.68531 882.1106 91.125977
27.106535 882.1106 91.125977
32.233196 894.22595 65.850586
37.605534 894.22595 65.850586
43.370415 882.1106 91.125977
48.350006 894.22595 65.850586
53.722134 894.22595 65.850586
59.634293 882.1106 91.125977
65.055725 882.1106 91.125977
70.476952 882.1106 91.125977
75.898376 882.1106 91.125977
81.319603 882.1106 91.125977
86.740829 882.1106 91.125977
92.162254 882.1106 91.125977
97.583481 882.1106 91.125977
103.93769 869.99512 116.40137
109.408 869.99512 116.40137
114.87832 869.99512 116.40137
120.34885 869.99512 116.40137
125.81916 869.99512 116.40137
131.28969 869.99512 116.40137
136.76001 869.99512 116.40137
142.23032 869.99512 116.40137
147.70084 869.99512 116.40137
153.17117 869.99512 116.40137
158.64169 869.99512 116.40137
164.112 869.99512 116.40137
169.58232 869.99512 116.40137
175.05284 869.99512 116.40137
180.52318 869.99512 116.40137
185.9937 869.99512 116.40137
191.464 869.99512 116.40137
196.93433 869.99512 116.40137
204.28618 857.4469 142.57959
209.80733 857.4469 142.57959
215.3287 857.4469 142.57959
220.84987 857.4469 142.57959
230.61235 831.91797 195.83838
388.10394 831.91797 195.83838
393.72855 831.91797 195.83838
399.35315 831.91797 195.83838
404.97797 831.91797 195.83838
406.76279 844.8988 168.75757
412.33502 844.8988 168.75757
417.90701 844.8988 168.75757
423.47903 844.8988 168.75757
433.10144 831.91797 195.83838
438.72607 831.91797 195.83838
444.35089 831.91797 195.83838
449.97549 831.91797 195.83838
455.6001 831.91797 195.83838
461.22488 831.91797 195.83838
466.84955 831.91797 195.83838
-421.22086 864.95972 114.26392
-415.75046 864.95972 114.26392
-410.28003 864.95972 114.26392
-404.80957 864.95972 114.26392
-399.33917 864.95972 114.26392
-393.86884 864.95972 114.26392
-388.39844 864.95972 114.26392
-382.92801 864.95972 114.26392
-377.45758 864.95972 114.26392
-371.98718 864.95972 114.26392
-369.92358 852.36462 140.42212
-364.40231 852.36462 140.42212
-358.88104 852.36462 140.42212
-353.3598 852.36462 140.42212
-347.8385 852.36462 140.42212
-342.31735 852.36462 140.42212
-336.79605 852.36462 140.42212
-331.27481 852.36462 140.42212
-182.2011 852.36462 140.42212
-175.05284 864.95972 114.26392
-168.06053 877.12024 89.007812
-162.63921 877.12024 89.007812
-157.21788 877.12024 89.007812
-151.79655 877.12024 89.007812
-145.04982 889.28088 63.751465
-139.67758 889.28088 63.751465
-135.53267 877.12024 89.007812
-130.11134 877.12024 89.007812
-124.69002 877.12024 89.007812
-120.34885 864.95972 114.26392
-114.87842 864.95972 114.26392
-109.408 864.95972 114.26392
-103.93758 864.95972 114.26392
-98.467163 864.95972 114.26392
-92.996849 864.95972 114.26392
-87.526421 864.95972 114.26392
-82.056 864.95972 114.26392
-76.585587 864.95972 114.26392
-71.115158 864.95972 114.26392
-65.644844 864.95972 114.26392
-59.634396 877.12024 89.007812
-54.21307 877.12024 89.007812
-48.79174 877.12024 89.007812
-43.763157 864.95972 114.26392
-38.292843 864.95972 114.26392
-32.822422 864.95972 114.26392
-27.352001 864.95972 114.26392
-21.685207 877.12024 89.007812
-16.26388 877.12024 89.007812
-10.842655 877.12024 89.007812
-5.4213276 877.12024 89.007812
0 877.12024 89.007812
5.4212241 877.12024 89.007812
10.842655 877.12024 89.007812
16.26388 877.12024 89.007812
21.68531 877.12024 89.007812
27.106535 877.12024 89.007812
32.52776 877.12024 89.007812
37.949188 877.12024 89.007812
43.370415 877.12024 89.007812
48.791843 877.12024 89.007812
54.21307 877.12024 89.007812
59.634293 877.12024 89.007812
65.055725 877.12024 89.007812
70.476952 877.12024 89.007812
75.898376 877.12024 89.007812
81.319603 877.12024 89.007812
86.740829 877.12024 89.007812
92.162254 877.12024 89.007812
97.583481 877.12024 89.007812
103.93769 864.95972 114.26392
109.408 864.95972 114.26392
114.87832 864.95972 114.26392
120.34885 864.95972 114.26392
125.81916 864.95972 114.26392
131.28969 864.95972 114.26392
136.76001 864.95972 114.26392
143.55234 852.36462 140.42212
149.07372 852.36462 140.42212
154.59486 852.36462 140.42212
160.11624 852.36462 140.42212
165.63741 852.36462 140.42212
171.15857 852.36462 140.42212
175.05284 864.95972 114.26392
180.52318 864.95972 114.26392
185.9937 864.95972 114.26392
191.464 864.95972 114.26392
198.7648 852.36462 140.42212
206.16751 839.76978 166.58032
211.73952 839.76978 166.58032
215.3287 852.36462 140.42212
220.84987 852.36462 140.42212
393.72855 826.7406 193.64062
399.35315 826.7406 193.64062
404.97797 826.7406 193.64062
410.6026 826.7406 193.64062
412.33502 839.76978 166.58032
417.90701 839.76978 166.58032
423.47903 839.76978 166.58032
433.10144 826.7406 193.64062
438.72607 826.7406 193.64062
444.35089 826.7406 193.64062
449.97549 826.7406 193.64062
455.6001 826.7406 193.64062
461.22488 826.7406 193.64062
466.84955 826.7406 193.64062
-421.22086 859.92407 112.12622
-415.75046 859.92407 112.12622
-410.28003 859.92407 112.12622
-404.80957 859.92407 112.12622
-399.33917 859.92407 112.12622
-393.86884 859.92407 112.12622
-388.39844 859.92407 112.12622
-382.92801 859.92407 112.12622
-377.45758 859.92407 112.12622
-371.98718 859.92407 112.12622
-369.92358 847.28223 138.26489
-364.40231 847.28223 138.26489
-358.88104 847.28223 138.26489
-353.3598 847.28223 138.26489
-347.8385 847.28223 138.26489
-345.46982 834.64062 164.40308
-339.89771 834.64062 164.40308
-175.05284 859.92407 112.12622
-168.06053 872.12988 86.889404
-161.16641 884.33557 61.652344
-155.79417 884.33557 61.652344
-150.42194 884.33557 61.652344
-145.04982 884.33557 61.652344
-139.67758 884.33557 61.652344
-135.53267 872.12988 86.889404
-130.11134 872.12988 86.889404
-125.81916 859.92407 112.12622
-120.34885 859.92407 112.12622
-114.87842 859.92407 112.12622
-109.408 859.92407 112.12622
-103.93758 859.92407 112.12622
-98.467163 859.92407 112.12622
-92.996849 859.92407 112.12622
-87.526421 859.92407 112.12622
-82.056 859.92407 112.12622
-76.585587 859.92407 112.12622
-71.115158 859.92407 112.12622
-65.644844 859.92407 112.12622
-59.634396 872.12988 86.889404
-54.21307 872.12988 86.889404
-48.79174 872.12988 86.889404
-43.763157 859.92407 112.12622
-38.292843 859.92407 112.12622
-32.822422 859.92407 112.12622
-27.352001 859.92407 112.12622
-21.685207 872.12988 86.889404
-16.26388 872.12988 86.889404
-10.842655 872.12988 86.889404
-5.4213276 872.12988 86.889404
0 872.12988 86.889404
5.4212241 872.12988 86.889404
10.842655 872.12988 86.889404
16.26388 872.12988 86.889404
21.68531 872.12988 86.889404
27.106535 872.12988 86.889404
32.52776 872.12988 86.889404
37.949188 872.12988 86.889404
43.370415 872.12988 86.889404
48.791843 872.12988 86.889404
54.21307 872.12988 86.889404
59.634293 872.12988 86.889404
65.055725 872.12988 86.889404
70.476952 872.12988 86.889404
75.898376 872.12988 86.889404
81.319603 872.12988 86.889404
86.740829 872.12988 86.889404
92.162254 872.12988 86.889404
97.583481 872.12988 86.889404
103.00491 872.12988 86.889404
109.408 859.92407 112.12622
114.87832 859.92407 112.12622
120.34885 859.92407 112.12622
125.81916 859.92407 112.12622
131.28969 859.92407 112.12622
136.76001 859.92407 112.12622
142.23032 859.92407 112.12622
147.70084 859.92407 112.12622
153.17117 859.92407 112.12622
160.11624 847.28223 138.26489
165.63741 847.28223 138.26489
169.58232 859.92407 112.12622
175.05284 859.92407 112.12622
180.52318 859.92407 112.12622
185.9937 859.92407 112.12622
191.464 859.92407 112.12622
198.7648 847.28223 138.26489
208.11371 821.56299 191.44287
213.73831 821.56299 191.44287
221.41454 808.48535 218.48242
393.72855 821.56299 191.44287
399.35315 821.56299 191.44287
401.19077 834.64062 164.40308
406.76279 834.64062 164.40308
412.33502 834.64062 164.40308
417.90701 834.64062 164.40308
423.47903 834.64062 164.40308
429.05124 834.64062 164.40308
438.72607 821.56299 191.44287
444.35089 821.56299 191.44287
449.97549 821.56299 191.44287
455.6001 821.56299 191.44287
465.53809 808.48535 218.48242
-421.22086 854.88867 109.98901
-415.75046 854.88867 109.98901
-410.28003 854.88867 109.98901
-404.80957 854.88867 109.98901
-399.33917 854.88867 109.98901
-393.86884 854.88867 109.98901
-388.39844 854.88867 109.98901
-382.92801 854.88867 109.98901
-377.45758 854.88867 109.98901
-371.98718 854.88867 109.98901
-369.92358 842.19995 136.10767
-364.40231 842.19995 136.10767
-358.88104 842.19995 136.10767
-353.3598 842.19995 136.10767
-347.8385 842.19995 136.10767
-345.46982 829.51147 162.22607
-339.89771 829.51147 162.22607
-168.06053 867.13965 84.77124
-161.16641 879.39062 59.553467
-155.79417 879.39062 59.553467
-150.42194 879.39062 59.553467
-145.04982 879.39062 59.553467
-139.67758 879.39062 59.553467
-135.53267 867.13965 84.77124
-131.28958 854.88867 109.98901
-125.81916 854.88867 109.98901
-120.34885 854.88867 109.98901
-114.87842 854.88867 109.98901
-109.408 854.88867 109.98901
-103.93758 854.88867 109.98901
-98.467163 854.88867 109.98901
-92.996849 854.88867 109.98901
-87.526421 854.88867 109.98901
-82.056 854.88867 109.98901
-76.585587 854.88867 109.98901
-71.115158 854.88867 109.98901
-65.644844 854.88867 109.98901
-60.174423 854.88867 109.98901
-54.704002 854.88867 109.98901
-49.233582 854.88867 109.98901
-43.763157 854.88867 109.98901
-38.292843 854.88867 109.98901
-32.822422 854.88867 109.98901
-27.352001 854.88867 109.98901
-21.685207 867.13965 84.77124
-16.26388 867.13965 84.77124
-10.842655 867.13965 84.77124
-5.4213276 867.13965 84.77124
0 867.13965 84.77124
5.4212241 867.13965 84.77124
10.842655 867.13965 84.77124
16.26388 867.13965 84.77124
21.68531 867.13965 84.77124
27.106535 867.13965 84.77124
32.52776 867.13965 84.77124
37.949188 867.13965 84.77124
43.370415 867.13965 84.77124
48.791843 867.13965 84.77124
54.21307 867.13965 84.77124
59.634293 867.13965 84.77124
65.055725 867.13965 84.77124
70.476952 867.13965 84.77124
75.898376 867.13965 84.77124
81.319603 867.13965 84.77124
86.740829 867.13965 84.77124
92.162254 867.13965 84.77124
97.583481 867.13965 84.77124
103.00491 867.13965 84.77124
109.408 854.88867 109.98901
114.87832 854.88867 109.98901
120.34885 854.88867 109.98901
125.81916 854.88867 109.98901
131.28969 854.88867 109.98901
136.76001 854.88867 109.98901
142.23032 854.88867 109.98901
147.70084 854.88867 109.98901
153.17117 854.88867 109.98901
160.11624 842.19995 136.10767
164.112 854.88867 109.98901
169.58232 854.88867 109.98901
175.05284 854.88867 109.98901
180.52318 854.88867 109.98901
185.9937 854.88867 109.98901
191.464 854.88867 109.98901
198.7648 842.19995 136.10767
208.11371 816.3855 189.24512
390.04654 829.51147 162.22607
395.61856 829.51147 162.22607
401.19077 829.51147 162.22607
406.76279 829.51147 162.22607
412.33502 829.51147 162.22607
417.90701 829.51147 162.22607
423.47903 829.51147 162.22607
429.05124 829.51147 162.22607
438.72607 816.3855 189.24512
444.35089 816.3855 189.24512
449.97549 816.3855 189.24512
455.6001 816.3855 189.24512
465.53809 803.2594 216.26416
-421.22086 849.85303 107.85132
-415.75046 849.85303 107.85132
-410.28003 849.85303 107.85132
-404.80957 849.85303 107.85132
-399.33917 849.85303 107.85132
-393.86884 849.85303 107.85132
-388.39844 849.85303 107.85132
-382.92801 849.85303 107.85132
-377.45758 849.85303 107.85132
-371.98718 849.85303 107.85132
-369.92358 837.11768 133.9502
-364.40231 837.11768 133.9502
-358.88104 837.11768 133.9502
-356.61398 824.38232 160.04883
-351.04187 824.38232 160.04883
-345.46982 824.38232 160.04883
-339.89771 824.38232 160.04883
-162.63921 862.14917 82.653076
-157.21788 862.14917 82.653076
-151.79655 862.14917 82.653076
-146.37532 862.14917 82.653076
-140.95399 862.14917 82.653076
-136.76001 849.85303 107.85132
-131.28958 849.85303 107.85132
-125.81916 849.85303 107.85132
-120.34885 849.85303 107.85132
-115.94621 837.11768 133.9502
-110.42493 837.11768 133.9502
-103.93758 849.85303 107.85132
-98.467163 849.85303 107.85132
-92.996849 849.85303 107.85132
-87.526421 849.85303 107.85132
-82.056 849.85303 107.85132
-76.585587 849.85303 107.85132
-71.115158 849.85303 107.85132
-65.644844 849.85303 107.85132
-60.174423 849.85303 107.85132
-54.704002 849.85303 107.85132
-49.233582 849.85303 107.85132
-43.763157 849.85303 107.85132
-38.292843 849.85303 107.85132
-32.822422 849.85303 107.85132
-27.352001 849.85303 107.85132
-21.685207 862.14917 82.653076
-16.26388 862.14917 82.653076
-10.842655 862.14917 82.653076
-5.4213276 862.14917 82.653076
0 862.14917 82.653076
5.4212241 862.14917 82.653076
10.842655 862.14917 82.653076
16.26388 862.14917 82.653076
21.68531 862.14917 82.653076
27.106535 862.14917 82.653076
32.52776 862.14917 82.653076
37.949188 862.14917 82.653076
43.370415 862.14917 82.653076
48.791843 862.14917 82.653076
54.21307 862.14917 82.653076
59.634293 862.14917 82.653076
65.055725 862.14917 82.653076
70.476952 862.14917 82.653076
75.898376 862.14917 82.653076
81.319603 862.14917 82.653076
86.740829 862.14917 82.653076
92.162254 862.14917 82.653076
97.583481 862.14917 82.653076
103.00491 862.14917 82.653076
109.408 849.85303 107.85132
114.87832 849.85303 107.85132
120.34885 849.85303 107.85132
125.81916 849.85303 107.85132
131.28969 849.85303 107.85132
136.76001 849.85303 107.85132
143.55234 837.11768 133.9502
147.70084 849.85303 107.85132
153.17117 849.85303 107.85132
160.11624 837.11768 133.9502
164.112 849.85303 107.85132
169.58232 849.85303 107.85132
176.67995 837.11768 133.9502
182.2011 837.11768 133.9502
187.72247 837.11768 133.9502
195.02327 824.38232 160.04883
202.48888 811.20776 187.04736
210.05991 798.03333 214.0459
390.04654 824.38232 160.04883
395.61856 824.38232 160.04883
401.19077 824.38232 160.04883
406.76279 824.38232 160.04883
412.33502 824.38232 160.04883
417.90701 824.38232 160.04883
423.47903 824.38232 160.04883
433.10144 811.20776 187.04736
438.72607 811.20776 187.04736
444.35089 811.20776 187.04736
449.97549 811.20776 187.04736
459.86069 798.03333 214.0459
465.53809 798.03333 214.0459
-421.22086 844.8175 105.71387
-415.75046 844.8175 105.71387
-410.28003 844.8175 105.71387
-404.80957 844.8175 105.71387
-399.33917 844.8175 105.71387
-393.86884 844.8175 105.71387
-388.39844 844.8175 105.71387
-382.92801 844.8175 105.71387
-377.45758 844.8175 105.71387
-371.98718 844.8175 105.71387
-369.92358 832.03516 131.79297
-364.40231 832.03516 131.79297
-358.88104 832.03516 131.79297
-353.3598 832.03516 131.79297
-351.04187 819.25305 157.87158
-345.46982 819.25305 157.87158
-339.89771 819.25305 157.87158
-169.58243 844.8175 105.71387
-162.63921 857.15881 80.534668
-157.21788 857.15881 80.534668
-151.79655 857.15881 80.534668
-146.37532 857.15881 80.534668
-142.23042 844.8175 105.71387
-136.76001 844.8175 105.71387
-131.28958 844.8175 105.71387
-125.81916 844.8175 105.71387
-121.46747 832.03516 131.79297
-115.94621 832.03516 131.79297
-110.42493 832.03516 131.79297
-103.93758 844.8175 105.71387
-98.467163 844.8175 105.71387
-92.996849 844.8175 105.71387
-87.526421 844.8175 105.71387
-82.056 844.8175 105.71387
-76.585587 844.8175 105.71387
-71.115158 844.8175 105.71387
-65.644844 844.8175 105.71387
-60.174423 844.8175 105.71387
-54.21307 857.15881 80.534668
-48.79174 857.15881 80.534668
-43.763157 844.8175 105.71387
-38.292843 844.8175 105.71387
-32.822422 844.8175 105.71387
-27.352001 844.8175 105.71387
-21.685207 857.15881 80.534668
-16.26388 857.15881 80.534668
-10.842655 857.15881 80.534668
-5.4213276 857.15881 80.534668
0 857.15881 80.534668
5.4212241 857.15881 80.534668
10.842655 857.15881 80.534668
16.26388 857.15881 80.534668
21.68531 857.15881 80.534668
27.106535 857.15881 80.534668
32.52776 857.15881 80.534668
37.949188 857.15881 80.534668
43.370415 857.15881 80.534668
48.791843 857.15881 80.534668
54.21307 857.15881 80.534668
59.634293 857.15881 80.534668
65.055725 857.15881 80.534668
70.476952 857.15881 80.534668
75.898376 857.15881 80.534668
81.319603 857.15881 80.534668
86.740829 857.15881 80.534668
92.162254 857.15881 80.534668
97.583481 857.15881 80.534668
103.00491 857.15881 80.534668
109.408 844.8175 105.71387
114.87832 844.8175 105.71387
120.34885 844.8175 105.71387
125.81916 844.8175 105.71387
131.28969 844.8175 105.71387
136.76001 844.8175 105.71387
143.55234 832.03516 131.79297
147.70084 844.8175 105.71387
153.17117 844.8175 105.71387
160.11624 832.03516 131.79297
165.63741 832.03516 131.79297
171.15857 832.03516 131.79297
176.67995 832.03516 131.79297
182.2011 832.03516 131.79297
187.72247 832.03516 131.79297
195.02327 819.25305 157.87158
202.48888 806.03015 184.84961
393.72855 806.03015 184.84961
399.35315 806.03015 184.84961
401.19077 819.25305 157.87158
406.76279 819.25305 157.87158
412.33502 819.25305 157.87158
417.90701 819.25305 157.87158
423.47903 819.25305 157.87158
433.10144 806.03015 184.84961
438.72607 806.03015 184.84961
444.35089 806.03015 184.84961
449.97549 806.03015 184.84961
459.86069 792.80725 211.82764
465.53809 792.80725 211.82764
-430.6572 826.953 129.6355
-421.22086 839.78198 103.57642
-415.75046 839.78198 103.57642
-410.28003 839.78198 103.57642
-404.80957 839.78198 103.57642
-399.33917 839.78198 103.57642
-393.86884 839.78198 103.57642
-388.39844 839.78198 103.57642
-382.92801 839.78198 103.57642
-377.45758 839.78198 103.57642
-371.98718 839.78198 103.57642
-369.92358 826.953 129.6355
-364.40231 826.953 129.6355
-358.88104 826.953 129.6355
-353.3598 826.953 129.6355
-351.04187 814.12402 155.69434
-345.46982 814.12402 155.69434
-339.89771 814.12402 155.69434
-169.58243 839.78198 103.57642
-164.112 839.78198 103.57642
-158.64159 839.78198 103.57642
-153.17117 839.78198 103.57642
-147.70084 839.78198 103.57642
-142.23042 839.78198 103.57642
-136.76001 839.78198 103.57642
-131.28958 839.78198 103.57642
-125.81916 839.78198 103.57642
-121.46747 826.953 129.6355
-115.94621 826.953 129.6355
-110.42493 826.953 129.6355
-103.93758 839.78198 103.57642
-98.467163 839.78198 103.57642
-92.996849 839.78198 103.57642
-87.526421 839.78198 103.57642
-82.056 839.78198 103.57642
-76.585587 839.78198 103.57642
-71.115158 839.78198 103.57642
-65.644844 839.78198 103.57642
-60.174423 839.78198 103.57642
-54.21307 852.16858 78.416504
-48.79174 852.16858 78.416504
-43.763157 839.78198 103.57642
-38.292843 839.78198 103.57642
-32.822422 839.78198 103.57642
-27.352001 839.78198 103.57642
-21.685207 852.16858 78.416504
-16.26388 852.16858 78.416504
-10.842655 852.16858 78.416504
-5.4213276 852.16858 78.416504
0 852.16858 78.416504
5.4212241 852.16858 78.416504
10.842655 852.16858 78.416504
16.26388 852.16858 78.416504
21.68531 852.16858 78.416504
27.106535 852.16858 78.416504
32.52776 852.16858 78.416504
37.949188 852.16858 78.416504
43.370415 852.16858 78.416504
48.791843 852.16858 78.416504
54.21307 852.16858 78.416504
59.634293 852.16858 78.416504
65.055725 852.16858 78.416504
70.476952 852.16858 78.416504
75.898376 852.16858 78.416504
81.319603 852.16858 78.416504
86.740829 852.16858 78.416504
92.162254 852.16858 78.416504
97.583481 852.16858 78.416504
103.93769 839.78198 103.57642
109.408 839.78198 103.57642
114.87832 839.78198 103.57642
120.34885 839.78198 103.57642
125.81916 839.78198 103.57642
131.28969 839.78198 103.57642
136.76001 839.78198 103.57642
142.23032 839.78198 103.57642
147.70084 839.78198 103.57642
153.17117 839.78198 103.57642
160.11624 826.953 129.6355
165.63741 826.953 129.6355
171.15857 826.953 129.6355
176.67995 826.953 129.6355
182.2011 826.953 129.6355
187.72247 826.953 129.6355
196.86427 800.85278 182.65186
204.38248 787.58142 209.60938
393.72855 800.85278 182.65186
395.61856 814.12402 155.69434
401.19077 814.12402 155.69434
406.76279 814.12402 155.69434
412.33502 814.12402 155.69434
417.90701 814.12402 155.69434
427.47662 800.85278 182.65186
433.10144 800.85278 182.65186
438.72607 800.85278 182.65186
444.35089 800.85278 182.65186
449.97549 800.85278 182.65186
459.86069 787.58142 209.60938
465.53809 787.58142 209.60938
471.21533 787.58142 209.60938
476.89276 787.58142 209.60938
-430.6572 821.87061 127.47827
-421.22086 834.74634 101.43896
-415.75046 834.74634 101.43896
-410.28003 834.74634 101.43896
-404.80957 834.74634 101.43896
-399.33917 834.74634 101.43896
-393.86884 834.74634 101.43896
-388.39844 834.74634 101.43896
-382.92801 834.74634 101.43896
-377.45758 834.74634 101.43896
-371.98718 834.74634 101.43896
-369.92358 821.87061 127.47827
-364.40231 821.87061 127.47827
-358.88104 821.87061 127.47827
-353.3598 821.87061 127.47827
-347.8385 821.87061 127.47827
-345.46982 808.99487 153.51709
-339.89771 808.99487 153.51709
-337.4816 795.67505 180.4541
-171.15868 821.87061 127.47827
-164.112 834.74634 101.43896
-158.64159 834.74634 101.43896
-153.17117 834.74634 101.43896
-147.70084 834.74634 101.43896
-142.23042 834.74634 101.43896
-136.76001 834.74634 101.43896
-131.28958 834.74634 101.43896
-125.81916 834.74634 101.43896
-121.46747 821.87061 127.47827
-115.94621 821.87061 127.47827
-109.408 834.74634 101.43896
-103.93758 834.74634 101.43896
-98.467163 834.74634 101.43896
-92.996849 834.74634 101.43896
-87.526421 834.74634 101.43896
-82.056 834.74634 101.43896
-76.585587 834.74634 101.43896
-71.115158 834.74634 101.43896
-65.644844 834.74634 101.43896
-60.174423 834.74634 101.43896
-54.704002 834.74634 101.43896
-49.233582 834.74634 101.43896
-43.763157 834.74634 101.43896
-38.292843 834.74634 101.43896
-32.822422 834.74634 101.43896
-27.352001 834.74634 101.43896
-21.685207 847.1781 76.298096
-16.26388 847.1781 76.298096
-10.842655 847.1781 76.298096
-5.4213276 847.1781 76.298096
0 847.1781 76.298096
5.4212241 847.1781 76.298096
10.842655 847.1781 76.298096
16.26388 847.1781 76.298096
21.68531 847.1781 76.298096
27.106535 847.1781 76.298096
32.52776 847.1781 76.298096
37.949188 847.1781 76.298096
43.370415 847.1781 76.298096
48.791843 847.1781 76.298096
54.21307 847.1781 76.298096
59.634293 847.1781 76.298096
65.055725 847.1781 76.298096
70.476952 847.1781 76.298096
75.898376 847.1781 76.298096
81.319603 847.1781 76.298096
86.740829 847.1781 76.298096
92.996849 834.74634 101.43896
98.467163 834.74634 101.43896
103.93769 834.74634 101.43896
109.408 834.74634 101.43896
114.87832 834.74634 101.43896
120.34885 834.74634 101.43896
125.81916 834.74634 101.43896
131.28969 834.74634 101.43896
136.76001 834.74634 101.43896
142.23032 834.74634 101.43896
147.70084 834.74634 101.43896
153.17117 834.74634 101.43896
160.11624 821.87061 127.47827
165.63741 821.87061 127.47827
171.15857 821.87061 127.47827
176.67995 821.87061 127.47827
183.87904 808.99487 153.51709
189.45126 808.99487 153.51709
196.86427 795.67505 180.4541
390.04654 808.99487 153.51709
395.61856 808.99487 153.51709
401.19077 808.99487 153.51709
406.76279 808.99487 153.51709
412.33502 808.99487 153.51709
417.90701 808.99487 153.51709
423.47903 808.99487 153.51709
429.05124 808.99487 153.51709
438.72607 795.67505 180.4541
444.35089 795.67505 180.4541
449.97549 795.67505 180.4541
459.86069 782.35535 207.39087
465.53809 782.35535 207.39087
471.21533 782.35535 207.39087
476.89276 782.35535 207.39087
-430.6572 816.78833 125.32104
-425.13605 816.78833 125.32104
-415.75046 829.71094 99.301514
-410.28003 829.71094 99.301514
-404.80957 829.71094 99.301514
-399.33917 829.71094 99.301514
-393.86884 829.71094 99.301514
-388.39844 829.71094 99.301514
-382.92801 829.71094 99.301514
-377.45758 829.71094 99.301514
-371.98718 829.71094 99.301514
-369.92358 816.78833 125.32104
-364.40231 816.78833 125.32104
-358.88104 816.78833 125.32104
-353.3598 816.78833 125.32104
-347.8385 816.78833 125.32104
-345.46982 803.86572 151.34009
-339.89771 803.86572 151.34009
-334.32562 803.86572 151.34009
-171.15868 816.78833 125.32104
-165.63741 816.78833 125.32104
-160.11613 816.78833 125.32104
-153.17117 829.71094 99.301514
-147.70084 829.71094 99.301514
-142.23042 829.71094 99.301514
-138.03117 816.78833 125.32104
-132.5099 816.78833 125.32104
-126.98864 816.78833 125.32104
-121.46747 816.78833 125.32104
-115.94621 816.78833 125.32104
-109.408 829.71094 99.301514
-103.93758 829.71094 99.301514
-98.467163 829.71094 99.301514
-92.996849 829.71094 99.301514
-87.526421 829.71094 99.301514
-82.056 829.71094 99.301514
-76.585587 829.71094 99.301514
-71.115158 829.71094 99.301514
-65.644844 829.71094 99.301514
-60.174423 829.71094 99.301514
-54.704002 829.71094 99.301514
-49.233582 829.71094 99.301514
-43.763157 829.71094 99.301514
-38.292843 829.71094 99.301514
-32.822422 829.71094 99.301514
-27.352001 829.71094 99.301514
-21.685207 842.18787 74.179932
-16.26388 842.18787 74.179932
-10.842655 842.18787 74.179932
-5.4213276 842.18787 74.179932
0 842.18787 74.179932
5.4212241 842.18787 74.179932
10.842655 842.18787 74.179932
16.26388 842.18787 74.179932
21.68531 842.18787 74.179932
27.106535 842.18787 74.179932
32.52776 842.18787 74.179932
37.949188 842.18787 74.179932
43.370415 842.18787 74.179932
48.791843 842.18787 74.179932
54.21307 842.18787 74.179932
59.634293 842.18787 74.179932
65.055725 842.18787 74.179932
70.476952 842.18787 74.179932
75.898376 842.18787 74.179932
81.319603 842.18787 74.179932
87.526314 829.71094 99.301514
92.996849 829.71094 99.301514
98.467163 829.71094 99.301514
103.93769 829.71094 99.301514
109.408 829.71094 99.301514
114.87832 829.71094 99.301514
120.34885 829.71094 99.301514
125.81916 829.71094 99.301514
131.28969 829.71094 99.301514
136.76001 829.71094 99.301514
143.55234 816.78833 125.32104
149.07372 816.78833 125.32104
154.59486 816.78833 125.32104
160.11624 816.78833 125.32104
165.63741 816.78833 125.32104
171.15857 816.78833 125.32104
176.67995 816.78833 125.32104
183.87904 803.86572 151.34009
189.45126 803.86572 151.34009
196.86427 790.49756 178.25659
390.04654 803.86572 151.34009
395.61856 803.86572 151.34009
401.19077 803.86572 151.34009
406.76279 803.86572 151.34009
412.33502 803.86572 151.34009
417.90701 803.86572 151.34009
423.47903 803.86572 151.34009
429.05124 803.86572 151.34009
438.72607 790.49756 178.25659
444.35089 790.49756 178.25659
449.97549 790.49756 178.25659
459.86069 777.12939 205.17261
465.53809 777.12939 205.17261
466.84955 790.49756 178.25659
472.47433 790.49756 178.25659
478.09894 790.49756 178.25659
483.72354 790.49756 178.25659
489.34836 790.49756 178.25659
-430.6572 811.70593 123.16357
-425.13605 811.70593 123.16357
-415.75046 824.67529 97.164062
-410.28003 824.67529 97.164062
-404.80957 824.67529 97.164062
-399.33917 824.67529 97.164062
-393.86884 824.67529 97.164062
-388.39844 824.67529 97.164062
-382.92801 824.67529 97.164062
-377.45758 824.67529 97.164062
-371.98718 824.67529 97.164062
-369.92358 811.70593 123.16357
-364.40231 811.70593 123.16357
-358.88104 811.70593 123.16357
-353.3598 811.70593 123.16357
-351.04187 798.73657 149.16284
-345.46982 798.73657 149.16284
-339.89771 798.73657 149.16284
-334.32562 798.73657 149.16284
-171.15868 811.70593 123.16357
-165.63741 811.70593 123.16357
-160.11613 811.70593 123.16357
-153.17117 824.67529 97.164062
-147.70084 824.67529 97.164062
-142.23042 824.67529 97.164062
-138.03117 811.70593 123.16357
-132.5099 811.70593 123.16357
-126.98864 811.70593 123.16357
-121.46747 811.70593 123.16357
-115.94621 811.70593 123.16357
-110.42493 811.70593 123.16357
-104.90366 811.70593 123.16357
-98.467163 824.67529 97.164062
-92.996849 824.67529 97.164062
-87.526421 824.67529 97.164062
-82.056 824.67529 97.164062
-76.585587 824.67529 97.164062
-71.115158 824.67529 97.164062
-65.644844 824.67529 97.164062
-60.174423 824.67529 97.164062
-54.704002 824.67529 97.164062
-49.233582 824.67529 97.164062
-43.763157 824.67529 97.164062
-38.292843 824.67529 97.164062
-32.822422 824.67529 97.164062
-27.352001 824.67529 97.164062
-21.685207 837.19751 72.061523
-16.26388 837.19751 72.061523
-10.842655 837.19751 72.061523
-5.4213276 837.19751 72.061523
0 837.19751 72.061523
5.4212241 837.19751 72.061523
10.842655 837.19751 72.061523
16.26388 837.19751 72.061523
21.68531 837.19751 72.061523
27.106535 837.19751 72.061523
32.52776 837.19751 72.061523
37.949188 837.19751 72.061523
43.370415 837.19751 72.061523
48.791843 837.19751 72.061523
54.21307 837.19751 72.061523
59.634293 837.19751 72.061523
65.055725 837.19751 72.061523
70.476952 837.19751 72.061523
75.898376 837.19751 72.061523
81.319603 837.19751 72.061523
87.526314 824.67529 97.164062
92.996849 824.67529 97.164062
98.467163 824.67529 97.164062
103.93769 824.67529 97.164062
109.408 824.67529 97.164062
114.87832 824.67529 97.164062
120.34885 824.67529 97.164062
125.81916 824.67529 97.164062
131.28969 824.67529 97.164062
136.76001 824.67529 97.164062
143.55234 811.70593 123.16357
149.07372 811.70593 123.16357
154.59486 811.70593 123.16357
160.11624 811.70593 123.16357
165.63741 811.70593 123.16357
171.15857 811.70593 123.16357
176.67995 811.70593 123.16357
183.87904 798.73657 149.16284
189.45126 798.73657 149.16284
196.86427 785.31995 176.05859
204.38248 771.90344 202.95435
393.72855 785.31995 176.05859
399.35315 785.31995 176.05859
401.19077 798.73657 149.16284
406.76279 798.73657 149.16284
412.33502 798.73657 149.16284
417.90701 798.73657 149.16284
423.47903 798.73657 149.16284
429.05124 798.73657 149.16284
438.72607 785.31995 176.05859
444.35089 785.31995 176.05859
449.97549 785.31995 176.05859
455.6001 785.31995 176.05859
461.22488 785.31995 176.05859
466.84955 785.31995 176.05859
472.47433 785.31995 176.05859
478.09894 785.31995 176.05859
483.72354 785.31995 176.05859
489.34836 785.31995 176.05859
-430.6572 806.62366 121.00635
-425.13605 806.62366 121.00635
-415.75046 819.63989 95.026611
-410.28003 819.63989 95.026611
-404.80957 819.63989 95.026611
-399.33917 819.63989 95.026611
-393.86884 819.63989 95.026611
-388.39844 819.63989 95.026611
-382.92801 819.63989 95.026611
-377.45758 819.63989 95.026611
-375.44473 806.62366 121.00635
-369.92358 806.62366 121.00635
-364.40231 806.62366 121.00635
-358.88104 806.62366 121.00635
-356.61398 793.60754 146.9856
-351.04187 793.60754 146.9856
-345.46982 793.60754 146.9856
-339.89771 793.60754 146.9856
-334.32562 793.60754 146.9856
-171.15868 806.62366 121.00635
-165.63741 806.62366 121.00635
-160.11613 806.62366 121.00635
-154.59486 806.62366 121.00635
-149.07372 806.62366 121.00635
-143.55244 806.62366 121.00635
-138.03117 806.62366 121.00635
-132.5099 806.62366 121.00635
-126.98864 806.62366 121.00635
-120.34885 819.63989 95.026611
-114.87842 819.63989 95.026611
-109.408 819.63989 95.026611
-104.90366 806.62366 121.00635
-98.467163 819.63989 95.026611
-92.996849 819.63989 95.026611
-87.526421 819.63989 95.026611
-82.056 819.63989 95.026611
-76.585587 819.63989 95.026611
-71.115158 819.63989 95.026611
-65.644844 819.63989 95.026611
-60.174423 819.63989 95.026611
-54.704002 819.63989 95.026611
-49.233582 819.63989 95.026611
-43.763157 819.63989 95.026611
-38.292843 819.63989 95.026611
-33.127502 806.62366 121.00635
-27.352001 819.63989 95.026611
-21.685207 832.20715 69.943359
-16.26388 832.20715 69.943359
-10.842655 832.20715 69.943359
-5.4213276 832.20715 69.943359
0 832.20715 69.943359
5.4212241 832.20715 69.943359
10.842655 832.20715 69.943359
16.26388 832.20715 69.943359
21.68531 832.20715 69.943359
27.106535 832.20715 69.943359
32.52776 832.20715 69.943359
37.949188 832.20715 69.943359
43.370415 832.20715 69.943359
48.791843 832.20715 69.943359
54.21307 832.20715 69.943359
59.634293 832.20715 69.943359
