ply
format ascii 1.0
comment PCL generated
element vertex 1571
property float x
property float y
property float z
element camera 0
property float view_px
property float view_py
property float view_pz
property float x_axisx
property float x_axisy
property float x_axisz
property float y_axisx
property float y_axisy
property float y_axisz
property float z_axisx
property float z_axisy
property float z_axisz
property float focal
property float scalex
property float scaley
property float centerx
property float centery
property int viewportx
property int viewporty
property float k1
property float k2
end_header
122.72098 444.31458 167.10547
128.56497 444.31458 167.10547
134.40874 444.31458 167.10547
140.25273 444.31458 167.10547
146.09651 444.31458 167.10547
151.94028 444.31458 167.10547
157.78427 444.31458 167.10547
163.62804 444.31458 167.10547
171.09912 427.26636 194.63232
176.99901 427.26636 194.63232
182.8989 427.26636 194.63232
188.799 427.26636 194.63232
194.69885 427.26636 194.63232
200.59895 427.26636 194.63232
210.67177 391.0387 253.1272
-208.58531 403.66675 221.55127
-202.6257 403.66675 221.55127
-196.66609 403.66675 221.55127
-190.70662 403.66675 221.55127
-184.74701 403.66675 221.55127
-178.7874 403.66675 221.55127
-171.09903 421.83545 192.32715
-165.19902 421.83545 192.32715
-159.29916 421.83545 192.32715
-151.9404 438.9353 164.82202
-146.09651 438.9353 164.82202
-141.59918 421.83545 192.32715
-135.69919 421.83545 192.32715
-129.79932 421.83545 192.32715
-123.89933 421.83545 192.32715
-119.1916 403.66675 221.55127
-113.232 403.66675 221.55127
-108.34544 385.49805 250.77539
-102.32633 385.49805 250.77539
-96.307121 385.49805 250.77539
-90.287903 385.49805 250.77539
76.699524 421.83545 192.32715
82.599632 421.83545 192.32715
88.499504 421.83545 192.32715
94.399376 421.83545 192.32715
100.29948 421.83545 192.32715
106.19936 421.83545 192.32715
111.03343 438.9353 164.82202
116.8772 438.9353 164.82202
122.72098 438.9353 164.82202
128.56497 438.9353 164.82202
134.40874 438.9353 164.82202
140.25273 438.9353 164.82202
146.09651 438.9353 164.82202
151.94028 438.9353 164.82202
157.78427 438.9353 164.82202
165.19902 421.83545 192.32715
171.09912 421.83545 192.32715
176.99901 421.83545 192.32715
184.74689 403.66675 221.55127
190.70662 403.66675 221.55127
196.66609 403.66675 221.55127
202.62582 403.66675 221.55127
210.67177 385.49805 250.77539
-218.90019 361.19775 278.48291
-208.58531 398.18091 219.22266
-202.6257 398.18091 219.22266
-196.66609 398.18091 219.22266
-190.70662 398.18091 219.22266
-184.74701 398.18091 219.22266
-178.7874 398.18091 219.22266
-172.8278 398.18091 219.22266
-166.86819 398.18091 219.22266
-159.29916 416.40454 190.02173
-153.39915 416.40454 190.02173
-147.49918 416.40454 190.02173
-141.59918 416.40454 190.02173
-135.69919 416.40454 190.02173
-129.79932 416.40454 190.02173
-123.89933 416.40454 190.02173
-119.1916 398.18091 219.22266
-113.232 398.18091 219.22266
-108.34544 379.95728 248.42358
-102.32633 379.95728 248.42358
-96.307121 379.95728 248.42358
-90.287903 379.95728 248.42358
76.699524 416.40454 190.02173
82.599632 416.40454 190.02173
88.499504 416.40454 190.02173
94.399376 416.40454 190.02173
100.29948 416.40454 190.02173
106.19936 416.40454 190.02173
112.09946 416.40454 190.02173
116.8772 433.55603 162.53882
122.72098 433.55603 162.53882
128.56497 433.55603 162.53882
134.40874 433.55603 162.53882
140.25273 433.55603 162.53882
146.09651 433.55603 162.53882
151.94028 433.55603 162.53882
157.78427 433.55603 162.53882
165.19902 416.40454 190.02173
171.09912 416.40454 190.02173
176.99901 416.40454 190.02173
184.74689 398.18091 219.22266
190.70662 398.18091 219.22266
198.63335 379.95728 248.42358
204.65266 379.95728 248.42358
-218.90019 355.60059 276.10718
-208.58531 392.69495 216.89404
-202.6257 392.69495 216.89404
-198.63335 374.4165 246.07153
-190.70662 392.69495 216.89404
-184.74701 392.69495 216.89404
-178.7874 392.69495 216.89404
-172.8278 392.69495 216.89404
-166.86819 392.69495 216.89404
-160.90871 392.69495 216.89404
-153.39915 410.97351 187.71631
-147.49918 410.97351 187.71631
-141.59918 410.97351 187.71631
-135.69919 410.97351 187.71631
-131.11081 392.69495 216.89404
-125.15121 392.69495 216.89404
-119.1916 392.69495 216.89404
-113.232 392.69495 216.89404
-108.34544 374.4165 246.07153
-102.32633 374.4165 246.07153
-97.288986 355.60059 276.10718
76.699524 410.97351 187.71631
82.599632 410.97351 187.71631
88.499504 410.97351 187.71631
94.399376 410.97351 187.71631
100.29948 410.97351 187.71631
106.19936 410.97351 187.71631
112.09946 410.97351 187.71631
116.8772 428.17664 160.25537
122.72098 428.17664 160.25537
128.56497 428.17664 160.25537
134.40874 428.17664 160.25537
140.25273 428.17664 160.25537
146.09651 428.17664 160.25537
151.94028 428.17664 160.25537
157.78427 428.17664 160.25537
165.19902 410.97351 187.71631
171.09912 410.97351 187.71631
176.99901 410.97351 187.71631
182.8989 410.97351 187.71631
190.70662 392.69495 216.89404
198.63335 374.4165 246.07153
204.65266 374.4165 246.07153
212.81961 355.60059 276.10718
-224.98077 350.00342 273.7312
-218.90019 350.00342 273.7312
-210.67177 368.87598 243.71973
-204.65256 368.87598 243.71973
-198.63335 368.87598 243.71973
-190.70662 387.20923 214.56567
-184.74701 387.20923 214.56567
-178.7874 387.20923 214.56567
-172.8278 387.20923 214.56567
-166.86819 387.20923 214.56567
-160.90871 387.20923 214.56567
-154.94911 387.20923 214.56567
-147.49918 405.5426 185.41113
-141.59918 405.5426 185.41113
-135.69919 405.5426 185.41113
-131.11081 387.20923 214.56567
-125.15121 387.20923 214.56567
-119.1916 387.20923 214.56567
-114.36465 368.87598 243.71973
-108.34544 368.87598 243.71973
-103.36957 350.00342 273.7312
-97.288986 350.00342 273.7312
76.699524 405.5426 185.41113
82.599632 405.5426 185.41113
88.499504 405.5426 185.41113
94.399376 405.5426 185.41113
100.29948 405.5426 185.41113
106.19936 405.5426 185.41113
112.09946 405.5426 185.41113
117.99934 405.5426 185.41113
123.89921 405.5426 185.41113
129.79932 405.5426 185.41113
134.40874 422.79736 157.97192
140.25273 422.79736 157.97192
146.09651 422.79736 157.97192
151.94028 422.79736 157.97192
157.78427 422.79736 157.97192
165.19902 405.5426 185.41113
171.09912 405.5426 185.41113
176.99901 405.5426 185.41113
182.8989 405.5426 185.41113
190.70662 387.20923 214.56567
198.63335 368.87598 243.71973
204.65266 368.87598 243.71973
212.81961 350.00342 273.7312
-231.06125 344.40613 271.35547
-224.98077 344.40613 271.35547
-216.69099 363.33508 241.36768
-210.67177 363.33508 241.36768
-204.65256 363.33508 241.36768
-198.63335 363.33508 241.36768
-192.61424 363.33508 241.36768
-184.74701 381.72339 212.23682
-178.7874 381.72339 212.23682
-172.8278 381.72339 212.23682
-166.86819 381.72339 212.23682
-160.90871 381.72339 212.23682
-154.94911 381.72339 212.23682
-147.49918 400.11157 183.10571
-141.59918 400.11157 183.10571
-135.69919 400.11157 183.10571
-131.11081 381.72339 212.23682
-125.15121 381.72339 212.23682
-119.1916 381.72339 212.23682
-114.36465 363.33508 241.36768
-108.34544 363.33508 241.36768
-103.36957 344.40613 271.35547
-97.288986 344.40613 271.35547
83.434212 381.72339 212.23682
89.3937 381.72339 212.23682
95.353195 381.72339 212.23682
101.31291 381.72339 212.23682
106.19936 400.11157 183.10571
112.09946 400.11157 183.10571
117.99934 400.11157 183.10571
123.89921 400.11157 183.10571
129.79932 400.11157 183.10571
135.69919 400.11157 183.10571
141.5993 400.11157 183.10571
147.49918 400.11157 183.10571
153.39905 400.11157 183.10571
159.29916 400.11157 183.10571
165.19902 400.11157 183.10571
171.09912 400.11157 183.10571
176.99901 400.11157 183.10571
182.8989 400.11157 183.10571
190.70662 381.72339 212.23682
198.63335 363.33508 241.36768
204.65266 363.33508 241.36768
-231.06125 338.80908 268.97949
-224.98077 338.80908 268.97949
-216.69099 357.79456 239.01587
-210.67177 357.79456 239.01587
-204.65256 357.79456 239.01587
-198.63335 357.79456 239.01587
-192.61424 357.79456 239.01587
-184.74701 376.23755 209.90845
-178.7874 376.23755 209.90845
-172.8278 376.23755 209.90845
-166.86819 376.23755 209.90845
-160.90871 376.23755 209.90845
-154.94911 376.23755 209.90845
-148.9895 376.23755 209.90845
-143.02991 376.23755 209.90845
-137.0703 376.23755 209.90845
-131.11081 376.23755 209.90845
-126.40308 357.79456 239.01587
-120.38387 357.79456 239.01587
-114.36465 357.79456 239.01587
-108.34544 357.79456 239.01587
-103.36957 338.80908 268.97949
83.434212 376.23755 209.90845
89.3937 376.23755 209.90845
95.353195 376.23755 209.90845
101.31291 376.23755 209.90845
106.19936 394.68066 180.80054
112.09946 394.68066 180.80054
117.99934 394.68066 180.80054
123.89921 394.68066 180.80054
129.79932 394.68066 180.80054
135.69919 394.68066 180.80054
141.5993 394.68066 180.80054
147.49918 394.68066 180.80054
153.39905 394.68066 180.80054
159.29916 394.68066 180.80054
165.19902 394.68066 180.80054
171.09912 394.68066 180.80054
176.99901 394.68066 180.80054
184.74689 376.23755 209.90845
190.70662 376.23755 209.90845
198.63335 357.79456 239.01587
204.65266 357.79456 239.01587
-231.06125 333.21179 266.60376
-224.98077 333.21179 266.60376
-216.69099 352.25366 236.66406
-210.67177 352.25366 236.66406
-204.65256 352.25366 236.66406
-198.63335 352.25366 236.66406
-192.61424 352.25366 236.66406
-184.74701 370.75171 207.57983
-178.7874 370.75171 207.57983
-172.8278 370.75171 207.57983
-166.86819 370.75171 207.57983
-162.51826 352.25366 236.66406
-156.49907 352.25366 236.66406
-148.9895 370.75171 207.57983
-143.02991 370.75171 207.57983
-138.44141 352.25366 236.66406
-132.4223 352.25366 236.66406
-126.40308 352.25366 236.66406
-120.38387 352.25366 236.66406
-114.36465 352.25366 236.66406
-108.34544 352.25366 236.66406
-103.36957 333.21179 266.60376
83.434212 370.75171 207.57983
89.3937 370.75171 207.57983
95.353195 370.75171 207.57983
101.31291 370.75171 207.57983
106.19936 389.24976 178.49512
112.09946 389.24976 178.49512
117.99934 389.24976 178.49512
123.89921 389.24976 178.49512
129.79932 389.24976 178.49512
135.69919 389.24976 178.49512
141.5993 389.24976 178.49512
147.49918 389.24976 178.49512
153.39905 389.24976 178.49512
159.29916 389.24976 178.49512
165.19902 389.24976 178.49512
171.09912 389.24976 178.49512
178.7874 370.75171 207.57983
184.74689 370.75171 207.57983
190.70662 370.75171 207.57983
198.63335 352.25366 236.66406
204.65266 352.25366 236.66406
-231.06125 327.61475 264.22778
-224.98077 327.61475 264.22778
-216.69099 346.71313 234.31226
-210.67177 346.71313 234.31226
-204.65256 346.71313 234.31226
-198.63335 346.71313 234.31226
-192.61424 346.71313 234.31226
-184.74701 365.26587 205.25122
-178.7874 365.26587 205.25122
-172.8278 365.26587 205.25122
-166.86819 365.26587 205.25122
-162.51826 346.71313 234.31226
-156.49907 346.71313 234.31226
-150.47984 346.71313 234.31226
-144.46062 346.71313 234.31226
-138.44141 346.71313 234.31226
-132.4223 346.71313 234.31226
-126.40308 346.71313 234.31226
-120.38387 346.71313 234.31226
-114.36465 346.71313 234.31226
-109.45004 327.61475 264.22778
-103.36957 327.61475 264.22778
83.434212 365.26587 205.25122
89.3937 365.26587 205.25122
95.353195 365.26587 205.25122
101.31291 365.26587 205.25122
107.27239 365.26587 205.25122
113.23211 365.26587 205.25122
117.99934 383.81885 176.18994
123.89921 383.81885 176.18994
129.79932 383.81885 176.18994
135.69919 383.81885 176.18994
141.5993 383.81885 176.18994
147.49918 383.81885 176.18994
153.39905 383.81885 176.18994
159.29916 383.81885 176.18994
165.19902 383.81885 176.18994
171.09912 383.81885 176.18994
178.7874 365.26587 205.25122
184.74689 365.26587 205.25122
190.70662 365.26587 205.25122
198.63335 346.71313 234.31226
204.65266 346.71313 234.31226
212.81961 327.61475 264.22778
-228.72931 341.17236 231.96021
-222.71021 341.17236 231.96021
-216.69099 341.17236 231.96021
-210.67177 341.17236 231.96021
-204.65256 341.17236 231.96021
-198.63335 341.17236 231.96021
-192.61424 341.17236 231.96021
-184.74701 359.78003 202.92261
-178.7874 359.78003 202.92261
-172.8278 359.78003 202.92261
-166.86819 359.78003 202.92261
-162.51826 341.17236 231.96021
-156.49907 341.17236 231.96021
-150.47984 341.17236 231.96021
-144.46062 341.17236 231.96021
-138.44141 341.17236 231.96021
-132.4223 341.17236 231.96021
-126.40308 341.17236 231.96021
-121.61121 322.01746 261.85205
-115.53062 322.01746 261.85205
-109.45004 322.01746 261.85205
-103.36957 322.01746 261.85205
84.268799 341.17236 231.96021
90.287903 341.17236 231.96021
96.307007 341.17236 231.96021
102.32633 341.17236 231.96021
107.27239 359.78003 202.92261
113.23211 359.78003 202.92261
117.99934 378.38782 173.88452
123.89921 378.38782 173.88452
129.79932 378.38782 173.88452
135.69919 378.38782 173.88452
141.5993 378.38782 173.88452
147.49918 378.38782 173.88452
153.39905 378.38782 173.88452
159.29916 378.38782 173.88452
165.19902 378.38782 173.88452
171.09912 378.38782 173.88452
178.7874 359.78003 202.92261
184.74689 359.78003 202.92261
192.61424 341.17236 231.96021
198.63335 341.17236 231.96021
204.65266 341.17236 231.96021
212.81961 322.01746 261.85205
-228.72931 335.63171 229.6084
-222.71021 335.63171 229.6084
-216.69099 335.63171 229.6084
-210.67177 335.63171 229.6084
-204.65256 335.63171 229.6084
-198.63335 335.63171 229.6084
-192.61424 335.63171 229.6084
-186.59503 335.63171 229.6084
-178.7874 354.29431 200.59399
-172.8278 354.29431 200.59399
-166.86819 354.29431 200.59399
-162.51826 335.63171 229.6084
-156.49907 335.63171 229.6084
-150.47984 335.63171 229.6084
-144.46062 335.63171 229.6084
-138.44141 335.63171 229.6084
-132.4223 335.63171 229.6084
-126.40308 335.63171 229.6084
-121.61121 316.42041 259.47607
-115.53062 316.42041 259.47607
-110.55464 297.20898 289.34399
-104.4128 297.20898 289.34399
84.268799 335.63171 229.6084
90.287903 335.63171 229.6084
95.353195 354.29431 200.59399
101.31291 354.29431 200.59399
107.27239 354.29431 200.59399
113.23211 354.29431 200.59399
119.1916 354.29431 200.59399
123.89921 372.95703 171.57935
129.79932 372.95703 171.57935
135.69919 372.95703 171.57935
141.5993 372.95703 171.57935
147.49918 372.95703 171.57935
153.39905 372.95703 171.57935
159.29916 372.95703 171.57935
165.19902 372.95703 171.57935
172.82793 354.29431 200.59399
178.7874 354.29431 200.59399
184.74689 354.29431 200.59399
192.61424 335.63171 229.6084
200.65845 316.42041 259.47607
206.73914 316.42041 259.47607
212.81961 316.42041 259.47607
-228.72931 330.09106 227.25659
-222.71021 330.09106 227.25659
-216.69099 330.09106 227.25659
-210.67177 330.09106 227.25659
-204.65256 330.09106 227.25659
-198.63335 330.09106 227.25659
-192.61424 330.09106 227.25659
-186.59503 330.09106 227.25659
-178.7874 348.80847 198.26538
-172.8278 348.80847 198.26538
-166.86819 348.80847 198.26538
-162.51826 330.09106 227.25659
-156.49907 330.09106 227.25659
-150.47984 330.09106 227.25659
-144.46062 330.09106 227.25659
-138.44141 330.09106 227.25659
-132.4223 330.09106 227.25659
-127.69179 310.82312 257.10034
-121.61121 310.82312 257.10034
-115.53062 310.82312 257.10034
-110.55464 291.55518 286.94409
-104.4128 291.55518 286.94409
89.3937 348.80847 198.26538
95.353195 348.80847 198.26538
101.31291 348.80847 198.26538
107.27239 348.80847 198.26538
113.23211 348.80847 198.26538
119.1916 348.80847 198.26538
123.89921 367.52588 169.27393
129.79932 367.52588 169.27393
135.69919 367.52588 169.27393
141.5993 367.52588 169.27393
147.49918 367.52588 169.27393
153.39905 367.52588 169.27393
159.29916 367.52588 169.27393
166.86819 348.80847 198.26538
172.82793 348.80847 198.26538
178.7874 348.80847 198.26538
186.59491 330.09106 227.25659
192.61424 330.09106 227.25659
200.65845 310.82312 257.10034
206.73914 310.82312 257.10034
212.81961 310.82312 257.10034
-228.72931 324.55042 224.90479
-222.71021 324.55042 224.90479
-216.69099 324.55042 224.90479
-210.67177 324.55042 224.90479
-204.65256 324.55042 224.90479
-198.63335 324.55042 224.90479
-192.61424 324.55042 224.90479
-186.59503 324.55042 224.90479
-180.57581 324.55042 224.90479
-172.8278 343.32275 195.93677
-166.86819 343.32275 195.93677
-162.51826 324.55042 224.90479
-156.49907 324.55042 224.90479
-150.47984 324.55042 224.90479
-145.93341 305.22595 254.72437
-139.85284 305.22595 254.72437
-133.77237 305.22595 254.72437
-127.69179 305.22595 254.72437
-121.61121 305.22595 254.72437
-116.69659 285.90161 284.54443
-110.55464 285.90161 284.54443
89.3937 343.32275 195.93677
95.353195 343.32275 195.93677
101.31291 343.32275 195.93677
107.27239 343.32275 195.93677
113.23211 343.32275 195.93677
119.1916 343.32275 195.93677
125.1511 343.32275 195.93677
131.11081 343.32275 195.93677
137.0703 343.32275 195.93677
141.5993 362.09497 166.96875
147.49918 362.09497 166.96875
154.94899 343.32275 195.93677
160.90871 343.32275 195.93677
166.86819 343.32275 195.93677
172.82793 343.32275 195.93677
178.7874 343.32275 195.93677
186.59491 324.55042 224.90479
192.61424 324.55042 224.90479
200.65845 305.22595 254.72437
206.73914 305.22595 254.72437
212.81961 305.22595 254.72437
218.90009 305.22595 254.72437
-228.72931 319.00952 222.55273
-222.71021 319.00952 222.55273
-216.69099 319.00952 222.55273
-210.67177 319.00952 222.55273
-204.65256 319.00952 222.55273
-198.63335 319.00952 222.55273
-192.61424 319.00952 222.55273
-184.74701 337.83691 193.60815
-178.7874 337.83691 193.60815
-174.55658 319.00952 222.55273
-168.53737 319.00952 222.55273
-162.51826 319.00952 222.55273
-156.49907 319.00952 222.55273
-150.47984 319.00952 222.55273
-145.93341 299.62866 252.34863
-139.85284 299.62866 252.34863
-133.77237 299.62866 252.34863
-127.69179 299.62866 252.34863
-122.83854 280.24792 282.14453
-116.69659 280.24792 282.14453
-110.55464 280.24792 282.14453
100.29948 356.66406 164.66333
106.19936 356.66406 164.66333
112.09946 356.66406 164.66333
119.1916 337.83691 193.60815
125.1511 337.83691 193.60815
131.11081 337.83691 193.60815
137.0703 337.83691 193.60815
143.03001 337.83691 193.60815
148.9895 337.83691 193.60815
154.94899 337.83691 193.60815
160.90871 337.83691 193.60815
166.86819 337.83691 193.60815
172.82793 337.83691 193.60815
178.7874 337.83691 193.60815
186.59491 319.00952 222.55273
192.61424 319.00952 222.55273
198.63335 319.00952 222.55273
204.65266 319.00952 222.55273
210.67177 319.00952 222.55273
218.90009 299.62866 252.34863
-222.71021 313.46899 220.20093
-216.69099 313.46899 220.20093
-210.67177 313.46899 220.20093
-204.65256 313.46899 220.20093
-198.63335 313.46899 220.20093
-192.61424 313.46899 220.20093
-184.74701 332.35107 191.27954
-178.7874 332.35107 191.27954
-174.55658 313.46899 220.20093
-168.53737 313.46899 220.20093
-162.51826 313.46899 220.20093
-156.49907 313.46899 220.20093
-150.47984 313.46899 220.20093
-145.93341 294.03174 249.97266
-139.85284 294.03174 249.97266
-133.77237 294.03174 249.97266
-128.98048 274.59424 279.74463
-122.83854 274.59424 279.74463
-116.69659 274.59424 279.74463
-110.55464 274.59424 279.74463
99.345665 369.00439 135.13818
105.18944 369.00439 135.13818
112.09946 351.23315 162.35815
119.1916 332.35107 191.27954
126.40298 313.46899 220.20093
132.4223 313.46899 220.20093
138.44141 313.46899 220.20093
143.03001 332.35107 191.27954
148.9895 332.35107 191.27954
154.94899 332.35107 191.27954
160.90871 332.35107 191.27954
166.86819 332.35107 191.27954
172.82793 332.35107 191.27954
178.7874 332.35107 191.27954
184.74689 332.35107 191.27954
192.61424 313.46899 220.20093
198.63335 313.46899 220.20093
204.65266 313.46899 220.20093
210.67177 313.46899 220.20093
-226.464 326.86523 188.95093
-220.50452 326.86523 188.95093
-216.69099 307.92822 217.84888
-212.81961 288.43433 247.59668
-204.65256 307.92822 217.84888
-198.63335 307.92822 217.84888
-192.61424 307.92822 217.84888
-186.59503 307.92822 217.84888
-180.57581 307.92822 217.84888
-174.55658 307.92822 217.84888
-168.53737 307.92822 217.84888
-162.51826 307.92822 217.84888
-156.49907 307.92822 217.84888
-150.47984 307.92822 217.84888
-144.46062 307.92822 217.84888
-139.85284 288.43433 247.59668
-133.77237 288.43433 247.59668
-128.98048 268.94055 277.34473
-122.83854 268.94055 277.34473
-116.69659 268.94055 277.34473
-110.55464 268.94055 277.34473
99.345665 363.625 132.85474
105.18944 363.625 132.85474
112.09946 345.80212 160.05273
119.1916 326.86523 188.95093
126.40298 307.92822 217.84888
132.4223 307.92822 217.84888
138.44141 307.92822 217.84888
143.03001 326.86523 188.95093
148.9895 326.86523 188.95093
154.94899 326.86523 188.95093
160.90871 326.86523 188.95093
166.86819 326.86523 188.95093
172.82793 326.86523 188.95093
178.7874 326.86523 188.95093
184.74689 326.86523 188.95093
192.61424 307.92822 217.84888
198.63335 307.92822 217.84888
204.65266 307.92822 217.84888
212.81961 288.43433 247.59668
218.90009 288.43433 247.59668
-220.50452 321.37939 186.62256
-216.69099 302.38757 215.49707
-210.67177 302.38757 215.49707
-204.65256 302.38757 215.49707
-198.63335 302.38757 215.49707
-192.61424 302.38757 215.49707
-186.59503 302.38757 215.49707
-180.57581 302.38757 215.49707
-174.55658 302.38757 215.49707
-168.53737 302.38757 215.49707
-162.51826 302.38757 215.49707
-156.49907 302.38757 215.49707
-150.47984 302.38757 215.49707
-144.46062 302.38757 215.49707
-139.85284 282.83728 245.22095
-133.77237 282.83728 245.22095
-128.98048 263.28699 274.94507
-122.83854 263.28699 274.94507
-116.69659 263.28699 274.94507
-110.55464 263.28699 274.94507
99.345665 358.24585 130.57153
119.1916 321.37939 186.62256
127.69167 282.83728 245.22095
133.77237 282.83728 245.22095
138.44141 302.38757 215.49707
144.46074 302.38757 215.49707
150.47984 302.38757 215.49707
156.49895 302.38757 215.49707
162.51826 302.38757 215.49707
168.53737 302.38757 215.49707
172.82793 321.37939 186.62256
178.7874 321.37939 186.62256
186.59491 302.38757 215.49707
192.61424 302.38757 215.49707
200.65845 282.83728 245.22095
206.73914 282.83728 245.22095
212.81961 282.83728 245.22095
218.90009 282.83728 245.22095
224.98077 282.83728 245.22095
-220.50452 315.89355 184.29395
-216.69099 296.8468 213.14526
-210.67177 296.8468 213.14526
-204.65256 296.8468 213.14526
-198.63335 296.8468 213.14526
-192.61424 296.8468 213.14526
-186.59503 296.8468 213.14526
-180.57581 296.8468 213.14526
-176.33621 277.23999 242.84497
-170.25565 277.23999 242.84497
-164.17517 277.23999 242.84497
-158.09459 277.23999 242.84497
-152.01401 277.23999 242.84497
-145.93341 277.23999 242.84497
-141.26427 257.6333 272.54517
-135.12244 257.6333 272.54517
-128.98048 257.6333 272.54517
-122.83854 257.6333 272.54517
-117.89587 237.46606 303.09375
121.61121 277.23999 242.84497
127.69167 277.23999 242.84497
133.77237 277.23999 242.84497
139.85284 277.23999 242.84497
145.93353 277.23999 242.84497
152.01401 277.23999 242.84497
156.49895 296.8468 213.14526
162.51826 296.8468 213.14526
168.53737 296.8468 213.14526
174.5567 296.8468 213.14526
180.57581 296.8468 213.14526
186.59491 296.8468 213.14526
192.61424 296.8468 213.14526
198.63335 296.8468 213.14526
204.65266 296.8468 213.14526
212.81961 277.23999 242.84497
216.69087 296.8468 213.14526
222.71021 296.8468 213.14526
228.72931 296.8468 213.14526
-232.4236 310.40771 181.96533
-226.464 310.40771 181.96533
-220.50452 310.40771 181.96533
-216.69099 291.30615 210.79321
-212.81961 271.64282 240.46924
-204.65256 291.30615 210.79321
-198.63335 291.30615 210.79321
-192.61424 291.30615 210.79321
-186.59503 291.30615 210.79321
-182.41681 271.64282 240.46924
-176.33621 271.64282 240.46924
-170.25565 271.64282 240.46924
-164.17517 271.64282 240.46924
-158.09459 271.64282 240.46924
-152.01401 271.64282 240.46924
-145.93341 271.64282 240.46924
-141.26427 251.97949 270.14526
-135.12244 251.97949 270.14526
-128.98048 251.97949 270.14526
-122.83854 251.97949 270.14526
119.1916 310.40771 181.96533
126.40298 291.30615 210.79321
132.4223 291.30615 210.79321
139.85284 271.64282 240.46924
145.93353 271.64282 240.46924
152.01401 271.64282 240.46924
156.49895 291.30615 210.79321
162.51826 291.30615 210.79321
168.53737 291.30615 210.79321
174.5567 291.30615 210.79321
180.57581 291.30615 210.79321
186.59491 291.30615 210.79321
192.61424 291.30615 210.79321
198.63335 291.30615 210.79321
204.65266 291.30615 210.79321
212.81961 271.64282 240.46924
216.69087 291.30615 210.79321
222.71021 291.30615 210.79321
-232.4236 304.92188 179.63672
-226.464 304.92188 179.63672
-220.50452 304.92188 179.63672
-216.69099 285.7655 208.44141
-212.81961 266.04565 238.09326
-204.65256 285.7655 208.44141
-198.63335 285.7655 208.44141
-194.57797 266.04565 238.09326
-188.49739 266.04565 238.09326
-182.41681 266.04565 238.09326
-176.33621 266.04565 238.09326
-170.25565 266.04565 238.09326
-164.17517 266.04565 238.09326
-158.09459 266.04565 238.09326
-152.01401 266.04565 238.09326
-147.40622 246.32593 267.74561
-141.26427 246.32593 267.74561
-135.12244 246.32593 267.74561
-128.98048 246.32593 267.74561
-122.83854 246.32593 267.74561
111.03343 342.10791 123.72119
119.1916 304.92188 179.63672
126.40298 285.7655 208.44141
132.4223 285.7655 208.44141
139.85284 266.04565 238.09326
145.93353 266.04565 238.09326
152.01401 266.04565 238.09326
156.49895 285.7655 208.44141
162.51826 285.7655 208.44141
168.53737 285.7655 208.44141
174.5567 285.7655 208.44141
180.57581 285.7655 208.44141
186.59491 285.7655 208.44141
192.61424 285.7655 208.44141
198.63335 285.7655 208.44141
204.65266 285.7655 208.44141
212.81961 266.04565 238.09326
218.90009 266.04565 238.09326
224.98077 266.04565 238.09326
-226.464 299.43604 177.30811
-220.50452 299.43604 177.30811
-216.69099 280.22461 206.0896
-212.81961 260.44836 235.71753
-204.65256 280.22461 206.0896
-198.63335 280.22461 206.0896
-194.57797 260.44836 235.71753
-188.49739 260.44836 235.71753
-182.41681 260.44836 235.71753
-176.33621 260.44836 235.71753
-171.97391 240.67212 265.3457
-165.83208 240.67212 265.3457
-159.69012 240.67212 265.3457
-153.54817 240.67212 265.3457
-147.40622 240.67212 265.3457
-141.26427 240.67212 265.3457
-135.12244 240.67212 265.3457
-128.98048 240.67212 265.3457
-122.83854 240.67212 265.3457
119.1916 299.43604 177.30811
126.40298 280.22461 206.0896
133.77237 260.44836 235.71753
139.85284 260.44836 235.71753
145.93353 260.44836 235.71753
150.47984 280.22461 206.0896
156.49895 280.22461 206.0896
162.51826 280.22461 206.0896
168.53737 280.22461 206.0896
174.5567 280.22461 206.0896
180.57581 280.22461 206.0896
186.59491 280.22461 206.0896
192.61424 280.22461 206.0896
198.63335 280.22461 206.0896
206.73914 260.44836 235.71753
212.81961 260.44836 235.71753
218.90009 260.44836 235.71753
224.98077 260.44836 235.71753
231.06125 260.44836 235.71753
-226.464 293.95032 174.97949
-220.50452 293.95032 174.97949
-216.69099 274.68408 203.73779
-212.81961 254.85132 233.34155
-206.73901 254.85132 233.34155
-200.65845 254.85132 233.34155
-194.57797 254.85132 233.34155
-188.49739 254.85132 233.34155
-184.25781 235.01855 262.9458
-178.11584 235.01855 262.9458
-171.97391 235.01855 262.9458
-165.83208 235.01855 262.9458
-159.69012 235.01855 262.9458
-153.54817 235.01855 262.9458
-147.40622 235.01855 262.9458
-139.85284 254.85132 233.34155
-133.77237 254.85132 233.34155
-127.69179 254.85132 233.34155
-121.61121 254.85132 233.34155
119.1916 293.95032 174.97949
126.40298 274.68408 203.73779
133.77237 254.85132 233.34155
139.85284 254.85132 233.34155
145.93353 254.85132 233.34155
150.47984 274.68408 203.73779
156.49895 274.68408 203.73779
162.51826 274.68408 203.73779
168.53737 274.68408 203.73779
174.5567 274.68408 203.73779
180.57581 274.68408 203.73779
186.59491 274.68408 203.73779
192.61424 274.68408 203.73779
200.65845 254.85132 233.34155
206.73914 254.85132 233.34155
212.81961 254.85132 233.34155
218.90009 254.85132 233.34155
224.98077 254.85132 233.34155
233.39317 235.01855 262.9458
-226.464 288.46436 172.65088
-220.50452 288.46436 172.65088
-216.69099 269.14331 201.38574
-212.81961 249.25415 230.96582
-206.73901 249.25415 230.96582
-200.65845 249.25415 230.96582
-194.57797 249.25415 230.96582
-188.49739 249.25415 230.96582
-184.25781 229.36487 260.5459
-178.11584 229.36487 260.5459
-171.97391 229.36487 260.5459
-165.83208 229.36487 260.5459
-159.69012 229.36487 260.5459
-153.54817 229.36487 260.5459
-147.40622 229.36487 260.5459
-139.85284 249.25415 230.96582
-133.77237 249.25415 230.96582
-127.69179 249.25415 230.96582
-121.61121 249.25415 230.96582
119.1916 288.46436 172.65088
126.40298 269.14331 201.38574
133.77237 249.25415 230.96582
139.85284 249.25415 230.96582
145.93353 249.25415 230.96582
150.47984 269.14331 201.38574
156.49895 269.14331 201.38574
162.51826 269.14331 201.38574
168.53737 269.14331 201.38574
174.5567 269.14331 201.38574
180.57581 269.14331 201.38574
186.59491 269.14331 201.38574
192.61424 269.14331 201.38574
200.65845 249.25415 230.96582
206.73914 249.25415 230.96582
212.81961 249.25415 230.96582
218.90009 249.25415 230.96582
224.98077 249.25415 230.96582
233.39317 229.36487 260.5459
239.53523 229.36487 260.5459
-226.464 282.97864 170.32227
-220.50452 282.97864 170.32227
-216.69099 263.60266 199.03394
-212.81961 243.65698 228.58984
-206.73901 243.65698 228.58984
-200.65845 243.65698 228.58984
-196.5417 223.71118 258.146
-190.39977 223.71118 258.146
-184.25781 223.71118 258.146
-178.11584 223.71118 258.146
-171.97391 223.71118 258.146
-165.83208 223.71118 258.146
-159.69012 223.71118 258.146
-153.54817 223.71118 258.146
-147.40622 223.71118 258.146
-141.26427 223.71118 258.146
-135.12244 223.71118 258.146
-128.98048 223.71118 258.146
114.36477 263.60266 199.03394
120.38387 263.60266 199.03394
127.69167 243.65698 228.58984
133.77237 243.65698 228.58984
139.85284 243.65698 228.58984
144.46074 263.60266 199.03394
150.47984 263.60266 199.03394
156.49895 263.60266 199.03394
162.51826 263.60266 199.03394
168.53737 263.60266 199.03394
174.5567 263.60266 199.03394
180.57581 263.60266 199.03394
186.59491 263.60266 199.03394
194.57797 243.65698 228.58984
200.65845 243.65698 228.58984
206.73914 243.65698 228.58984
212.81961 243.65698 228.58984
218.90009 243.65698 228.58984
227.25134 223.71118 258.146
233.39317 223.71118 258.146
239.53523 223.71118 258.146
-222.71021 258.06189 196.68188
-216.69099 258.06189 196.68188
-212.81961 238.05969 226.21387
-206.73901 238.05969 226.21387
-200.65845 238.05969 226.21387
-196.5417 218.0575 255.74634
-190.39977 218.0575 255.74634
-184.25781 218.0575 255.74634
-178.11584 218.0575 255.74634
-171.97391 218.0575 255.74634
-165.83208 218.0575 255.74634
-159.69012 218.0575 255.74634
-153.54817 218.0575 255.74634
-147.40622 218.0575 255.74634
-141.26427 218.0575 255.74634
-135.12244 218.0575 255.74634
-128.98048 218.0575 255.74634
114.36477 258.06189 196.68188
120.38387 258.06189 196.68188
127.69167 238.05969 226.21387
133.77237 238.05969 226.21387
139.85284 238.05969 226.21387
144.46074 258.06189 196.68188
150.47984 258.06189 196.68188
156.49895 258.06189 196.68188
162.51826 258.06189 196.68188
168.53737 258.06189 196.68188
174.5567 258.06189 196.68188
180.57581 258.06189 196.68188
188.49728 238.05969 226.21387
194.57797 238.05969 226.21387
200.65845 238.05969 226.21387
206.73914 238.05969 226.21387
212.81961 238.05969 226.21387
218.90009 238.05969 226.21387
227.25134 218.0575 255.74634
233.39317 218.0575 255.74634
241.99692 197.48364 286.12207
-222.71021 252.52124 194.33008
-216.69099 252.52124 194.33008
-212.81961 232.46265 223.83813
-206.73901 232.46265 223.83813
-202.68355 212.40381 253.34644
-196.5417 212.40381 253.34644
-190.39977 212.40381 253.34644
-184.25781 212.40381 253.34644
-178.11584 212.40381 253.34644
-171.97391 212.40381 253.34644
-165.83208 212.40381 253.34644
-159.69012 212.40381 253.34644
-153.54817 212.40381 253.34644
-147.40622 212.40381 253.34644
-141.26427 212.40381 253.34644
-136.51108 191.77197 283.69775
-130.30602 191.77197 283.69775
121.61121 232.46265 223.83813
127.69167 232.46265 223.83813
132.4223 252.52124 194.33008
138.44141 252.52124 194.33008
144.46074 252.52124 194.33008
150.47984 252.52124 194.33008
156.49895 252.52124 194.33008
162.51826 252.52124 194.33008
168.53737 252.52124 194.33008
174.5567 252.52124 194.33008
182.41681 232.46265 223.83813
188.49728 232.46265 223.83813
194.57797 232.46265 223.83813
200.65845 232.46265 223.83813
206.73914 232.46265 223.83813
212.81961 232.46265 223.83813
218.90009 232.46265 223.83813
227.25134 212.40381 253.34644
233.39317 212.40381 253.34644
241.99692 191.77197 283.69775
-224.98077 226.86536 221.4624
-218.90019 226.86536 221.4624
-214.96744 206.75012 250.94653
-208.82549 206.75012 250.94653
-202.68355 206.75012 250.94653
-196.5417 206.75012 250.94653
-190.39977 206.75012 250.94653
-184.25781 206.75012 250.94653
-178.11584 206.75012 250.94653
-171.97391 206.75012 250.94653
-165.83208 206.75012 250.94653
-159.69012 206.75012 250.94653
-153.54817 206.75012 250.94653
-147.40622 206.75012 250.94653
-141.26427 206.75012 250.94653
-136.51108 186.06006 281.27319
121.61121 226.86536 221.4624
127.69167 226.86536 221.4624
132.4223 246.98047 191.97827
138.44141 246.98047 191.97827
144.46074 246.98047 191.97827
150.47984 246.98047 191.97827
156.49895 246.98047 191.97827
162.51826 246.98047 191.97827
168.53737 246.98047 191.97827
174.5567 246.98047 191.97827
182.41681 226.86536 221.4624
188.49728 226.86536 221.4624
194.57797 226.86536 221.4624
200.65845 226.86536 221.4624
206.73914 226.86536 221.4624
212.81961 226.86536 221.4624
218.90009 226.86536 221.4624
227.25134 206.75012 250.94653
235.79173 186.06006 281.27319
-233.39317 201.09644 248.54688
-227.25134 201.09644 248.54688
-221.10941 201.09644 248.54688
-214.96744 201.09644 248.54688
-208.82549 201.09644 248.54688
-202.68355 201.09644 248.54688
-198.56155 180.34839 278.84863
-190.39977 201.09644 248.54688
-184.25781 201.09644 248.54688
-178.11584 201.09644 248.54688
-171.97391 201.09644 248.54688
-165.83208 201.09644 248.54688
-159.69012 201.09644 248.54688
-153.54817 201.09644 248.54688
-147.40622 201.09644 248.54688
-141.26427 201.09644 248.54688
-136.51108 180.34839 278.84863
127.69167 221.26831 219.08643
133.77237 221.26831 219.08643
138.44141 241.43994 189.62646
144.46074 241.43994 189.62646
150.47984 241.43994 189.62646
156.49895 241.43994 189.62646
162.51826 241.43994 189.62646
168.53737 241.43994 189.62646
176.33633 221.26831 219.08643
182.41681 221.26831 219.08643
188.49728 221.26831 219.08643
194.57797 221.26831 219.08643
200.65845 221.26831 219.08643
206.73914 221.26831 219.08643
212.81961 221.26831 219.08643
221.10928 201.09644 248.54688
227.25134 201.09644 248.54688
235.79173 180.34839 278.84863
-233.39317 195.44287 246.14697
-227.25134 195.44287 246.14697
-221.10941 195.44287 246.14697
-214.96744 195.44287 246.14697
-208.82549 195.44287 246.14697
-204.76649 174.63647 276.42407
-196.5417 195.44287 246.14697
-190.39977 195.44287 246.14697
-184.25781 195.44287 246.14697
-178.11584 195.44287 246.14697
-171.97391 195.44287 246.14697
-165.83208 195.44287 246.14697
-159.69012 195.44287 246.14697
-153.54817 195.44287 246.14697
-147.40622 195.44287 246.14697
-142.71603 174.63647 276.42407
-136.51108 174.63647 276.42407
127.69167 215.6709 216.71045
133.77237 215.6709 216.71045
139.85284 215.6709 216.71045
145.93353 215.6709 216.71045
152.01401 215.6709 216.71045
158.09448 215.6709 216.71045
164.17517 215.6709 216.71045
170.25565 215.6709 216.71045
176.33633 215.6709 216.71045
182.41681 215.6709 216.71045
188.49728 215.6709 216.71045
194.57797 215.6709 216.71045
200.65845 215.6709 216.71045
206.73914 215.6709 216.71045
212.81961 215.6709 216.71045
221.10928 195.44287 246.14697
229.58678 174.63647 276.42407
235.79173 174.63647 276.42407
-235.79173 168.9248 273.99976
-227.25134 189.78918 243.74707
-221.10941 189.78918 243.74707
-214.96744 189.78918 243.74707
-208.82549 189.78918 243.74707
-204.76649 168.9248 273.99976
-196.5417 189.78918 243.74707
-190.39977 189.78918 243.74707
-184.25781 189.78918 243.74707
-178.11584 189.78918 243.74707
-171.97391 189.78918 243.74707
-165.83208 189.78918 243.74707
-159.69012 189.78918 243.74707
-153.54817 189.78918 243.74707
-147.40622 189.78918 243.74707
-142.71603 168.9248 273.99976
126.40298 230.35852 184.92261
132.4223 230.35852 184.92261
138.44141 230.35852 184.92261
144.46074 230.35852 184.92261
150.47984 230.35852 184.92261
158.09448 210.07397 214.33472
164.17517 210.07397 214.33472
170.25565 210.07397 214.33472
176.33633 210.07397 214.33472
182.41681 210.07397 214.33472
188.49728 210.07397 214.33472
194.57797 210.07397 214.33472
200.65845 210.07397 214.33472
206.73914 210.07397 214.33472
212.81961 210.07397 214.33472
221.10928 189.78918 243.74707
229.58678 168.9248 273.99976
235.79173 168.9248 273.99976
-235.79173 163.21289 271.5752
-227.25134 184.1355 241.34717
-221.10941 184.1355 241.34717
-214.96744 184.1355 241.34717
-208.82549 184.1355 241.34717
-204.76649 163.21289 271.5752
-196.5417 184.1355 241.34717
-190.39977 184.1355 241.34717
-184.25781 184.1355 241.34717
-178.11584 184.1355 241.34717
-171.97391 184.1355 241.34717
-165.83208 184.1355 241.34717
-159.69012 184.1355 241.34717
-153.54817 184.1355 241.34717
-147.40622 184.1355 241.34717
-142.71603 163.21289 271.5752
126.40298 224.81775 182.5708
132.4223 224.81775 182.5708
138.44141 224.81775 182.5708
144.46074 224.81775 182.5708
150.47984 224.81775 182.5708
158.09448 204.47656 211.95898
164.17517 204.47656 211.95898
170.25565 204.47656 211.95898
176.33633 204.47656 211.95898
182.41681 204.47656 211.95898
188.49728 204.47656 211.95898
194.57797 204.47656 211.95898
200.65845 204.47656 211.95898
206.73914 204.47656 211.95898
212.81961 204.47656 211.95898
221.10928 184.1355 241.34717
229.58678 163.21289 271.5752
235.79173 163.21289 271.5752
-235.79173 157.50122 269.15063
-227.25134 178.48193 238.94751
-221.10941 178.48193 238.94751
-214.96744 178.48193 238.94751
-208.82549 178.48193 238.94751
-204.76649 157.50122 269.15063
-196.5417 178.48193 238.94751
-190.39977 178.48193 238.94751
-184.25781 178.48193 238.94751
-178.11584 178.48193 238.94751
-171.97391 178.48193 238.94751
-165.83208 178.48193 238.94751
-159.69012 178.48193 238.94751
-153.54817 178.48193 238.94751
-147.40622 178.48193 238.94751
-142.71603 157.50122 269.15063
127.69167 198.87952 209.58301
133.77237 198.87952 209.58301
138.44141 219.2771 180.21875
144.46074 219.2771 180.21875
150.47984 219.2771 180.21875
158.09448 198.87952 209.58301
164.17517 198.87952 209.58301
170.25565 198.87952 209.58301
176.33633 198.87952 209.58301
182.41681 198.87952 209.58301
188.49728 198.87952 209.58301
194.57797 198.87952 209.58301
200.65845 198.87952 209.58301
206.73914 198.87952 209.58301
214.96744 178.48193 238.94751
221.10928 178.48193 238.94751
229.58678 157.50122 269.15063
-235.79173 151.78955 266.72607
-229.58678 151.78955 266.72607
-223.38171 151.78955 266.72607
-217.17664 151.78955 266.72607
-210.97157 151.78955 266.72607
-204.76649 151.78955 266.72607
-196.5417 172.82812 236.54761
-190.39977 172.82812 236.54761
-184.25781 172.82812 236.54761
-178.11584 172.82812 236.54761
-171.97391 172.82812 236.54761
-165.83208 172.82812 236.54761
-159.69012 172.82812 236.54761
-153.54817 172.82812 236.54761
-147.40622 172.82812 236.54761
-142.71603 151.78955 266.72607
-137.93829 130.1665 297.74292
127.69167 193.28223 207.20703
133.77237 193.28223 207.20703
139.85284 193.28223 207.20703
145.93353 193.28223 207.20703
152.01401 193.28223 207.20703
158.09448 193.28223 207.20703
164.17517 193.28223 207.20703
170.25565 193.28223 207.20703
176.33633 193.28223 207.20703
182.41681 193.28223 207.20703
188.49728 193.28223 207.20703
194.57797 193.28223 207.20703
200.65845 193.28223 207.20703
206.73914 193.28223 207.20703
214.96744 172.82812 236.54761
221.10928 172.82812 236.54761
229.58678 151.78955 266.72607
235.79173 151.78955 266.72607
-238.25691 124.39502 295.29321
-229.58678 146.07764 264.30176
-223.38171 146.07764 264.30176
-217.17664 146.07764 264.30176
-210.97157 146.07764 264.30176
-204.76649 146.07764 264.30176
-196.5417 167.17432 234.14771
-190.39977 167.17432 234.14771
-184.25781 167.17432 234.14771
-178.11584 167.17432 234.14771
-171.97391 167.17432 234.14771
-165.83208 167.17432 234.14771
-159.69012 167.17432 234.14771
-153.54817 167.17432 234.14771
-147.40622 167.17432 234.14771
-142.71603 146.07764 264.30176
128.98036 167.17432 234.14771
133.77237 187.68506 204.8313
139.85284 187.68506 204.8313
145.93353 187.68506 204.8313
152.01401 187.68506 204.8313
158.09448 187.68506 204.8313
164.17517 187.68506 204.8313
170.25565 187.68506 204.8313
176.33633 187.68506 204.8313
182.41681 187.68506 204.8313
188.49728 187.68506 204.8313
194.57797 187.68506 204.8313
200.65845 187.68506 204.8313
206.73914 187.68506 204.8313
214.96744 167.17432 234.14771
221.10928 167.17432 234.14771
229.58678 146.07764 264.30176
235.79173 146.07764 264.30176
241.99692 146.07764 264.30176
-238.25691 118.62354 292.84326
-229.58678 140.36597 261.8772
-223.38171 140.36597 261.8772
-217.17664 140.36597 261.8772
-210.97157 140.36597 261.8772
-204.76649 140.36597 261.8772
-196.5417 161.52075 231.7478
-190.39977 161.52075 231.7478
-184.25781 161.52075 231.7478
-178.11584 161.52075 231.7478
-171.97391 161.52075 231.7478
-165.83208 161.52075 231.7478
-159.69012 161.52075 231.7478
-153.54817 161.52075 231.7478
-148.9211 140.36597 261.8772
128.98036 161.52075 231.7478
135.12244 161.52075 231.7478
139.85284 182.08789 202.45532
145.93353 182.08789 202.45532
152.01401 182.08789 202.45532
158.09448 182.08789 202.45532
164.17517 182.08789 202.45532
170.25565 182.08789 202.45532
176.33633 182.08789 202.45532
182.41681 182.08789 202.45532
188.49728 182.08789 202.45532
194.57797 182.08789 202.45532
200.65845 182.08789 202.45532
208.82561 161.52075 231.7478
214.96744 161.52075 231.7478
221.10928 161.52075 231.7478
227.25134 161.52075 231.7478
235.79173 140.36597 261.8772
241.99692 140.36597 261.8772
-238.25691 112.85181 290.39331
-229.58678 134.65405 259.45264
-223.38171 134.65405 259.45264
-217.17664 134.65405 259.45264
-210.97157 134.65405 259.45264
-204.76649 134.65405 259.45264
-198.56155 134.65405 259.45264
-190.39977 155.86694 229.3479
-184.25781 155.86694 229.3479
-178.11584 155.86694 229.3479
-171.97391 155.86694 229.3479
-165.83208 155.86694 229.3479
-161.33124 134.65405 259.45264
-155.12617 134.65405 259.45264
-148.9211 134.65405 259.45264
128.98036 155.86694 229.3479
135.12244 155.86694 229.3479
141.26427 155.86694 229.3479
145.93353 176.4906 200.07959
152.01401 176.4906 200.07959
158.09448 176.4906 200.07959
164.17517 176.4906 200.07959
170.25565 176.4906 200.07959
176.33633 176.4906 200.07959
182.41681 176.4906 200.07959
188.49728 176.4906 200.07959
194.57797 176.4906 200.07959
200.65845 176.4906 200.07959
206.73914 176.4906 200.07959
214.96744 155.86694 229.3479
221.10928 155.86694 229.3479
227.25134 155.86694 229.3479
233.39317 155.86694 229.3479
239.53523 155.86694 229.3479
248.20187 134.65405 259.45264
-238.25691 107.08057 287.9436
-229.58678 128.94238 257.02808
-223.38171 128.94238 257.02808
-217.17664 128.94238 257.02808
-210.97157 128.94238 257.02808
-204.76649 128.94238 257.02808
-198.56155 128.94238 257.02808
-190.39977 150.21338 226.94824
-184.25781 150.21338 226.94824
-178.11584 150.21338 226.94824
-171.97391 150.21338 226.94824
-167.53632 128.94238 257.02808
-161.33124 128.94238 257.02808
-155.12617 128.94238 257.02808
130.30589 128.94238 257.02808
135.12244 150.21338 226.94824
141.26427 150.21338 226.94824
147.40634 150.21338 226.94824
153.54817 150.21338 226.94824
159.69002 150.21338 226.94824
164.17517 170.89355 197.70361
170.25565 170.89355 197.70361
176.33633 170.89355 197.70361
182.41681 170.89355 197.70361
188.49728 170.89355 197.70361
194.57797 170.89355 197.70361
200.65845 170.89355 197.70361
206.73914 170.89355 197.70361
214.96744 150.21338 226.94824
221.10928 150.21338 226.94824
227.25134 150.21338 226.94824
233.39317 150.21338 226.94824
239.53523 150.21338 226.94824
248.20187 128.94238 257.02808
-240.78873 78.794922 317.21875
-231.98711 101.30908 285.49365
-223.38171 123.23047 254.60352
-217.17664 123.23047 254.60352
-210.97157 123.23047 254.60352
-204.76649 123.23047 254.60352
-198.56155 123.23047 254.60352
-190.39977 144.55981 224.54834
-184.25781 144.55981 224.54834
-178.11584 144.55981 224.54834
-171.97391 144.55981 224.54834
-167.53632 123.23047 254.60352
-161.33124 123.23047 254.60352
-155.12617 123.23047 254.60352
136.51108 123.23047 254.60352
141.26427 144.55981 224.54834
147.40634 144.55981 224.54834
153.54817 144.55981 224.54834
159.69002 144.55981 224.54834
165.83208 144.55981 224.54834
170.25565 165.29639 195.32764
176.33633 165.29639 195.32764
182.41681 165.29639 195.32764
188.49728 165.29639 195.32764
194.57797 165.29639 195.32764
200.65845 165.29639 195.32764
206.73914 165.29639 195.32764
214.96744 144.55981 224.54834
221.10928 144.55981 224.54834
227.25134 144.55981 224.54834
233.39317 144.55981 224.54834
239.53523 144.55981 224.54834
-240.78873 72.962158 314.74292
-231.98711 95.537598 283.04395
-223.38171 117.5188 252.1792
-217.17664 117.5188 252.1792
-210.97157 117.5188 252.1792
-204.76649 117.5188 252.1792
-198.56155 117.5188 252.1792
-192.35648 117.5188 252.1792
-186.15141 117.5188 252.1792
-179.94633 117.5188 252.1792
-173.74127 117.5188 252.1792
-167.53632 117.5188 252.1792
-163.01796 95.537598 283.04395
-158.41367 72.962158 314.74292
136.51108 117.5188 252.1792
141.26427 138.90601 222.14844
147.40634 138.90601 222.14844
153.54817 138.90601 222.14844
159.69002 138.90601 222.14844
165.83208 138.90601 222.14844
170.25565 159.69922 192.9519
176.33633 159.69922 192.9519
182.41681 159.69922 192.9519
188.49728 159.69922 192.9519
194.57797 159.69922 192.9519
200.65845 159.69922 192.9519
206.73914 159.69922 192.9519
212.81961 159.69922 192.9519
221.10928 138.90601 222.14844
227.25134 138.90601 222.14844
233.39317 138.90601 222.14844
241.99692 117.5188 252.1792
-240.78873 67.129395 312.26709
-231.98711 89.765869 280.59399
-223.38171 111.80713 249.75464
-217.17664 111.80713 249.75464
-210.97157 111.80713 249.75464
-204.76649 111.80713 249.75464
-198.56155 111.80713 249.75464
-192.35648 111.80713 249.75464
-186.15141 111.80713 249.75464
-179.94633 111.80713 249.75464
-173.74127 111.80713 249.75464
-169.2879 89.765869 280.59399
-163.01796 89.765869 280.59399
-158.41367 67.129395 312.26709
142.71603 111.80713 249.75464
148.92122 111.80713 249.75464
153.54817 133.25244 219.74854
159.69002 133.25244 219.74854
165.83208 133.25244 219.74854
170.25565 154.10181 190.57593
176.33633 154.10181 190.57593
182.41681 154.10181 190.57593
188.49728 154.10181 190.57593
194.57797 154.10181 190.57593
200.65845 154.10181 190.57593
206.73914 154.10181 190.57593
212.81961 154.10181 190.57593
221.10928 133.25244 219.74854
227.25134 133.25244 219.74854
233.39317 133.25244 219.74854
241.99692 111.80713 249.75464
-240.78873 61.296387 309.79126
-231.98711 83.994629 278.14429
-223.38171 106.09521 247.33008
-217.17664 106.09521 247.33008
-210.97157 106.09521 247.33008
-204.76649 106.09521 247.33008
-198.56155 106.09521 247.33008
-192.35648 106.09521 247.33008
-186.15141 106.09521 247.33008
-179.94633 106.09521 247.33008
-173.74127 106.09521 247.33008
-169.2879 83.994629 278.14429
-163.01796 83.994629 278.14429
142.71603 106.09521 247.33008
148.92122 106.09521 247.33008
153.54817 127.59863 217.34888
159.69002 127.59863 217.34888
165.83208 127.59863 217.34888
170.25565 148.50488 188.2002
176.33633 148.50488 188.2002
182.41681 148.50488 188.2002
188.49728 148.50488 188.2002
194.57797 148.50488 188.2002
200.65845 148.50488 188.2002
206.73914 148.50488 188.2002
212.81961 148.50488 188.2002
221.10928 127.59863 217.34888
227.25134 127.59863 217.34888
233.39317 127.59863 217.34888
239.53523 127.59863 217.34888
250.79681 83.994629 278.14429
-240.78873 55.463623 307.31519
-231.98711 78.223145 275.69434
-223.38171 100.3833 244.90552
-217.17664 100.3833 244.90552
-210.97157 100.3833 244.90552
-204.76649 100.3833 244.90552
-198.56155 100.3833 244.90552
-192.35648 100.3833 244.90552
-186.15141 100.3833 244.90552
-179.94633 100.3833 244.90552
-175.55771 78.223145 275.69434
-169.2879 78.223145 275.69434
-164.75024 55.463623 307.31519
140.90845 32.105469 339.76831
145.74052 55.463623 307.31519
150.47818 78.223145 275.69434
155.12617 100.3833 244.90552
159.69002 121.94507 214.94897
165.83208 121.94507 214.94897
171.97391 121.94507 214.94897
176.33633 142.90747 185.82422
182.41681 142.90747 185.82422
