ply
format ascii 1.0
comment PCL generated
element vertex 1559
property float x
property float y
property float z
element camera 0
property float view_px
property float view_py
property float view_pz
property float x_axisx
property float x_axisy
property float x_axisz
property float y_axisx
property float y_axisy
property float y_axisz
property float z_axisx
property float z_axisy
property float z_axisz
property float focal
property float scalex
property float scaley
property float centerx
property float centery
property int viewportx
property int viewporty
property float k1
property float k2
end_header
-116.10578 966.17126 37.726074
-109.87091 977.00171 14.078125
-104.63894 977.00171 14.078125
-99.406967 977.00171 14.078125
-94.175003 977.00171 14.078125
-88.168159 987.83215 -9.5700684
-82.981789 987.83215 -9.5700684
-77.795403 987.83215 -9.5700684
-71.995354 998.24597 -32.308838
-66.852806 998.24597 -32.308838
-61.710361 998.24597 -32.308838
-56.567814 998.24597 -32.308838
-51.42527 998.24597 -32.308838
-46.282722 998.24597 -32.308838
-41.490841 987.83215 -9.5700684
-36.304562 987.83215 -9.5700684
-31.118181 987.83215 -9.5700684
-25.931801 987.83215 -9.5700684
-20.394754 1008.6599 -55.047363
-15.296041 1008.6599 -55.047363
-10.197426 1008.6599 -55.047363
-5.0987129 1008.6599 -55.047363
0 1008.6599 -55.047363
5.0986156 1008.6599 -55.047363
10.197426 1008.6599 -55.047363
15.296041 1008.6599 -55.047363
20.394852 1008.6599 -55.047363
25.493467 1008.6599 -55.047363
30.592083 1008.6599 -55.047363
35.997726 998.24597 -32.308838
41.140175 998.24597 -32.308838
46.282822 998.24597 -32.308838
51.42527 998.24597 -32.308838
56.567715 998.24597 -32.308838
62.236362 987.83215 -9.5700684
67.422646 987.83215 -9.5700684
72.609123 987.83215 -9.5700684
77.795403 987.83215 -9.5700684
83.711067 977.00171 14.078125
88.943138 977.00171 14.078125
94.175003 977.00171 14.078125
99.407066 977.00171 14.078125
104.63894 977.00171 14.078125
110.82812 966.17126 37.726074
116.10578 966.17126 37.726074
121.38322 966.17126 37.726074
126.66088 966.17126 37.726074
131.93834 966.17126 37.726074
137.21579 966.17126 37.726074
142.49345 966.17126 37.726074
147.7709 966.17126 37.726074
154.42142 954.92444 62.283691
159.7462 954.92444 62.283691
166.53854 943.67737 86.841553
171.91087 943.67737 86.841553
177.283 943.67737 86.841553
182.65533 943.67737 86.841553
260.91888 954.92444 62.283691
266.24368 954.92444 62.283691
271.56848 954.92444 62.283691
276.89346 954.92444 62.283691
284.72726 943.67737 86.841553
287.54324 954.92444 62.283691
292.86804 954.92444 62.283691
298.19284 954.92444 62.283691
303.51782 954.92444 62.283691
308.84262 954.92444 62.283691
314.16763 954.92444 62.283691
319.4924 954.92444 62.283691
324.8172 954.92444 62.283691
333.0773 943.67737 86.841553
338.4494 943.67737 86.841553
346.96371 932.01392 112.30884
355.57602 920.35034 137.77588
361.04636 920.35034 137.77588
366.51685 920.35034 137.77588
-366.51685 915.31494 135.63843
-361.04645 915.31494 135.63843
-352.38495 927.02356 110.19043
-346.96362 927.02356 110.19043
-341.5423 927.02356 110.19043
-333.0773 938.7323 84.742432
-327.70502 938.7323 84.742432
-322.33282 938.7323 84.742432
-314.16751 950.02295 60.203125
-308.84262 950.02295 60.203125
-303.51782 950.02295 60.203125
-298.19293 950.02295 60.203125
-292.86804 950.02295 60.203125
-287.54315 950.02295 60.203125
-282.21826 950.02295 60.203125
-276.89346 950.02295 60.203125
-273.98291 938.7323 84.742432
-268.61069 938.7323 84.742432
-263.23843 938.7323 84.742432
-257.86621 938.7323 84.742432
-252.49408 938.7323 84.742432
-244.9442 950.02295 60.203125
-239.61931 950.02295 60.203125
-236.37737 938.7323 84.742432
-231.00513 938.7323 84.742432
-151.79655 927.02356 110.19043
-145.04982 938.7323 84.742432
-139.67758 938.7323 84.742432
-134.30534 938.7323 84.742432
-127.79694 950.02295 60.203125
-122.47205 950.02295 60.203125
-116.10578 961.31335 35.664062
-110.82822 961.31335 35.664062
-105.55067 961.31335 35.664062
-100.27312 961.31335 35.664062
-94.175003 972.18579 12.033691
-88.168159 983.05811 -11.596436
-82.981789 983.05811 -11.596436
-77.795403 983.05811 -11.596436
-71.995354 993.51233 -34.318115
-66.852806 993.51233 -34.318115
-61.710361 993.51233 -34.318115
-56.567814 993.51233 -34.318115
-51.863602 983.05811 -11.596436
-46.677223 983.05811 -11.596436
-41.490841 983.05811 -11.596436
-36.304562 983.05811 -11.596436
-31.118181 983.05811 -11.596436
-25.931801 983.05811 -11.596436
-20.394754 1003.9666 -57.039551
-15.296041 1003.9666 -57.039551
-10.197426 1003.9666 -57.039551
-5.0987129 1003.9666 -57.039551
0 1003.9666 -57.039551
5.0986156 1003.9666 -57.039551
10.197426 1003.9666 -57.039551
15.296041 1003.9666 -57.039551
20.394852 1003.9666 -57.039551
25.712635 993.51233 -34.318115
30.855083 993.51233 -34.318115
35.997726 993.51233 -34.318115
41.140175 993.51233 -34.318115
46.282822 993.51233 -34.318115
51.42527 993.51233 -34.318115
56.567715 993.51233 -34.318115
62.236362 983.05811 -11.596436
67.422646 983.05811 -11.596436
72.609123 983.05811 -11.596436
77.795403 983.05811 -11.596436
82.981682 983.05811 -11.596436
88.943138 972.18579 12.033691
94.175003 972.18579 12.033691
99.407066 972.18579 12.033691
104.63894 972.18579 12.033691
110.82812 961.31335 35.664062
116.10578 961.31335 35.664062
121.38322 961.31335 35.664062
126.66088 961.31335 35.664062
131.93834 961.31335 35.664062
137.21579 961.31335 35.664062
142.49345 961.31335 35.664062
147.7709 961.31335 35.664062
154.42142 950.02295 60.203125
159.7462 950.02295 60.203125
166.53854 938.7323 84.742432
171.91087 938.7323 84.742432
177.283 938.7323 84.742432
182.65533 938.7323 84.742432
188.02748 938.7323 84.742432
260.91888 950.02295 60.203125
266.24368 950.02295 60.203125
271.56848 950.02295 60.203125
279.35516 938.7323 84.742432
284.72726 938.7323 84.742432
287.54324 950.02295 60.203125
292.86804 950.02295 60.203125
298.19284 950.02295 60.203125
303.51782 950.02295 60.203125
308.84262 950.02295 60.203125
314.16763 950.02295 60.203125
319.4924 950.02295 60.203125
324.8172 950.02295 60.203125
333.0773 938.7323 84.742432
338.4494 938.7323 84.742432
346.96371 927.02356 110.19043
352.38495 927.02356 110.19043
357.80618 927.02356 110.19043
359.93835 938.7323 84.742432
365.31049 938.7323 84.742432
-366.51685 910.2793 133.50098
-361.04645 910.2793 133.50098
-352.38495 922.0332 108.07227
-346.96362 922.0332 108.07227
-341.5423 922.0332 108.07227
-333.0773 933.78711 82.643311
-327.70502 933.78711 82.643311
-322.33282 933.78711 82.643311
-314.16751 945.12122 58.122559
-308.84262 945.12122 58.122559
-303.51782 945.12122 58.122559
-298.19293 945.12122 58.122559
-292.86804 945.12122 58.122559
-287.54315 945.12122 58.122559
-282.21826 945.12122 58.122559
-276.89346 945.12122 58.122559
-271.56857 945.12122 58.122559
-268.61069 933.78711 82.643311
-263.23843 933.78711 82.643311
-257.86621 933.78711 82.643311
-252.49408 933.78711 82.643311
-247.12184 933.78711 82.643311
-146.37532 922.0332 108.07227
-139.67758 933.78711 82.643311
-134.30534 933.78711 82.643311
-127.79694 945.12122 58.122559
-122.47205 945.12122 58.122559
-116.10578 956.45532 33.602051
-110.82822 956.45532 33.602051
-105.55067 956.45532 33.602051
-100.27312 956.45532 33.602051
-94.175003 967.36975 9.989502
-88.168159 978.28394 -13.623047
-82.981789 978.28394 -13.623047
-77.795403 978.28394 -13.623047
-71.995354 988.77856 -36.327393
-66.852806 988.77856 -36.327393
-61.710361 988.77856 -36.327393
-56.567814 988.77856 -36.327393
-51.863602 978.28394 -13.623047
-46.677223 978.28394 -13.623047
-41.490841 978.28394 -13.623047
-36.304562 978.28394 -13.623047
-31.118181 978.28394 -13.623047
-25.931801 978.28394 -13.623047
-20.570087 988.77856 -36.327393
-15.427542 988.77856 -36.327393
-10.285093 988.77856 -36.327393
-5.1425467 988.77856 -36.327393
0 988.77856 -36.327393
5.1424484 988.77856 -36.327393
10.285093 988.77856 -36.327393
15.427542 988.77856 -36.327393
20.570187 988.77856 -36.327393
25.712635 988.77856 -36.327393
30.855083 988.77856 -36.327393
35.997726 988.77856 -36.327393
41.140175 988.77856 -36.327393
46.282822 988.77856 -36.327393
51.42527 988.77856 -36.327393
56.567715 988.77856 -36.327393
61.710361 988.77856 -36.327393
66.852806 988.77856 -36.327393
72.609123 978.28394 -13.623047
77.795403 978.28394 -13.623047
82.981682 978.28394 -13.623047
88.943138 967.36975 9.989502
94.175003 967.36975 9.989502
99.407066 967.36975 9.989502
104.63894 967.36975 9.989502
110.82812 956.45532 33.602051
116.10578 956.45532 33.602051
121.38322 956.45532 33.602051
126.66088 956.45532 33.602051
131.93834 956.45532 33.602051
137.21579 956.45532 33.602051
142.49345 956.45532 33.602051
147.7709 956.45532 33.602051
154.42142 945.12122 58.122559
159.7462 945.12122 58.122559
166.53854 933.78711 82.643311
171.91087 933.78711 82.643311
177.283 933.78711 82.643311
182.65533 933.78711 82.643311
188.02748 933.78711 82.643311
266.24368 945.12122 58.122559
271.56848 945.12122 58.122559
279.35516 933.78711 82.643311
284.72726 933.78711 82.643311
290.09964 933.78711 82.643311
295.47174 933.78711 82.643311
300.84387 933.78711 82.643311
306.21622 933.78711 82.643311
311.58835 933.78711 82.643311
316.96069 933.78711 82.643311
319.4924 945.12122 58.122559
324.8172 945.12122 58.122559
333.0773 933.78711 82.643311
338.4494 933.78711 82.643311
346.96371 922.0332 108.07227
352.38495 922.0332 108.07227
354.56601 933.78711 82.643311
359.93835 933.78711 82.643311
365.31049 933.78711 82.643311
370.68283 933.78711 82.643311
-363.2276 917.04297 105.9541
-357.80627 917.04297 105.9541
-352.38495 917.04297 105.9541
-343.82166 928.84204 80.544189
-338.4494 928.84204 80.544189
-333.0773 928.84204 80.544189
-327.70502 928.84204 80.544189
-319.4924 940.21973 56.041992
-314.16751 940.21973 56.041992
-308.84262 940.21973 56.041992
-303.51782 940.21973 56.041992
-298.19293 940.21973 56.041992
-292.86804 940.21973 56.041992
-287.54315 940.21973 56.041992
-282.21826 940.21973 56.041992
-276.89346 940.21973 56.041992
-271.56857 940.21973 56.041992
-266.24368 940.21973 56.041992
-263.23843 928.84204 80.544189
-257.86621 928.84204 80.544189
-252.49408 928.84204 80.544189
-247.12184 928.84204 80.544189
-146.37532 917.04297 105.9541
-139.67758 928.84204 80.544189
-134.30534 928.84204 80.544189
-127.79694 940.21973 56.041992
-122.47205 940.21973 56.041992
-116.10578 951.59741 31.539795
-110.82822 951.59741 31.539795
-105.55067 951.59741 31.539795
-100.27312 951.59741 31.539795
-94.175003 962.55371 7.9453125
-88.943138 962.55371 7.9453125
-82.981789 973.51001 -15.649414
-77.795403 973.51001 -15.649414
-71.995354 984.04492 -38.33667
-66.852806 984.04492 -38.33667
-62.236362 973.51001 -15.649414
-57.551434 962.55371 7.9453125
-51.863602 973.51001 -15.649414
-46.677223 973.51001 -15.649414
-41.490841 973.51001 -15.649414
-36.304562 973.51001 -15.649414
-31.118181 973.51001 -15.649414
-25.931801 973.51001 -15.649414
-20.570087 984.04492 -38.33667
-15.427542 984.04492 -38.33667
-10.285093 984.04492 -38.33667
-5.1425467 984.04492 -38.33667
0 984.04492 -38.33667
5.1424484 984.04492 -38.33667
10.285093 984.04492 -38.33667
15.427542 984.04492 -38.33667
20.570187 984.04492 -38.33667
25.712635 984.04492 -38.33667
30.855083 984.04492 -38.33667
35.997726 984.04492 -38.33667
41.140175 984.04492 -38.33667
46.282822 984.04492 -38.33667
51.42527 984.04492 -38.33667
56.567715 984.04492 -38.33667
61.710361 984.04492 -38.33667
66.852806 984.04492 -38.33667
72.609123 973.51001 -15.649414
77.795403 973.51001 -15.649414
83.711067 962.55371 7.9453125
88.943138 962.55371 7.9453125
94.175003 962.55371 7.9453125
99.407066 962.55371 7.9453125
105.55067 951.59741 31.539795
110.82812 951.59741 31.539795
116.10578 951.59741 31.539795
121.38322 951.59741 31.539795
126.66088 951.59741 31.539795
131.93834 951.59741 31.539795
137.21579 951.59741 31.539795
142.49345 951.59741 31.539795
147.7709 951.59741 31.539795
154.42142 940.21973 56.041992
159.7462 940.21973 56.041992
166.53854 928.84204 80.544189
171.91087 928.84204 80.544189
177.283 928.84204 80.544189
182.65533 928.84204 80.544189
188.02748 928.84204 80.544189
195.16696 917.04297 105.9541
266.24368 940.21973 56.041992
271.56848 940.21973 56.041992
279.35516 928.84204 80.544189
287.32922 917.04297 105.9541
290.09964 928.84204 80.544189
295.47174 928.84204 80.544189
300.84387 928.84204 80.544189
306.21622 928.84204 80.544189
311.58835 928.84204 80.544189
316.96069 928.84204 80.544189
319.4924 940.21973 56.041992
324.8172 940.21973 56.041992
330.14221 940.21973 56.041992
338.4494 928.84204 80.544189
343.82175 928.84204 80.544189
349.19388 928.84204 80.544189
354.56601 928.84204 80.544189
359.93835 928.84204 80.544189
365.31049 928.84204 80.544189
370.68283 928.84204 80.544189
-363.2276 912.05249 103.83569
-357.80627 912.05249 103.83569
-352.38495 912.05249 103.83569
-343.82166 923.89673 78.445068
-338.4494 923.89673 78.445068
-333.0773 923.89673 78.445068
-327.70502 923.89673 78.445068
-319.4924 935.31812 53.961426
-314.16751 935.31812 53.961426
-308.84262 935.31812 53.961426
-303.51782 935.31812 53.961426
-298.19293 935.31812 53.961426
-292.86804 935.31812 53.961426
-287.54315 935.31812 53.961426
-282.21826 935.31812 53.961426
-276.89346 935.31812 53.961426
-271.56857 935.31812 53.961426
-266.24368 935.31812 53.961426
-263.23843 923.89673 78.445068
-257.86621 923.89673 78.445068
-252.49408 923.89673 78.445068
-247.12184 923.89673 78.445068
-146.37532 912.05249 103.83569
-139.67758 923.89673 78.445068
-134.30534 923.89673 78.445068
-127.79694 935.31812 53.961426
-122.47205 935.31812 53.961426
-116.10578 946.73938 29.477783
-110.82822 946.73938 29.477783
-105.55067 946.73938 29.477783
-100.27312 946.73938 29.477783
-94.99556 946.73938 29.477783
-88.943138 957.73767 5.9008789
-82.981789 968.73584 -17.676025
-77.795403 968.73584 -17.676025
-72.609024 968.73584 -17.676025
-67.422646 968.73584 -17.676025
-62.236362 968.73584 -17.676025
-57.551434 957.73767 5.9008789
-52.319469 957.73767 5.9008789
-47.087502 957.73767 5.9008789
-41.490841 968.73584 -17.676025
-36.304562 968.73584 -17.676025
-31.118181 968.73584 -17.676025
-25.931801 968.73584 -17.676025
-20.570087 979.31116 -40.346191
-15.427542 979.31116 -40.346191
-10.285093 979.31116 -40.346191
-5.1425467 979.31116 -40.346191
0 979.31116 -40.346191
5.1424484 979.31116 -40.346191
10.285093 979.31116 -40.346191
15.427542 979.31116 -40.346191
20.570187 979.31116 -40.346191
25.712635 979.31116 -40.346191
30.855083 979.31116 -40.346191
35.997726 979.31116 -40.346191
41.490841 968.73584 -17.676025
46.282822 979.31116 -40.346191
51.42527 979.31116 -40.346191
56.567715 979.31116 -40.346191
61.710361 979.31116 -40.346191
66.852806 979.31116 -40.346191
72.609123 968.73584 -17.676025
77.795403 968.73584 -17.676025
83.711067 957.73767 5.9008789
88.943138 957.73767 5.9008789
94.175003 957.73767 5.9008789
100.27322 946.73938 29.477783
105.55067 946.73938 29.477783
110.82812 946.73938 29.477783
116.10578 946.73938 29.477783
121.38322 946.73938 29.477783
126.66088 946.73938 29.477783
131.93834 946.73938 29.477783
137.21579 946.73938 29.477783
142.49345 946.73938 29.477783
147.7709 946.73938 29.477783
154.42142 935.31812 53.961426
159.7462 935.31812 53.961426
166.53854 923.89673 78.445068
171.91087 923.89673 78.445068
177.283 923.89673 78.445068
182.65533 923.89673 78.445068
189.74574 912.05249 103.83569
195.16696 912.05249 103.83569
273.98282 923.89673 78.445068
279.35516 923.89673 78.445068
287.32922 912.05249 103.83569
292.75064 912.05249 103.83569
298.17188 912.05249 103.83569
300.84387 923.89673 78.445068
306.21622 923.89673 78.445068
311.58835 923.89673 78.445068
316.96069 923.89673 78.445068
319.4924 935.31812 53.961426
324.8172 935.31812 53.961426
330.14221 935.31812 53.961426
338.4494 923.89673 78.445068
343.82175 923.89673 78.445068
349.19388 923.89673 78.445068
354.56601 923.89673 78.445068
359.93835 923.89673 78.445068
365.31049 923.89673 78.445068
370.68283 923.89673 78.445068
376.05496 923.89673 78.445068
-377.45758 895.17285 127.08862
-371.98718 895.17285 127.08862
-363.2276 907.06226 101.71753
-357.80627 907.06226 101.71753
-352.38495 907.06226 101.71753
-343.82166 918.95166 76.346191
-338.4494 918.95166 76.346191
-333.0773 918.95166 76.346191
-327.70502 918.95166 76.346191
-322.33282 918.95166 76.346191
-314.16751 930.41663 51.880859
-308.84262 930.41663 51.880859
-303.51782 930.41663 51.880859
-298.19293 930.41663 51.880859
-292.86804 930.41663 51.880859
-287.54315 930.41663 51.880859
-282.21826 930.41663 51.880859
-276.89346 930.41663 51.880859
-273.98291 918.95166 76.346191
-268.61069 918.95166 76.346191
-263.23843 918.95166 76.346191
-257.86621 918.95166 76.346191
-254.80147 907.06226 101.71753
-249.38014 907.06226 101.71753
-151.79655 907.06226 101.71753
-145.04982 918.95166 76.346191
-139.67758 918.95166 76.346191
-134.30534 918.95166 76.346191
-127.79694 930.41663 51.880859
-122.47205 930.41663 51.880859
-117.14725 930.41663 51.880859
-110.82822 941.88147 27.415771
-105.55067 941.88147 27.415771
-100.27312 941.88147 27.415771
-94.99556 941.88147 27.415771
-89.718109 941.88147 27.415771
-83.711174 952.92175 3.8566895
-78.479202 952.92175 3.8566895
-73.247231 952.92175 3.8566895
-68.015266 952.92175 3.8566895
-63.330441 941.88147 27.415771
-58.052891 941.88147 27.415771
-52.319469 952.92175 3.8566895
-47.087502 952.92175 3.8566895
-41.855534 952.92175 3.8566895
-36.623669 952.92175 3.8566895
-31.391701 952.92175 3.8566895
-25.931801 963.96191 -19.702393
-20.570087 974.57751 -42.355469
-15.427542 974.57751 -42.355469
-10.37276 963.96191 -19.702393
-5.1863799 963.96191 -19.702393
0 963.96191 -19.702393
5.1862807 963.96191 -19.702393
10.37276 963.96191 -19.702393
15.559041 963.96191 -19.702393
20.74552 963.96191 -19.702393
25.931801 963.96191 -19.702393
31.118082 963.96191 -19.702393
36.304562 963.96191 -19.702393
41.490841 963.96191 -19.702393
46.677322 963.96191 -19.702393
51.863602 963.96191 -19.702393
57.049881 963.96191 -19.702393
62.236362 963.96191 -19.702393
67.422646 963.96191 -19.702393
72.609123 963.96191 -19.702393
77.795403 963.96191 -19.702393
83.711067 952.92175 3.8566895
88.943138 952.92175 3.8566895
94.175003 952.92175 3.8566895
100.27322 941.88147 27.415771
105.55067 941.88147 27.415771
110.82812 941.88147 27.415771
116.10578 941.88147 27.415771
121.38322 941.88147 27.415771
126.66088 941.88147 27.415771
131.93834 941.88147 27.415771
137.21579 941.88147 27.415771
142.49345 941.88147 27.415771
149.09642 930.41663 51.880859
155.79427 918.95166 76.346191
161.16641 918.95166 76.346191
166.53854 918.95166 76.346191
173.48186 907.06226 101.71753
178.90309 907.06226 101.71753
184.32451 907.06226 101.71753
189.74574 907.06226 101.71753
195.16696 907.06226 101.71753
281.90799 907.06226 101.71753
287.32922 907.06226 101.71753
292.75064 907.06226 101.71753
298.17188 907.06226 101.71753
298.19284 930.41663 51.880859
303.51782 930.41663 51.880859
311.58835 918.95166 76.346191
316.96069 918.95166 76.346191
322.33282 918.95166 76.346191
327.70493 918.95166 76.346191
333.0773 918.95166 76.346191
338.4494 918.95166 76.346191
346.96371 907.06226 101.71753
349.19388 918.95166 76.346191
354.56601 918.95166 76.346191
359.93835 918.95166 76.346191
365.31049 918.95166 76.346191
370.68283 918.95166 76.346191
376.05496 918.95166 76.346191
-377.45758 890.13721 124.95117
-371.98718 890.13721 124.95117
-366.51685 890.13721 124.95117
-361.04645 890.13721 124.95117
-352.38495 902.0719 99.599121
-343.82166 914.00647 74.24707
-338.4494 914.00647 74.24707
-333.0773 914.00647 74.24707
-327.70502 914.00647 74.24707
-322.33282 914.00647 74.24707
-314.16751 925.51501 49.800049
-308.84262 925.51501 49.800049
-303.51782 925.51501 49.800049
-298.19293 925.51501 49.800049
-292.86804 925.51501 49.800049
-287.54315 925.51501 49.800049
-282.21826 925.51501 49.800049
-276.89346 925.51501 49.800049
-273.98291 914.00647 74.24707
-268.61069 914.00647 74.24707
-263.23843 914.00647 74.24707
-151.79655 902.0719 99.599121
-145.04982 914.00647 74.24707
-138.44673 925.51501 49.800049
-133.12184 925.51501 49.800049
-127.79694 925.51501 49.800049
-122.47205 925.51501 49.800049
-117.14725 925.51501 49.800049
-110.82822 937.02332 25.353516
-105.55067 937.02332 25.353516
-100.27312 937.02332 25.353516
-94.99556 937.02332 25.353516
-89.718109 937.02332 25.353516
-84.440552 937.02332 25.353516
-78.479202 948.10559 1.8122559
-73.247231 948.10559 1.8122559
-68.015266 948.10559 1.8122559
-63.330441 937.02332 25.353516
-58.052891 937.02332 25.353516
-52.319469 948.10559 1.8122559
-47.087502 948.10559 1.8122559
-41.855534 948.10559 1.8122559
-36.623669 948.10559 1.8122559
-31.391701 948.10559 1.8122559
-25.931801 959.18774 -21.729004
-20.570087 969.84375 -44.364746
-15.427542 969.84375 -44.364746
-10.37276 959.18774 -21.729004
-5.1863799 959.18774 -21.729004
0 959.18774 -21.729004
5.1862807 959.18774 -21.729004
10.37276 959.18774 -21.729004
15.559041 959.18774 -21.729004
20.74552 959.18774 -21.729004
25.931801 959.18774 -21.729004
31.118082 959.18774 -21.729004
36.304562 959.18774 -21.729004
41.855534 948.10559 1.8122559
46.677322 959.18774 -21.729004
51.863602 959.18774 -21.729004
57.049881 959.18774 -21.729004
62.236362 959.18774 -21.729004
67.422646 959.18774 -21.729004
72.609123 959.18774 -21.729004
77.795403 959.18774 -21.729004
83.711067 948.10559 1.8122559
88.943138 948.10559 1.8122559
94.175003 948.10559 1.8122559
100.27322 937.02332 25.353516
105.55067 937.02332 25.353516
110.82812 937.02332 25.353516
116.10578 937.02332 25.353516
121.38322 937.02332 25.353516
126.66088 937.02332 25.353516
131.93834 937.02332 25.353516
137.21579 937.02332 25.353516
142.49345 937.02332 25.353516
150.42194 914.00647 74.24707
155.79427 914.00647 74.24707
161.16641 914.00647 74.24707
166.53854 914.00647 74.24707
171.91087 914.00647 74.24707
178.90309 902.0719 99.599121
184.32451 902.0719 99.599121
189.74574 902.0719 99.599121
195.16696 902.0719 99.599121
281.90799 902.0719 99.599121
287.32922 902.0719 99.599121
292.75064 902.0719 99.599121
295.47174 914.00647 74.24707
298.19284 925.51501 49.800049
303.51782 925.51501 49.800049
311.58835 914.00647 74.24707
316.96069 914.00647 74.24707
322.33282 914.00647 74.24707
327.70493 914.00647 74.24707
333.0773 914.00647 74.24707
338.4494 914.00647 74.24707
343.82175 914.00647 74.24707
349.19388 914.00647 74.24707
354.56601 914.00647 74.24707
359.93835 914.00647 74.24707
362.09137 925.51501 49.800049
367.41635 925.51501 49.800049
376.05496 914.00647 74.24707
-377.45758 885.10181 122.81372
-371.98718 885.10181 122.81372
-366.51685 885.10181 122.81372
-357.80627 897.08167 97.480957
-352.38495 897.08167 97.480957
-343.82166 909.0614 72.147949
-338.4494 909.0614 72.147949
-333.0773 909.0614 72.147949
-327.70502 909.0614 72.147949
-322.33282 909.0614 72.147949
-314.16751 920.61353 47.719482
-308.84262 920.61353 47.719482
-303.51782 920.61353 47.719482
-298.19293 920.61353 47.719482
-292.86804 920.61353 47.719482
-287.54315 920.61353 47.719482
-282.21826 920.61353 47.719482
-276.89346 920.61353 47.719482
-273.98291 909.0614 72.147949
-151.79655 897.08167 97.480957
-145.04982 909.0614 72.147949
-138.44673 920.61353 47.719482
-133.12184 920.61353 47.719482
-127.79694 920.61353 47.719482
-122.47205 920.61353 47.719482
-117.14725 920.61353 47.719482
-110.82822 932.16541 23.291504
-105.55067 932.16541 23.291504
-100.27312 932.16541 23.291504
-94.99556 932.16541 23.291504
-89.718109 932.16541 23.291504
-84.440552 932.16541 23.291504
-79.163002 932.16541 23.291504
-73.885452 932.16541 23.291504
-68.607895 932.16541 23.291504
-63.330441 932.16541 23.291504
-58.052891 932.16541 23.291504
-52.319469 943.28967 -0.23193359
-47.087502 943.28967 -0.23193359
-41.855534 943.28967 -0.23193359
-36.623669 943.28967 -0.23193359
-31.391701 943.28967 -0.23193359
-25.931801 954.4137 -23.755371
-20.570087 965.11011 -46.374023
-15.427542 965.11011 -46.374023
-10.37276 954.4137 -23.755371
-5.1863799 954.4137 -23.755371
0 954.4137 -23.755371
5.1862807 954.4137 -23.755371
10.37276 954.4137 -23.755371
15.559041 954.4137 -23.755371
20.927866 943.28967 -0.23193359
26.159735 943.28967 -0.23193359
31.391602 943.28967 -0.23193359
36.623669 943.28967 -0.23193359
41.855534 943.28967 -0.23193359
47.087601 943.28967 -0.23193359
52.319469 943.28967 -0.23193359
57.049881 954.4137 -23.755371
62.236362 954.4137 -23.755371
67.422646 954.4137 -23.755371
72.609123 954.4137 -23.755371
77.795403 954.4137 -23.755371
83.711067 943.28967 -0.23193359
88.943138 943.28967 -0.23193359
94.175003 943.28967 -0.23193359
99.407066 943.28967 -0.23193359
104.63894 943.28967 -0.23193359
110.82812 932.16541 23.291504
116.10578 932.16541 23.291504
121.38322 932.16541 23.291504
126.66088 932.16541 23.291504
133.12184 920.61353 47.719482
138.44662 920.61353 47.719482
143.77162 920.61353 47.719482
150.42194 909.0614 72.147949
155.79427 909.0614 72.147949
161.16641 909.0614 72.147949
166.53854 909.0614 72.147949
171.91087 909.0614 72.147949
178.90309 897.08167 97.480957
184.32451 897.08167 97.480957
191.464 885.10181 122.81372
196.93433 885.10181 122.81372
295.47174 909.0614 72.147949
298.19284 920.61353 47.719482
303.51782 920.61353 47.719482
311.58835 909.0614 72.147949
316.96069 909.0614 72.147949
322.33282 909.0614 72.147949
327.70493 909.0614 72.147949
333.0773 909.0614 72.147949
338.4494 909.0614 72.147949
343.82175 909.0614 72.147949
349.19388 909.0614 72.147949
354.56601 909.0614 72.147949
359.93835 909.0614 72.147949
362.09137 920.61353 47.719482
367.41635 920.61353 47.719482
376.05496 909.0614 72.147949
-372.74115 915.71191 45.638916
-367.41626 915.71191 45.638916
-362.09137 915.71191 45.638916
-359.93835 904.11621 70.048828
-357.80627 892.09119 95.362549
-349.19388 904.11621 70.048828
-343.82166 904.11621 70.048828
-338.4494 904.11621 70.048828
-333.0773 904.11621 70.048828
-327.70502 904.11621 70.048828
-322.33282 904.11621 70.048828
-316.9606 904.11621 70.048828
-308.84262 915.71191 45.638916
-303.51782 915.71191 45.638916
-298.19293 915.71191 45.638916
-292.86804 915.71191 45.638916
-287.54315 915.71191 45.638916
-282.21826 915.71191 45.638916
-151.79655 892.09119 95.362549
-145.04982 904.11621 70.048828
-138.44673 915.71191 45.638916
-133.12184 915.71191 45.638916
-127.79694 915.71191 45.638916
-122.47205 915.71191 45.638916
-117.14725 915.71191 45.638916
-111.82236 915.71191 45.638916
-106.49747 915.71191 45.638916
-101.17258 915.71191 45.638916
-95.847679 915.71191 45.638916
-89.718109 927.30737 21.229492
-84.440552 927.30737 21.229492
-79.163002 927.30737 21.229492
-73.885452 927.30737 21.229492
-68.607895 927.30737 21.229492
-63.330441 927.30737 21.229492
-58.052891 927.30737 21.229492
-52.775333 927.30737 21.229492
-47.087502 938.47351 -2.276123
-41.855534 938.47351 -2.276123
-36.942772 927.30737 21.229492
-31.391701 938.47351 -2.276123
-26.159735 938.47351 -2.276123
-20.74542 949.63965 -25.781738
-15.559041 949.63965 -25.781738
-10.37276 949.63965 -25.781738
-5.1863799 949.63965 -25.781738
0 949.63965 -25.781738
5.1862807 949.63965 -25.781738
10.37276 949.63965 -25.781738
15.695801 938.47351 -2.276123
20.927866 938.47351 -2.276123
26.159735 938.47351 -2.276123
31.391602 938.47351 -2.276123
36.623669 938.47351 -2.276123
41.855534 938.47351 -2.276123
47.087601 938.47351 -2.276123
52.319469 938.47351 -2.276123
57.551338 938.47351 -2.276123
62.236362 949.63965 -25.781738
67.422646 949.63965 -25.781738
72.609123 949.63965 -25.781738
77.795403 949.63965 -25.781738
83.711067 938.47351 -2.276123
88.943138 938.47351 -2.276123
94.175003 938.47351 -2.276123
99.407066 938.47351 -2.276123
104.63894 938.47351 -2.276123
110.82812 927.30737 21.229492
116.10578 927.30737 21.229492
121.38322 927.30737 21.229492
127.79705 915.71191 45.638916
133.12184 915.71191 45.638916
138.44662 915.71191 45.638916
145.04982 904.11621 70.048828
151.79655 892.09119 95.362549
157.21799 892.09119 95.362549
162.63921 892.09119 95.362549
168.06042 892.09119 95.362549
173.48186 892.09119 95.362549
178.90309 892.09119 95.362549
184.32451 892.09119 95.362549
191.464 880.06616 120.67627
196.93433 880.06616 120.67627
298.19284 915.71191 45.638916
303.51782 915.71191 45.638916
311.58835 904.11621 70.048828
316.96069 904.11621 70.048828
322.33282 904.11621 70.048828
327.70493 904.11621 70.048828
333.0773 904.11621 70.048828
338.4494 904.11621 70.048828
343.82175 904.11621 70.048828
349.19388 904.11621 70.048828
354.56601 904.11621 70.048828
359.93835 904.11621 70.048828
365.31049 904.11621 70.048828
370.68283 904.11621 70.048828
376.05496 904.11621 70.048828
381.42706 904.11621 70.048828
-372.74115 910.8103 43.55835
-367.41626 910.8103 43.55835
-362.09137 910.8103 43.55835
-359.93835 899.17114 67.949707
-354.5661 899.17114 67.949707
-349.19388 899.17114 67.949707
-343.82166 899.17114 67.949707
-338.4494 899.17114 67.949707
-333.0773 899.17114 67.949707
-327.70502 899.17114 67.949707
-322.33282 899.17114 67.949707
-316.9606 899.17114 67.949707
-311.58835 899.17114 67.949707
-306.21622 899.17114 67.949707
-298.19293 910.8103 43.55835
-292.86804 910.8103 43.55835
-290.09952 899.17114 67.949707
-284.72726 899.17114 67.949707
-151.79655 887.10095 93.244385
-145.04982 899.17114 67.949707
-139.67758 899.17114 67.949707
-134.30534 899.17114 67.949707
-127.79694 910.8103 43.55835
-122.47205 910.8103 43.55835
-117.14725 910.8103 43.55835
-111.82236 910.8103 43.55835
-106.49747 910.8103 43.55835
-101.17258 910.8103 43.55835
-95.847679 910.8103 43.55835
-89.718109 922.44946 19.167236
-84.440552 922.44946 19.167236
-79.163002 922.44946 19.167236
-73.885452 922.44946 19.167236
-68.607895 922.44946 19.167236
-63.330441 922.44946 19.167236
-58.052891 922.44946 19.167236
-52.775333 922.44946 19.167236
-47.49778 922.44946 19.167236
-42.22023 922.44946 19.167236
-36.942772 922.44946 19.167236
-31.66522 922.44946 19.167236
-26.159735 933.65759 -4.3205566
-20.74542 944.8656 -27.80835
-15.559041 944.8656 -27.80835
-10.37276 944.8656 -27.80835
-5.1863799 944.8656 -27.80835
0 944.8656 -27.80835
5.1862807 944.8656 -27.80835
10.37276 944.8656 -27.80835
15.695801 933.65759 -4.3205566
20.927866 933.65759 -4.3205566
26.159735 933.65759 -4.3205566
31.391602 933.65759 -4.3205566
36.623669 933.65759 -4.3205566
41.855534 933.65759 -4.3205566
47.087601 933.65759 -4.3205566
52.319469 933.65759 -4.3205566
57.551338 933.65759 -4.3205566
62.236362 944.8656 -27.80835
67.422646 944.8656 -27.80835
72.609123 944.8656 -27.80835
77.795403 944.8656 -27.80835
83.711067 933.65759 -4.3205566
88.943138 933.65759 -4.3205566
94.175003 933.65759 -4.3205566
99.407066 933.65759 -4.3205566
104.63894 933.65759 -4.3205566
110.82812 922.44946 19.167236
116.10578 922.44946 19.167236
121.38322 922.44946 19.167236
127.79705 910.8103 43.55835
133.12184 910.8103 43.55835
138.44662 910.8103 43.55835
143.77162 910.8103 43.55835
150.42194 899.17114 67.949707
155.79427 899.17114 67.949707
161.16641 899.17114 67.949707
166.53854 899.17114 67.949707
173.48186 887.10095 93.244385
178.90309 887.10095 93.244385
184.32451 887.10095 93.244385
191.464 875.03076 118.53882
196.93433 875.03076 118.53882
300.84387 899.17114 67.949707
306.21622 899.17114 67.949707
311.58835 899.17114 67.949707
316.96069 899.17114 67.949707
322.33282 899.17114 67.949707
327.70493 899.17114 67.949707
333.0773 899.17114 67.949707
341.5423 887.10095 93.244385
346.96371 887.10095 93.244385
352.38495 887.10095 93.244385
357.80618 887.10095 93.244385
359.93835 899.17114 67.949707
365.31049 899.17114 67.949707
370.68283 899.17114 67.949707
376.05496 899.17114 67.949707
381.42706 899.17114 67.949707
-386.79941 894.22595 65.850586
-381.42715 894.22595 65.850586
-372.74115 905.90869 41.477783
-367.41626 905.90869 41.477783
-362.09137 905.90869 41.477783
-356.76657 905.90869 41.477783
-354.5661 894.22595 65.850586
-349.19388 894.22595 65.850586
-343.82166 894.22595 65.850586
-338.4494 894.22595 65.850586
-333.0773 894.22595 65.850586
-327.70502 894.22595 65.850586
-322.33282 894.22595 65.850586
-319.85709 882.1106 91.125977
-314.43576 882.1106 91.125977
-306.21622 894.22595 65.850586
-300.84396 894.22595 65.850586
-295.47174 894.22595 65.850586
-292.75055 882.1106 91.125977
-289.93118 869.99512 116.40137
-145.04982 894.22595 65.850586
-139.67758 894.22595 65.850586
-134.30534 894.22595 65.850586
-127.79694 905.90869 41.477783
-122.47205 905.90869 41.477783
-117.14725 905.90869 41.477783
-111.82236 905.90869 41.477783
-106.49747 905.90869 41.477783
-101.17258 905.90869 41.477783
-95.847679 905.90869 41.477783
-90.522888 905.90869 41.477783
-84.440552 917.59143 17.105225
-79.163002 917.59143 17.105225
-73.885452 917.59143 17.105225
-68.607895 917.59143 17.105225
-63.330441 917.59143 17.105225
-58.052891 917.59143 17.105225
-52.775333 917.59143 17.105225
-47.49778 917.59143 17.105225
-42.22023 917.59143 17.105225
-36.942772 917.59143 17.105225
-31.66522 917.59143 17.105225
-26.159735 928.84143 -6.3647461
-20.74542 940.09143 -29.834717
-15.559041 940.09143 -29.834717
-10.37276 940.09143 -29.834717
-5.1863799 940.09143 -29.834717
0 940.09143 -29.834717
5.1862807 940.09143 -29.834717
10.463933 928.84143 -6.3647461
15.695801 928.84143 -6.3647461
20.927866 928.84143 -6.3647461
26.159735 928.84143 -6.3647461
31.391602 928.84143 -6.3647461
36.623669 928.84143 -6.3647461
41.855534 928.84143 -6.3647461
47.087601 928.84143 -6.3647461
52.319469 928.84143 -6.3647461
57.551338 928.84143 -6.3647461
62.236362 940.09143 -29.834717
67.422646 940.09143 -29.834717
72.609123 940.09143 -29.834717
78.479202 928.84143 -6.3647461
83.711067 928.84143 -6.3647461
88.943138 928.84143 -6.3647461
94.99556 917.59143 17.105225
100.27322 917.59143 17.105225
105.55067 917.59143 17.105225
110.82812 917.59143 17.105225
116.10578 917.59143 17.105225
121.38322 917.59143 17.105225
126.66088 917.59143 17.105225
133.12184 905.90869 41.477783
138.44662 905.90869 41.477783
143.77162 905.90869 41.477783
150.42194 894.22595 65.850586
155.79427 894.22595 65.850586
161.16641 894.22595 65.850586
166.53854 894.22595 65.850586
173.48186 882.1106 91.125977
178.90309 882.1106 91.125977
185.9937 869.99512 116.40137
300.84387 894.22595 65.850586
306.21622 894.22595 65.850586
308.84262 905.90869 41.477783
314.16763 905.90869 41.477783
319.4924 905.90869 41.477783
327.70493 894.22595 65.850586
333.0773 894.22595 65.850586
341.5423 882.1106 91.125977
346.96371 882.1106 91.125977
352.38495 882.1106 91.125977
357.80618 882.1106 91.125977
359.93835 894.22595 65.850586
365.31049 894.22595 65.850586
370.68283 894.22595 65.850586
376.05496 894.22595 65.850586
381.42706 894.22595 65.850586
386.79941 894.22595 65.850586
-386.79941 889.28088 63.751465
-381.42715 889.28088 63.751465
-372.74115 901.0072 39.397217
-367.41626 901.0072 39.397217
-362.09137 901.0072 39.397217
-356.76657 901.0072 39.397217
-354.5661 889.28088 63.751465
-349.19388 889.28088 63.751465
-343.82166 889.28088 63.751465
-338.4494 889.28088 63.751465
-333.0773 889.28088 63.751465
-327.70502 889.28088 63.751465
-325.27841 877.12024 89.007812
-319.85709 877.12024 89.007812
-314.43576 877.12024 89.007812
-306.21622 889.28088 63.751465
-300.84396 889.28088 63.751465
-295.47174 889.28088 63.751465
-295.40158 864.95972 114.26392
-145.04982 889.28088 63.751465
-139.67758 889.28088 63.751465
-134.30534 889.28088 63.751465
-127.79694 901.0072 39.397217
-122.47205 901.0072 39.397217
-117.14725 901.0072 39.397217
-111.82236 901.0072 39.397217
-106.49747 901.0072 39.397217
-101.17258 901.0072 39.397217
-95.847679 901.0072 39.397217
-90.522888 901.0072 39.397217
-84.440552 912.73352 15.043213
-79.163002 912.73352 15.043213
-73.885452 912.73352 15.043213
-68.607895 912.73352 15.043213
-63.330441 912.73352 15.043213
-58.052891 912.73352 15.043213
-52.775333 912.73352 15.043213
-47.49778 912.73352 15.043213
-42.22023 912.73352 15.043213
-36.942772 912.73352 15.043213
-31.391701 924.02551 -8.4089355
-26.159735 924.02551 -8.4089355
-20.74542 935.3175 -31.861328
-15.559041 935.3175 -31.861328
-10.37276 935.3175 -31.861328
-5.1863799 935.3175 -31.861328
0 935.3175 -31.861328
5.1862807 935.3175 -31.861328
10.463933 924.02551 -8.4089355
15.695801 924.02551 -8.4089355
20.927866 924.02551 -8.4089355
26.159735 924.02551 -8.4089355
31.391602 924.02551 -8.4089355
36.623669 924.02551 -8.4089355
41.855534 924.02551 -8.4089355
47.087601 924.02551 -8.4089355
52.319469 924.02551 -8.4089355
57.551338 924.02551 -8.4089355
62.783401 924.02551 -8.4089355
68.015266 924.02551 -8.4089355
73.247337 924.02551 -8.4089355
78.479202 924.02551 -8.4089355
83.711067 924.02551 -8.4089355
88.943138 924.02551 -8.4089355
94.175003 924.02551 -8.4089355
100.27322 912.73352 15.043213
105.55067 912.73352 15.043213
110.82812 912.73352 15.043213
116.10578 912.73352 15.043213
121.38322 912.73352 15.043213
126.66088 912.73352 15.043213
131.93834 912.73352 15.043213
138.44662 901.0072 39.397217
143.77162 901.0072 39.397217
150.42194 889.28088 63.751465
155.79427 889.28088 63.751465
161.16641 889.28088 63.751465
168.06042 877.12024 89.007812
173.48186 877.12024 89.007812
178.90309 877.12024 89.007812
184.32451 877.12024 89.007812
189.74574 877.12024 89.007812
303.51782 901.0072 39.397217
308.84262 901.0072 39.397217
314.16763 901.0072 39.397217
319.4924 901.0072 39.397217
327.70493 889.28088 63.751465
333.0773 889.28088 63.751465
341.5423 877.12024 89.007812
346.96371 877.12024 89.007812
352.38495 877.12024 89.007812
357.80618 877.12024 89.007812
359.93835 889.28088 63.751465
365.31049 889.28088 63.751465
370.68283 889.28088 63.751465
376.05496 889.28088 63.751465
381.42706 889.28088 63.751465
386.79941 889.28088 63.751465
-394.04062 896.10559 37.31665
-388.71573 896.10559 37.31665
-383.39093 896.10559 37.31665
-378.06604 896.10559 37.31665
-372.74115 896.10559 37.31665
-367.41626 896.10559 37.31665
-362.09137 896.10559 37.31665
-359.93835 884.33557 61.652344
-354.5661 884.33557 61.652344
-349.19388 884.33557 61.652344
-343.82166 884.33557 61.652344
-338.4494 884.33557 61.652344
-333.0773 884.33557 61.652344
-330.69974 872.12988 86.889404
-325.27841 872.12988 86.889404
-319.85709 872.12988 86.889404
-314.43576 872.12988 86.889404
-309.01453 872.12988 86.889404
-303.5932 872.12988 86.889404
-298.17188 872.12988 86.889404
-295.40158 859.92407 112.12622
-143.77162 896.10559 37.31665
-138.44673 896.10559 37.31665
-133.12184 896.10559 37.31665
-127.79694 896.10559 37.31665
-122.47205 896.10559 37.31665
-117.14725 896.10559 37.31665
-111.82236 896.10559 37.31665
-106.49747 896.10559 37.31665
-101.17258 896.10559 37.31665
-94.99556 907.87549 12.980957
-89.718109 907.87549 12.980957
-84.440552 907.87549 12.980957
-79.163002 907.87549 12.980957
-73.885452 907.87549 12.980957
-68.607895 907.87549 12.980957
-63.330441 907.87549 12.980957
-58.052891 907.87549 12.980957
-52.775333 907.87549 12.980957
-47.49778 907.87549 12.980957
-41.855534 919.20947 -10.453369
-36.623669 919.20947 -10.453369
-31.391701 919.20947 -10.453369
-26.159735 919.20947 -10.453369
-20.570087 941.44141 -56.420898
-15.427542 941.44141 -56.420898
-10.285093 941.44141 -56.420898
-5.1863799 930.54333 -33.887695
0 930.54333 -33.887695
5.1862807 930.54333 -33.887695
10.463933 919.20947 -10.453369
15.695801 919.20947 -10.453369
20.927866 919.20947 -10.453369
26.159735 919.20947 -10.453369
31.391602 919.20947 -10.453369
36.623669 919.20947 -10.453369
41.855534 919.20947 -10.453369
47.087601 919.20947 -10.453369
52.319469 919.20947 -10.453369
57.551338 919.20947 -10.453369
62.783401 919.20947 -10.453369
68.015266 919.20947 -10.453369
73.247337 919.20947 -10.453369
78.479202 919.20947 -10.453369
83.711067 919.20947 -10.453369
88.943138 919.20947 -10.453369
94.175003 919.20947 -10.453369
99.407066 919.20947 -10.453369
105.55067 907.87549 12.980957
110.82812 907.87549 12.980957
116.10578 907.87549 12.980957
121.38322 907.87549 12.980957
126.66088 907.87549 12.980957
131.93834 907.87549 12.980957
137.21579 907.87549 12.980957
142.49345 907.87549 12.980957
147.7709 907.87549 12.980957
155.79427 884.33557 61.652344
161.16641 884.33557 61.652344
166.53854 884.33557 61.652344
173.48186 872.12988 86.889404
178.90309 872.12988 86.889404
184.32451 872.12988 86.889404
189.74574 872.12988 86.889404
303.51782 896.10559 37.31665
308.84262 896.10559 37.31665
314.16763 896.10559 37.31665
319.4924 896.10559 37.31665
327.70493 884.33557 61.652344
336.12106 872.12988 86.889404
341.5423 872.12988 86.889404
346.96371 872.12988 86.889404
352.38495 872.12988 86.889404
357.80618 872.12988 86.889404
363.2276 872.12988 86.889404
365.31049 884.33557 61.652344
370.68283 884.33557 61.652344
376.05496 884.33557 61.652344
381.42706 884.33557 61.652344
386.79941 884.33557 61.652344
392.17154 884.33557 61.652344
-388.71573 891.2041 35.236084
-383.39093 891.2041 35.236084
-378.06604 891.2041 35.236084
-372.74115 891.2041 35.236084
-367.41626 891.2041 35.236084
-365.31049 879.39062 59.553467
-359.93835 879.39062 59.553467
-354.5661 879.39062 59.553467
-349.19388 879.39062 59.553467
-343.82166 879.39062 59.553467
-338.4494 879.39062 59.553467
-333.0773 879.39062 59.553467
-330.69974 867.13965 84.77124
-325.27841 867.13965 84.77124
-319.85709 867.13965 84.77124
-314.43576 867.13965 84.77124
-309.01453 867.13965 84.77124
-303.5932 867.13965 84.77124
-298.17188 867.13965 84.77124
-295.40158 854.88867 109.98901
-143.77162 891.2041 35.236084
-138.44673 891.2041 35.236084
-133.12184 891.2041 35.236084
-127.79694 891.2041 35.236084
-122.47205 891.2041 35.236084
-117.14725 891.2041 35.236084
-111.82236 891.2041 35.236084
-106.49747 891.2041 35.236084
-101.17258 891.2041 35.236084
-94.99556 903.01746 10.918945
-89.718109 903.01746 10.918945
-84.440552 903.01746 10.918945
-79.163002 903.01746 10.918945
-73.885452 903.01746 10.918945
-68.607895 903.01746 10.918945
-63.330441 903.01746 10.918945
-58.052891 903.01746 10.918945
-52.775333 903.01746 10.918945
-47.49778 903.01746 10.918945
-41.855534 914.39343 -12.497559
-36.623669 914.39343 -12.497559
-31.391701 914.39343 -12.497559
-26.159735 914.39343 -12.497559
-20.570087 936.70776 -58.430176
-15.427542 936.70776 -58.430176
-10.285093 936.70776 -58.430176
-5.1863799 925.76929 -35.914062
0 925.76929 -35.914062
5.1862807 925.76929 -35.914062
10.463933 914.39343 -12.497559
15.695801 914.39343 -12.497559
20.927866 914.39343 -12.497559
26.159735 914.39343 -12.497559
31.391602 914.39343 -12.497559
36.623669 914.39343 -12.497559
41.855534 914.39343 -12.497559
47.087601 914.39343 -12.497559
52.319469 914.39343 -12.497559
57.551338 914.39343 -12.497559
62.783401 914.39343 -12.497559
68.015266 914.39343 -12.497559
73.247337 914.39343 -12.497559
78.479202 914.39343 -12.497559
83.711067 914.39343 -12.497559
88.943138 914.39343 -12.497559
94.175003 914.39343 -12.497559
99.407066 914.39343 -12.497559
105.55067 903.01746 10.918945
110.82812 903.01746 10.918945
116.10578 903.01746 10.918945
121.38322 903.01746 10.918945
126.66088 903.01746 10.918945
131.93834 903.01746 10.918945
137.21579 903.01746 10.918945
142.49345 903.01746 10.918945
147.7709 903.01746 10.918945
154.42142 891.2041 35.236084
161.16641 879.39062 59.553467
166.53854 879.39062 59.553467
173.48186 867.13965 84.77124
178.90309 867.13965 84.77124
184.32451 867.13965 84.77124
189.74574 867.13965 84.77124
309.01453 867.13965 84.77124
314.43576 867.13965 84.77124
319.85718 867.13965 84.77124
325.27841 867.13965 84.77124
330.69965 867.13965 84.77124
336.12106 867.13965 84.77124
341.5423 867.13965 84.77124
346.96371 867.13965 84.77124
352.38495 867.13965 84.77124
357.80618 867.13965 84.77124
363.2276 867.13965 84.77124
368.64883 867.13965 84.77124
370.68283 879.39062 59.553467
376.05496 879.39062 59.553467
381.42706 879.39062 59.553467
386.79941 879.39062 59.553467
392.17154 879.39062 59.553467
-394.04062 886.30249 33.155518
-388.71573 886.30249 33.155518
-383.39093 886.30249 33.155518
-378.06604 886.30249 33.155518
-372.74115 886.30249 33.155518
-367.41626 886.30249 33.155518
-362.09137 886.30249 33.155518
-356.76657 886.30249 33.155518
-354.5661 874.44531 57.454346
-349.19388 874.44531 57.454346
-343.82166 874.44531 57.454346
-338.4494 874.44531 57.454346
-333.0773 874.44531 57.454346
-333.69446 849.85303 107.85132
-328.224 849.85303 107.85132
-322.75357 849.85303 107.85132
-314.43576 862.14917 82.653076
-309.01453 862.14917 82.653076
-306.34244 849.85303 107.85132
-300.87201 849.85303 107.85132
-295.40158 849.85303 107.85132
-145.04982 874.44531 57.454346
-139.67758 874.44531 57.454346
-133.12184 886.30249 33.155518
-127.79694 886.30249 33.155518
-122.47205 886.30249 33.155518
-117.14725 886.30249 33.155518
-111.82236 886.30249 33.155518
-106.49747 886.30249 33.155518
-101.17258 886.30249 33.155518
-95.847679 886.30249 33.155518
-90.522888 886.30249 33.155518
-84.440552 898.15942 8.8569336
-79.163002 898.15942 8.8569336
-73.885452 898.15942 8.8569336
-68.607895 898.15942 8.8569336
-63.330441 898.15942 8.8569336
-58.052891 898.15942 8.8569336
-52.775333 898.15942 8.8569336
-47.49778 898.15942 8.8569336
-41.855534 909.57739 -14.541992
-36.623669 909.57739 -14.541992
-31.391701 909.57739 -14.541992
-26.159735 909.57739 -14.541992
-20.74542 920.99524 -37.940674
-15.559041 920.99524 -37.940674
-10.37276 920.99524 -37.940674
-5.1863799 920.99524 -37.940674
0 920.99524 -37.940674
5.2318668 909.57739 -14.541992
10.463933 909.57739 -14.541992
15.695801 909.57739 -14.541992
20.927866 909.57739 -14.541992
26.159735 909.57739 -14.541992
31.391602 909.57739 -14.541992
36.623669 909.57739 -14.541992
41.855534 909.57739 -14.541992
47.087601 909.57739 -14.541992
52.319469 909.57739 -14.541992
57.551338 909.57739 -14.541992
62.783401 909.57739 -14.541992
68.015266 909.57739 -14.541992
73.247337 909.57739 -14.541992
78.479202 909.57739 -14.541992
83.711067 909.57739 -14.541992
88.943138 909.57739 -14.541992
94.175003 909.57739 -14.541992
99.407066 909.57739 -14.541992
105.55067 898.15942 8.8569336
110.82812 898.15942 8.8569336
116.10578 898.15942 8.8569336
121.38322 898.15942 8.8569336
126.66088 898.15942 8.8569336
131.93834 898.15942 8.8569336
137.21579 898.15942 8.8569336
142.49345 898.15942 8.8569336
147.7709 898.15942 8.8569336
154.42142 886.30249 33.155518
159.7462 886.30249 33.155518
166.53854 874.44531 57.454346
173.48186 862.14917 82.653076
178.90309 862.14917 82.653076
184.32451 862.14917 82.653076
189.74574 862.14917 82.653076
195.16696 862.14917 82.653076
317.28317 849.85303 107.85132
322.75369 849.85303 107.85132
328.224 849.85303 107.85132
330.69965 862.14917 82.653076
336.12106 862.14917 82.653076
341.5423 862.14917 82.653076
346.96371 862.14917 82.653076
352.38495 862.14917 82.653076
357.80618 862.14917 82.653076
363.2276 862.14917 82.653076
368.64883 862.14917 82.653076
370.68283 874.44531 57.454346
376.05496 874.44531 57.454346
381.42706 874.44531 57.454346
386.79941 874.44531 57.454346
392.17154 874.44531 57.454346
-397.54379 869.50012 55.355225
-392.17154 869.50012 55.355225
-383.39093 881.40088 31.074707
-378.06604 881.40088 31.074707
-372.74115 881.40088 31.074707
-367.41626 881.40088 31.074707
-362.09137 881.40088 31.074707
-356.76657 881.40088 31.074707
-354.5661 869.50012 55.355225
-349.19388 869.50012 55.355225
-343.82166 869.50012 55.355225
-338.4494 869.50012 55.355225
-333.0773 869.50012 55.355225
-333.69446 844.8175 105.71387
-328.224 844.8175 105.71387
-322.75357 844.8175 105.71387
-317.28317 844.8175 105.71387
-311.81284 844.8175 105.71387
-309.18982 832.03516 131.79297
-303.66858 832.03516 131.79297
-298.14734 832.03516 131.79297
-145.04982 869.50012 55.355225
-139.67758 869.50012 55.355225
-134.30534 869.50012 55.355225
-128.93311 869.50012 55.355225
-122.47205 881.40088 31.074707
-117.14725 881.40088 31.074707
-111.82236 881.40088 31.074707
-106.49747 881.40088 31.074707
-101.17258 881.40088 31.074707
-95.847679 881.40088 31.074707
-90.522888 881.40088 31.074707
-84.440552 893.30139 6.7946777
-79.163002 893.30139 6.7946777
-73.885452 893.30139 6.7946777
-68.607895 893.30139 6.7946777
-63.330441 893.30139 6.7946777
-58.052891 893.30139 6.7946777
-52.775333 893.30139 6.7946777
-47.49778 893.30139 6.7946777
-42.22023 893.30139 6.7946777
-36.623669 904.76123 -16.586182
-31.391701 904.76123 -16.586182
-26.159735 904.76123 -16.586182
-20.927767 904.76123 -16.586182
-15.559041 916.22107 -39.967041
-10.37276 916.22107 -39.967041
