ply
format ascii 1.0
comment PCL generated
element vertex 1587
property float x
property float y
property float z
element camera 0
property float view_px
property float view_py
property float view_pz
property float x_axisx
property float x_axisy
property float x_axisz
property float y_axisx
property float y_axisy
property float y_axisz
property float z_axisx
property float z_axisy
property float z_axisz
property float focal
property float scalex
property float scaley
property float centerx
property float centery
property int viewportx
property int viewporty
property float k1
property float k2
end_header
-120.34885 1373.5481 330.14673
-114.87842 1373.5481 330.14673
-109.408 1373.5481 330.14673
-103.93758 1373.5481 330.14673
-98.467163 1373.5481 330.14673
-92.996849 1373.5481 330.14673
-87.526421 1373.5481 330.14673
-82.056 1373.5481 330.14673
-76.585587 1373.5481 330.14673
-71.115158 1373.5481 330.14673
-65.055725 1381.1445 302.95337
-59.634396 1381.1445 302.95337
-53.722134 1388.7408 275.75977
-47.92384 1396.0659 249.53711
-42.598946 1396.0659 249.53711
-37.274155 1396.0659 249.53711
-31.66522 1403.3909 223.31494
-26.387667 1403.3909 223.31494
-21.110115 1403.3909 223.31494
-15.83256 1403.3909 223.31494
-10.555108 1403.3909 223.31494
-5.324894 1396.0659 249.53711
0 1403.3909 223.31494
5.2774534 1403.3909 223.31494
10.555108 1403.3909 223.31494
15.83256 1403.3909 223.31494
21.110216 1403.3909 223.31494
26.624367 1396.0659 249.53711
31.94916 1396.0659 249.53711
37.274155 1396.0659 249.53711
42.598946 1396.0659 249.53711
48.350006 1388.7408 275.75977
53.722134 1388.7408 275.75977
59.634293 1381.1445 302.95337
65.055725 1381.1445 302.95337
70.476952 1381.1445 302.95337
76.585686 1373.5481 330.14673
82.056 1373.5481 330.14673
87.526314 1373.5481 330.14673
92.996849 1373.5481 330.14673
98.467163 1373.5481 330.14673
103.93769 1373.5481 330.14673
109.408 1373.5481 330.14673
114.87832 1373.5481 330.14673
120.34885 1373.5481 330.14673
-131.28958 1368.5127 328.00928
-125.81916 1368.5127 328.00928
-120.34885 1368.5127 328.00928
-114.87842 1368.5127 328.00928
-109.408 1368.5127 328.00928
-103.93758 1368.5127 328.00928
-98.467163 1368.5127 328.00928
-92.996849 1368.5127 328.00928
-87.526421 1368.5127 328.00928
-82.056 1368.5127 328.00928
-76.585587 1368.5127 328.00928
-71.115158 1368.5127 328.00928
-65.644844 1368.5127 328.00928
-59.634396 1376.1542 300.83521
-53.722134 1383.7957 273.66064
-47.92384 1391.1643 247.45654
-42.598946 1391.1643 247.45654
-37.274155 1391.1643 247.45654
-31.949263 1391.1643 247.45654
-26.387667 1398.533 221.25269
-21.110115 1398.533 221.25269
-15.83256 1398.533 221.25269
-10.649788 1391.1643 247.45654
-5.324894 1391.1643 247.45654
0 1398.533 221.25269
5.2774534 1398.533 221.25269
10.555108 1398.533 221.25269
15.83256 1398.533 221.25269
21.110216 1398.533 221.25269
26.624367 1391.1643 247.45654
31.94916 1391.1643 247.45654
37.274155 1391.1643 247.45654
42.977669 1383.7957 273.66064
48.350006 1383.7957 273.66064
53.722134 1383.7957 273.66064
59.634293 1376.1542 300.83521
65.055725 1376.1542 300.83521
71.115158 1368.5127 328.00928
76.585686 1368.5127 328.00928
82.056 1368.5127 328.00928
87.526314 1368.5127 328.00928
92.996849 1368.5127 328.00928
98.467163 1368.5127 328.00928
103.93769 1368.5127 328.00928
109.408 1368.5127 328.00928
114.87832 1368.5127 328.00928
122.58611 1352.6836 384.29932
128.15811 1352.6836 384.29932
-136.76001 1363.4771 325.87183
-131.28958 1363.4771 325.87183
-125.81916 1363.4771 325.87183
-120.34885 1363.4771 325.87183
-114.87842 1363.4771 325.87183
-109.408 1363.4771 325.87183
-103.93758 1363.4771 325.87183
-98.467163 1363.4771 325.87183
-92.996849 1363.4771 325.87183
-87.526421 1363.4771 325.87183
-82.056 1363.4771 325.87183
-76.585587 1363.4771 325.87183
-71.115158 1363.4771 325.87183
-65.644844 1363.4771 325.87183
-59.634396 1371.1638 298.7168
-53.722134 1378.8506 271.56152
-47.92384 1386.2628 245.37598
-42.598946 1386.2628 245.37598
-37.274155 1386.2628 245.37598
-31.949263 1386.2628 245.37598
-26.387667 1393.6749 219.19067
-21.110115 1393.6749 219.19067
-15.83256 1393.6749 219.19067
-10.649788 1386.2628 245.37598
-5.324894 1386.2628 245.37598
0 1393.6749 219.19067
5.2774534 1393.6749 219.19067
10.649788 1386.2628 245.37598
15.83256 1393.6749 219.19067
21.110216 1393.6749 219.19067
26.624367 1386.2628 245.37598
31.94916 1386.2628 245.37598
37.274155 1386.2628 245.37598
42.977669 1378.8506 271.56152
48.350006 1378.8506 271.56152
53.722134 1378.8506 271.56152
59.634293 1371.1638 298.7168
65.055725 1371.1638 298.7168
70.476952 1371.1638 298.7168
76.585686 1363.4771 325.87183
82.056 1363.4771 325.87183
87.526314 1363.4771 325.87183
92.996849 1363.4771 325.87183
98.467163 1363.4771 325.87183
103.93769 1363.4771 325.87183
109.408 1363.4771 325.87183
114.87832 1363.4771 325.87183
122.58611 1347.5544 382.12231
128.15811 1347.5544 382.12231
-136.76001 1358.4417 323.73438
-131.28958 1358.4417 323.73438
-125.81916 1358.4417 323.73438
-120.34885 1358.4417 323.73438
-114.87842 1358.4417 323.73438
-109.408 1358.4417 323.73438
-103.93758 1358.4417 323.73438
-98.467163 1358.4417 323.73438
-92.996849 1358.4417 323.73438
-87.526421 1358.4417 323.73438
-82.056 1358.4417 323.73438
-76.585587 1358.4417 323.73438
-71.115158 1358.4417 323.73438
-65.644844 1358.4417 323.73438
-59.634396 1366.1735 296.59863
-54.21307 1366.1735 296.59863
-47.92384 1381.3612 243.29541
-42.598946 1381.3612 243.29541
-37.274155 1381.3612 243.29541
-31.66522 1388.817 217.12866
-26.387667 1388.817 217.12866
-21.110115 1388.817 217.12866
-15.83256 1388.817 217.12866
-10.649788 1381.3612 243.29541
-5.324894 1381.3612 243.29541
0 1381.3612 243.29541
5.3247924 1381.3612 243.29541
10.649788 1381.3612 243.29541
15.97458 1381.3612 243.29541
21.299576 1381.3612 243.29541
26.624367 1381.3612 243.29541
31.94916 1381.3612 243.29541
37.274155 1381.3612 243.29541
42.598946 1381.3612 243.29541
48.350006 1373.9054 269.4624
53.722134 1373.9054 269.4624
59.094265 1373.9054 269.4624
65.055725 1366.1735 296.59863
70.476952 1366.1735 296.59863
75.898376 1366.1735 296.59863
82.056 1358.4417 323.73438
87.526314 1358.4417 323.73438
92.996849 1358.4417 323.73438
98.467163 1358.4417 323.73438
103.93769 1358.4417 323.73438
109.408 1358.4417 323.73438
114.87832 1358.4417 323.73438
122.58611 1342.4253 379.94507
128.15811 1342.4253 379.94507
-131.28958 1353.406 321.59692
-125.81916 1353.406 321.59692
-120.34885 1353.406 321.59692
-114.87842 1353.406 321.59692
-109.408 1353.406 321.59692
-103.00481 1361.1831 294.48022
-97.583481 1361.1831 294.48022
-92.162254 1361.1831 294.48022
-86.740929 1361.1831 294.48022
-82.056 1353.406 321.59692
-76.585587 1353.406 321.59692
-71.115158 1353.406 321.59692
-65.644844 1353.406 321.59692
-59.634396 1361.1831 294.48022
-54.21307 1361.1831 294.48022
-48.349903 1368.9602 267.36328
-42.598946 1376.4597 241.21484
-37.274155 1376.4597 241.21484
-31.66522 1383.959 215.06641
-26.387667 1383.959 215.06641
-21.110115 1383.959 215.06641
-15.83256 1383.959 215.06641
-10.649788 1376.4597 241.21484
-5.324894 1376.4597 241.21484
0 1376.4597 241.21484
5.3247924 1376.4597 241.21484
10.649788 1376.4597 241.21484
15.97458 1376.4597 241.21484
21.299576 1376.4597 241.21484
26.624367 1376.4597 241.21484
31.94916 1376.4597 241.21484
37.274155 1376.4597 241.21484
42.598946 1376.4597 241.21484
48.350006 1368.9602 267.36328
53.722134 1368.9602 267.36328
59.094265 1368.9602 267.36328
64.466599 1368.9602 267.36328
70.476952 1361.1831 294.48022
75.898376 1361.1831 294.48022
82.056 1353.406 321.59692
87.526314 1353.406 321.59692
92.996849 1353.406 321.59692
98.467163 1353.406 321.59692
104.90378 1345.3511 349.68262
110.42493 1345.3511 349.68262
115.9461 1345.3511 349.68262
122.58611 1337.2963 377.76782
129.3679 1328.9636 406.82178
-131.28958 1348.3705 319.45947
-125.81916 1348.3705 319.45947
-120.34885 1348.3705 319.45947
-114.87842 1348.3705 319.45947
-109.408 1348.3705 319.45947
-103.00481 1356.1929 292.36206
-97.583481 1356.1929 292.36206
-92.162254 1356.1929 292.36206
-86.740929 1356.1929 292.36206
-82.056 1348.3705 319.45947
-76.585587 1348.3705 319.45947
-71.115158 1348.3705 319.45947
-65.644844 1348.3705 319.45947
-59.634396 1356.1929 292.36206
-54.21307 1356.1929 292.36206
-48.349903 1364.0151 265.2644
-42.977669 1364.0151 265.2644
-37.274155 1371.5581 239.13428
-31.66522 1379.101 213.00439
-26.387667 1379.101 213.00439
-21.110115 1379.101 213.00439
-15.83256 1379.101 213.00439
-10.649788 1371.5581 239.13428
-5.324894 1371.5581 239.13428
0 1371.5581 239.13428
5.3247924 1371.5581 239.13428
10.649788 1371.5581 239.13428
15.97458 1371.5581 239.13428
21.299576 1371.5581 239.13428
26.624367 1371.5581 239.13428
31.94916 1371.5581 239.13428
37.274155 1371.5581 239.13428
42.598946 1371.5581 239.13428
48.350006 1364.0151 265.2644
53.722134 1364.0151 265.2644
59.094265 1364.0151 265.2644
64.466599 1364.0151 265.2644
70.476952 1356.1929 292.36206
75.898376 1356.1929 292.36206
82.056 1348.3705 319.45947
87.526314 1348.3705 319.45947
92.996849 1348.3705 319.45947
98.467163 1348.3705 319.45947
104.90378 1340.2688 347.52515
110.42493 1340.2688 347.52515
115.9461 1340.2688 347.52515
122.58611 1332.1671 375.59058
129.3679 1323.786 404.62402
-125.81916 1343.335 317.32202
-120.34885 1343.335 317.32202
-114.87842 1343.335 317.32202
-109.408 1343.335 317.32202
-103.93758 1343.335 317.32202
-97.583481 1351.2025 290.24365
-92.162254 1351.2025 290.24365
-86.740929 1351.2025 290.24365
-82.056 1343.335 317.32202
-76.585587 1343.335 317.32202
-71.115158 1343.335 317.32202
-65.644844 1343.335 317.32202
-59.634396 1351.2025 290.24365
-53.722134 1359.0699 263.16528
-48.349903 1359.0699 263.16528
-42.977669 1359.0699 263.16528
-37.274155 1366.6565 237.05371
-31.66522 1374.243 210.94238
-26.387667 1374.243 210.94238
-21.110115 1374.243 210.94238
-15.83256 1374.243 210.94238
-10.649788 1366.6565 237.05371
-5.324894 1366.6565 237.05371
0 1366.6565 237.05371
5.3247924 1366.6565 237.05371
10.649788 1366.6565 237.05371
15.97458 1366.6565 237.05371
21.299576 1366.6565 237.05371
26.624367 1366.6565 237.05371
31.94916 1366.6565 237.05371
37.274155 1366.6565 237.05371
42.977669 1359.0699 263.16528
48.350006 1359.0699 263.16528
53.722134 1359.0699 263.16528
59.094265 1359.0699 263.16528
64.466599 1359.0699 263.16528
70.476952 1351.2025 290.24365
76.585686 1343.335 317.32202
82.056 1343.335 317.32202
87.526314 1343.335 317.32202
92.996849 1343.335 317.32202
98.467163 1343.335 317.32202
104.90378 1335.1864 345.36792
110.42493 1335.1864 345.36792
115.9461 1335.1864 345.36792
122.58611 1327.038 373.41357
129.3679 1318.6085 402.42627
134.99274 1318.6085 402.42627
-125.81916 1338.2994 315.18457
-120.34885 1338.2994 315.18457
-114.87842 1338.2994 315.18457
-109.408 1338.2994 315.18457
-103.93758 1338.2994 315.18457
-98.467163 1338.2994 315.18457
-92.996849 1338.2994 315.18457
-87.526421 1338.2994 315.18457
-82.056 1338.2994 315.18457
-76.585587 1338.2994 315.18457
-71.115158 1338.2994 315.18457
-65.644844 1338.2994 315.18457
-59.634396 1346.212 288.12549
-53.722134 1354.1248 261.06616
-48.349903 1354.1248 261.06616
-42.977669 1354.1248 261.06616
-37.274155 1361.7549 234.9729
-31.66522 1369.3849 208.88013
-26.387667 1369.3849 208.88013
-21.110115 1369.3849 208.88013
-15.83256 1369.3849 208.88013
-10.649788 1361.7549 234.9729
-5.324894 1361.7549 234.9729
0 1361.7549 234.9729
5.3247924 1361.7549 234.9729
10.649788 1361.7549 234.9729
15.97458 1361.7549 234.9729
21.299576 1361.7549 234.9729
26.624367 1361.7549 234.9729
31.94916 1361.7549 234.9729
37.274155 1361.7549 234.9729
42.977669 1354.1248 261.06616
48.350006 1354.1248 261.06616
53.722134 1354.1248 261.06616
59.094265 1354.1248 261.06616
64.466599 1354.1248 261.06616
70.476952 1346.212 288.12549
76.585686 1338.2994 315.18457
82.056 1338.2994 315.18457
87.526314 1338.2994 315.18457
92.996849 1338.2994 315.18457
98.467163 1338.2994 315.18457
104.90378 1330.104 343.21045
110.42493 1330.104 343.21045
115.9461 1330.104 343.21045
122.58611 1321.9087 371.23633
129.3679 1313.4309 400.22852
134.99274 1313.4309 400.22852
140.61734 1313.4309 400.22852
-125.81916 1333.2639 313.04712
-120.34885 1333.2639 313.04712
-114.87842 1333.2639 313.04712
-109.408 1333.2639 313.04712
-103.93758 1333.2639 313.04712
-98.467163 1333.2639 313.04712
-92.996849 1333.2639 313.04712
-87.526421 1333.2639 313.04712
-82.056 1333.2639 313.04712
-76.585587 1333.2639 313.04712
-71.115158 1333.2639 313.04712
-65.644844 1333.2639 313.04712
-59.634396 1341.2217 286.00732
-53.722134 1349.1796 258.96704
-48.349903 1349.1796 258.96704
-42.977669 1349.1796 258.96704
-37.274155 1356.8533 232.89233
-31.66522 1364.527 206.81812
-26.387667 1364.527 206.81812
-21.110115 1364.527 206.81812
-15.83256 1364.527 206.81812
-10.649788 1356.8533 232.89233
-5.324894 1356.8533 232.89233
0 1356.8533 232.89233
5.3247924 1356.8533 232.89233
10.649788 1356.8533 232.89233
15.97458 1356.8533 232.89233
21.488937 1349.1796 258.96704
26.861067 1349.1796 258.96704
32.233196 1349.1796 258.96704
37.605534 1349.1796 258.96704
42.977669 1349.1796 258.96704
48.791843 1341.2217 286.00732
54.21307 1341.2217 286.00732
59.634293 1341.2217 286.00732
65.055725 1341.2217 286.00732
70.476952 1341.2217 286.00732
76.585686 1333.2639 313.04712
82.056 1333.2639 313.04712
87.526314 1333.2639 313.04712
93.861237 1325.0217 341.05322
99.382401 1325.0217 341.05322
104.90378 1325.0217 341.05322
110.42493 1325.0217 341.05322
117.01388 1316.7797 369.05908
122.58611 1316.7797 369.05908
129.3679 1308.2533 398.03076
134.99274 1308.2533 398.03076
140.61734 1308.2533 398.03076
-125.81916 1328.2284 310.90967
-120.34885 1328.2284 310.90967
-114.87842 1328.2284 310.90967
-109.408 1328.2284 310.90967
-103.93758 1328.2284 310.90967
-98.467163 1328.2284 310.90967
-92.996849 1328.2284 310.90967
-87.526421 1328.2284 310.90967
-82.056 1328.2284 310.90967
-76.585587 1328.2284 310.90967
-71.115158 1328.2284 310.90967
-65.644844 1328.2284 310.90967
-60.174423 1328.2284 310.90967
-54.21307 1336.2314 283.88892
-48.349903 1344.2344 256.86792
-42.977669 1344.2344 256.86792
-37.274155 1351.9518 230.81177
-31.66522 1359.6689 204.7561
-26.387667 1359.6689 204.7561
-21.110115 1359.6689 204.7561
-15.83256 1359.6689 204.7561
-10.649788 1351.9518 230.81177
-5.324894 1351.9518 230.81177
0 1351.9518 230.81177
5.3247924 1351.9518 230.81177
10.649788 1351.9518 230.81177
15.97458 1351.9518 230.81177
21.488937 1344.2344 256.86792
26.861067 1344.2344 256.86792
32.233196 1344.2344 256.86792
37.605534 1344.2344 256.86792
43.370415 1336.2314 283.88892
48.791843 1336.2314 283.88892
54.21307 1336.2314 283.88892
59.634293 1336.2314 283.88892
65.055725 1336.2314 283.88892
71.115158 1328.2284 310.90967
76.585686 1328.2284 310.90967
82.056 1328.2284 310.90967
87.526314 1328.2284 310.90967
93.861237 1319.9393 338.896
99.382401 1319.9393 338.896
104.90378 1319.9393 338.896
111.44187 1311.6505 366.88184
117.01388 1311.6505 366.88184
122.58611 1311.6505 366.88184
129.3679 1303.0758 395.83301
134.99274 1303.0758 395.83301
140.61734 1303.0758 395.83301
-125.81916 1323.1929 308.77222
-120.34885 1323.1929 308.77222
-114.87842 1323.1929 308.77222
-109.408 1323.1929 308.77222
-103.93758 1323.1929 308.77222
-98.467163 1323.1929 308.77222
-92.996849 1323.1929 308.77222
-87.526421 1323.1929 308.77222
-82.056 1323.1929 308.77222
-76.585587 1323.1929 308.77222
-71.115158 1323.1929 308.77222
-65.644844 1323.1929 308.77222
-60.174423 1323.1929 308.77222
-54.21307 1331.2411 281.77075
-48.349903 1339.2893 254.7688
-42.977669 1339.2893 254.7688
-37.274155 1347.0502 228.7312
-31.66522 1354.811 202.69385
-26.387667 1354.811 202.69385
-21.110115 1354.811 202.69385
-15.97458 1347.0502 228.7312
-10.649788 1347.0502 228.7312
-5.324894 1347.0502 228.7312
0 1347.0502 228.7312
5.3247924 1347.0502 228.7312
10.649788 1347.0502 228.7312
16.116598 1339.2893 254.7688
21.488937 1339.2893 254.7688
26.861067 1339.2893 254.7688
32.233196 1339.2893 254.7688
37.605534 1339.2893 254.7688
43.370415 1331.2411 281.77075
48.791843 1331.2411 281.77075
54.21307 1331.2411 281.77075
59.634293 1331.2411 281.77075
65.055725 1331.2411 281.77075
71.115158 1323.1929 308.77222
76.585686 1323.1929 308.77222
82.818703 1314.8571 336.73853
88.339859 1314.8571 336.73853
93.861237 1314.8571 336.73853
99.382401 1314.8571 336.73853
105.86987 1306.5214 364.70459
111.44187 1306.5214 364.70459
117.01388 1306.5214 364.70459
122.58611 1306.5214 364.70459
129.3679 1297.8982 393.63525
134.99274 1297.8982 393.63525
140.61734 1297.8982 393.63525
-125.81916 1318.1572 306.63477
-120.34885 1318.1572 306.63477
-114.87842 1318.1572 306.63477
-109.408 1318.1572 306.63477
-103.93758 1318.1572 306.63477
-98.467163 1318.1572 306.63477
-92.996849 1318.1572 306.63477
-87.526421 1318.1572 306.63477
-82.818703 1309.7747 334.5813
-76.585587 1318.1572 306.63477
-71.115158 1318.1572 306.63477
-65.644844 1318.1572 306.63477
-60.174423 1318.1572 306.63477
-54.21307 1326.2507 279.65234
-48.349903 1334.3441 252.66968
-42.977669 1334.3441 252.66968
-37.274155 1342.1487 226.65063
-31.66522 1349.953 200.63184
-26.387667 1349.953 200.63184
-21.299473 1342.1487 226.65063
-15.97458 1342.1487 226.65063
-10.649788 1342.1487 226.65063
-5.324894 1342.1487 226.65063
0 1342.1487 226.65063
5.3721313 1334.3441 252.66968
10.744469 1334.3441 252.66968
16.116598 1334.3441 252.66968
21.488937 1334.3441 252.66968
26.861067 1334.3441 252.66968
32.233196 1334.3441 252.66968
37.605534 1334.3441 252.66968
43.370415 1326.2507 279.65234
48.791843 1326.2507 279.65234
54.21307 1326.2507 279.65234
60.174316 1318.1572 306.63477
65.644844 1318.1572 306.63477
71.115158 1318.1572 306.63477
76.585686 1318.1572 306.63477
82.818703 1309.7747 334.5813
88.339859 1309.7747 334.5813
93.861237 1309.7747 334.5813
99.382401 1309.7747 334.5813
105.86987 1301.3922 362.52759
111.44187 1301.3922 362.52759
117.01388 1301.3922 362.52759
122.58611 1301.3922 362.52759
129.3679 1292.7207 391.4375
134.99274 1292.7207 391.4375
141.93234 1284.0491 420.34741
147.60954 1284.0491 420.34741
-125.81916 1313.1218 304.49731
-120.34885 1313.1218 304.49731
-114.87842 1313.1218 304.49731
-109.408 1313.1218 304.49731
-103.93758 1313.1218 304.49731
-98.467163 1313.1218 304.49731
-92.996849 1313.1218 304.49731
-88.339973 1304.6924 332.42383
-82.818703 1304.6924 332.42383
-76.585587 1313.1218 304.49731
-71.115158 1313.1218 304.49731
-65.644844 1313.1218 304.49731
-60.174423 1313.1218 304.49731
-54.21307 1321.2604 277.53418
-48.349903 1329.3989 250.57056
-42.977669 1329.3989 250.57056
-37.605534 1329.3989 250.57056
-31.949263 1337.2471 224.57007
-26.624367 1337.2471 224.57007
-21.299473 1337.2471 224.57007
-16.116598 1329.3989 250.57056
-10.744469 1329.3989 250.57056
-5.3722343 1329.3989 250.57056
0 1329.3989 250.57056
5.3721313 1329.3989 250.57056
10.744469 1329.3989 250.57056
16.116598 1329.3989 250.57056
21.488937 1329.3989 250.57056
26.861067 1329.3989 250.57056
32.233196 1329.3989 250.57056
37.605534 1329.3989 250.57056
43.370415 1321.2604 277.53418
48.791843 1321.2604 277.53418
54.704002 1313.1218 304.49731
60.174316 1313.1218 304.49731
65.644844 1313.1218 304.49731
71.776169 1304.6924 332.42383
77.297546 1304.6924 332.42383
82.818703 1304.6924 332.42383
88.339859 1304.6924 332.42383
93.861237 1304.6924 332.42383
100.29764 1296.2631 360.35034
105.86987 1296.2631 360.35034
111.44187 1296.2631 360.35034
117.01388 1296.2631 360.35034
122.58611 1296.2631 360.35034
128.15811 1296.2631 360.35034
134.99274 1287.5431 389.23975
141.93234 1278.8231 418.12891
147.60954 1278.8231 418.12891
-131.28958 1308.0863 302.35986
-125.81916 1308.0863 302.35986
-120.34885 1308.0863 302.35986
-114.87842 1308.0863 302.35986
-109.408 1308.0863 302.35986
-103.93758 1308.0863 302.35986
-99.382401 1299.6101 330.2666
-93.861237 1299.6101 330.2666
-88.339973 1299.6101 330.2666
-82.818703 1299.6101 330.2666
-77.297432 1299.6101 330.2666
-71.776169 1299.6101 330.2666
-65.644844 1308.0863 302.35986
-60.174423 1308.0863 302.35986
-54.704002 1308.0863 302.35986
-48.79174 1316.27 275.41577
-43.370415 1316.27 275.41577
-37.949188 1316.27 275.41577
-31.949263 1332.3455 222.4895
-26.624367 1332.3455 222.4895
-21.299473 1332.3455 222.4895
-16.116598 1324.4539 248.47168
-10.744469 1324.4539 248.47168
-5.3722343 1324.4539 248.47168
0 1324.4539 248.47168
5.3721313 1324.4539 248.47168
10.744469 1324.4539 248.47168
16.116598 1324.4539 248.47168
21.488937 1324.4539 248.47168
26.861067 1324.4539 248.47168
32.233196 1324.4539 248.47168
37.949188 1316.27 275.41577
43.370415 1316.27 275.41577
48.791843 1316.27 275.41577
54.704002 1308.0863 302.35986
60.174316 1308.0863 302.35986
65.644844 1308.0863 302.35986
71.776169 1299.6101 330.2666
77.297546 1299.6101 330.2666
82.818703 1299.6101 330.2666
89.153404 1291.1339 358.1731
94.725632 1291.1339 358.1731
100.29764 1291.1339 358.1731
105.86987 1291.1339 358.1731
111.44187 1291.1339 358.1731
117.01388 1291.1339 358.1731
122.58611 1291.1339 358.1731
128.15811 1291.1339 358.1731
134.99274 1282.3656 387.04199
141.93234 1273.5972 415.91064
147.60954 1273.5972 415.91064
154.75452 1264.5365 445.74194
-136.76001 1303.0508 300.22241
-131.28958 1303.0508 300.22241
-125.81916 1303.0508 300.22241
-120.34885 1303.0508 300.22241
-114.87842 1303.0508 300.22241
-110.42493 1294.5277 328.10938
-104.90366 1294.5277 328.10938
-99.382401 1294.5277 328.10938
-93.861237 1294.5277 328.10938
-88.339973 1294.5277 328.10938
-82.818703 1294.5277 328.10938
-77.297432 1294.5277 328.10938
-71.776169 1294.5277 328.10938
-65.644844 1303.0508 300.22241
-60.174423 1303.0508 300.22241
-54.704002 1303.0508 300.22241
-49.233582 1303.0508 300.22241
-43.370415 1311.2798 273.29761
-37.949188 1311.2798 273.29761
-32.233299 1319.5087 246.37256
-26.861067 1319.5087 246.37256
-21.488834 1319.5087 246.37256
-16.116598 1319.5087 246.37256
-10.744469 1319.5087 246.37256
-5.3722343 1319.5087 246.37256
0 1319.5087 246.37256
5.3721313 1319.5087 246.37256
10.744469 1319.5087 246.37256
16.116598 1319.5087 246.37256
21.488937 1319.5087 246.37256
26.861067 1319.5087 246.37256
32.52776 1311.2798 273.29761
37.949188 1311.2798 273.29761
43.763157 1303.0508 300.22241
49.233688 1303.0508 300.22241
54.704002 1303.0508 300.22241
60.174316 1303.0508 300.22241
65.644844 1303.0508 300.22241
71.776169 1294.5277 328.10938
77.297546 1294.5277 328.10938
82.818703 1294.5277 328.10938
88.339859 1294.5277 328.10938
93.861237 1294.5277 328.10938
100.29764 1286.0048 355.99585
105.86987 1286.0048 355.99585
111.44187 1286.0048 355.99585
117.01388 1286.0048 355.99585
122.58611 1286.0048 355.99585
128.15811 1286.0048 355.99585
134.99274 1277.188 384.84424
141.93234 1268.3712 413.69238
147.60954 1268.3712 413.69238
154.75452 1259.2605 443.50244
-136.76001 1298.0151 298.08496
-131.28958 1298.0151 298.08496
-125.81916 1298.0151 298.08496
-120.34885 1298.0151 298.08496
-114.87842 1298.0151 298.08496
-110.42493 1289.4453 325.9519
-104.90366 1289.4453 325.9519
-99.382401 1289.4453 325.9519
-93.861237 1289.4453 325.9519
-88.339973 1289.4453 325.9519
-82.818703 1289.4453 325.9519
-76.585587 1298.0151 298.08496
-71.115158 1298.0151 298.08496
-65.644844 1298.0151 298.08496
-60.174423 1298.0151 298.08496
-54.704002 1298.0151 298.08496
-49.233582 1298.0151 298.08496
-43.763157 1298.0151 298.08496
-38.292843 1298.0151 298.08496
-32.233299 1314.5636 244.27344
-26.861067 1314.5636 244.27344
-21.488834 1314.5636 244.27344
-16.116598 1314.5636 244.27344
-10.744469 1314.5636 244.27344
-5.3722343 1314.5636 244.27344
0 1314.5636 244.27344
5.3721313 1314.5636 244.27344
10.744469 1314.5636 244.27344
16.26388 1306.2894 271.1792
21.68531 1306.2894 271.1792
27.106535 1306.2894 271.1792
32.52776 1306.2894 271.1792
37.949188 1306.2894 271.1792
43.763157 1298.0151 298.08496
49.233688 1298.0151 298.08496
54.704002 1298.0151 298.08496
60.174316 1298.0151 298.08496
65.644844 1298.0151 298.08496
71.776169 1289.4453 325.9519
77.297546 1289.4453 325.9519
82.818703 1289.4453 325.9519
88.339859 1289.4453 325.9519
93.861237 1289.4453 325.9519
100.29764 1280.8757 353.81885
105.86987 1280.8757 353.81885
111.44187 1280.8757 353.81885
117.01388 1280.8757 353.81885
122.58611 1280.8757 353.81885
128.15811 1280.8757 353.81885
134.99274 1272.0105 382.64648
141.93234 1263.1453 411.47412
147.60954 1263.1453 411.47412
154.75452 1253.9845 441.2627
-136.76001 1292.9797 295.94751
-131.28958 1292.9797 295.94751
-125.81916 1292.9797 295.94751
-120.34885 1292.9797 295.94751
-115.94621 1284.363 323.79468
-110.42493 1284.363 323.79468
-104.90366 1284.363 323.79468
-99.382401 1284.363 323.79468
-93.861237 1284.363 323.79468
-88.339973 1284.363 323.79468
-82.818703 1284.363 323.79468
-76.585587 1292.9797 295.94751
-71.115158 1292.9797 295.94751
-65.644844 1292.9797 295.94751
-60.174423 1292.9797 295.94751
-54.704002 1292.9797 295.94751
-49.233582 1292.9797 295.94751
-43.763157 1292.9797 295.94751
-38.292843 1292.9797 295.94751
-32.527863 1301.2991 269.06104
-26.861067 1309.6184 242.17432
-21.488834 1309.6184 242.17432
-16.26388 1301.2991 269.06104
-10.842655 1301.2991 269.06104
-5.3722343 1309.6184 242.17432
0 1309.6184 242.17432
5.4212241 1301.2991 269.06104
10.842655 1301.2991 269.06104
16.26388 1301.2991 269.06104
21.68531 1301.2991 269.06104
27.106535 1301.2991 269.06104
32.52776 1301.2991 269.06104
37.949188 1301.2991 269.06104
43.763157 1292.9797 295.94751
49.233688 1292.9797 295.94751
54.704002 1292.9797 295.94751
60.174316 1292.9797 295.94751
66.255005 1284.363 323.79468
71.776169 1284.363 323.79468
77.297546 1284.363 323.79468
82.818703 1284.363 323.79468
88.339859 1284.363 323.79468
94.725632 1275.7466 351.6416
100.29764 1275.7466 351.6416
105.86987 1275.7466 351.6416
111.44187 1275.7466 351.6416
117.01388 1275.7466 351.6416
122.58611 1275.7466 351.6416
129.3679 1266.8329 380.44873
134.99274 1266.8329 380.44873
141.93234 1257.9192 409.25586
147.60954 1257.9192 409.25586
154.75452 1248.7085 439.02319
-136.76001 1287.9442 293.81006
-131.28958 1287.9442 293.81006
-126.98864 1279.2808 321.63721
-120.34885 1287.9442 293.81006
-114.87842 1287.9442 293.81006
-110.42493 1279.2808 321.63721
-104.90366 1279.2808 321.63721
-99.382401 1279.2808 321.63721
-93.861237 1279.2808 321.63721
-87.526421 1287.9442 293.81006
-82.056 1287.9442 293.81006
-76.585587 1287.9442 293.81006
-71.115158 1287.9442 293.81006
-65.644844 1287.9442 293.81006
-60.174423 1287.9442 293.81006
-54.704002 1287.9442 293.81006
-49.233582 1287.9442 293.81006
-43.763157 1287.9442 293.81006
-38.292843 1287.9442 293.81006
-32.527863 1296.3087 266.94287
-27.106535 1296.3087 266.94287
-21.685207 1296.3087 266.94287
-16.26388 1296.3087 266.94287
-10.842655 1296.3087 266.94287
-5.3722343 1304.6733 240.0752
0 1304.6733 240.0752
5.4212241 1296.3087 266.94287
10.842655 1296.3087 266.94287
16.26388 1296.3087 266.94287
21.68531 1296.3087 266.94287
27.106535 1296.3087 266.94287
32.52776 1296.3087 266.94287
37.949188 1296.3087 266.94287
43.763157 1287.9442 293.81006
49.233688 1287.9442 293.81006
54.704002 1287.9442 293.81006
60.174316 1287.9442 293.81006
66.255005 1279.2808 321.63721
71.776169 1279.2808 321.63721
77.297546 1279.2808 321.63721
82.818703 1279.2808 321.63721
88.339859 1279.2808 321.63721
94.725632 1270.6174 349.46436
100.29764 1270.6174 349.46436
105.86987 1270.6174 349.46436
111.44187 1270.6174 349.46436
117.01388 1270.6174 349.46436
122.58611 1270.6174 349.46436
129.3679 1261.6554 378.25098
134.99274 1261.6554 378.25098
141.93234 1252.6934 407.0376
147.60954 1252.6934 407.0376
-143.55244 1274.1984 319.47998
-136.76001 1282.9087 291.67261
-131.28958 1282.9087 291.67261
-126.98864 1274.1984 319.47998
-120.34885 1282.9087 291.67261
-114.87842 1282.9087 291.67261
-110.42493 1274.1984 319.47998
-104.90366 1274.1984 319.47998
-99.382401 1274.1984 319.47998
-92.996849 1282.9087 291.67261
-87.526421 1282.9087 291.67261
-82.056 1282.9087 291.67261
-76.585587 1282.9087 291.67261
-71.115158 1282.9087 291.67261
-65.644844 1282.9087 291.67261
-60.174423 1282.9087 291.67261
-54.704002 1282.9087 291.67261
-49.233582 1282.9087 291.67261
-43.763157 1282.9087 291.67261
-38.292843 1282.9087 291.67261
-32.527863 1291.3184 264.82446
-27.106535 1291.3184 264.82446
-21.685207 1291.3184 264.82446
-16.26388 1291.3184 264.82446
-10.842655 1291.3184 264.82446
-5.4213276 1291.3184 264.82446
0 1291.3184 264.82446
5.4212241 1291.3184 264.82446
10.842655 1291.3184 264.82446
16.26388 1291.3184 264.82446
21.68531 1291.3184 264.82446
27.106535 1291.3184 264.82446
32.52776 1291.3184 264.82446
38.292843 1282.9087 291.67261
43.763157 1282.9087 291.67261
49.233688 1282.9087 291.67261
54.704002 1282.9087 291.67261
60.174316 1282.9087 291.67261
66.255005 1274.1984 319.47998
71.776169 1274.1984 319.47998
77.297546 1274.1984 319.47998
82.818703 1274.1984 319.47998
89.153404 1265.4883 347.28711
94.725632 1265.4883 347.28711
100.29764 1265.4883 347.28711
106.86926 1256.4778 376.05322
112.49387 1256.4778 376.05322
118.11848 1256.4778 376.05322
123.7433 1256.4778 376.05322
129.3679 1256.4778 376.05322
134.99274 1256.4778 376.05322
141.93234 1247.4673 404.81934
147.60954 1247.4673 404.81934
154.75452 1238.1565 434.54419
-143.55244 1269.1161 317.32275
-138.03117 1269.1161 317.32275
-132.5099 1269.1161 317.32275
-126.98864 1269.1161 317.32275
-120.34885 1277.873 289.53516
-114.87842 1277.873 289.53516
-110.42493 1269.1161 317.32275
-104.90366 1269.1161 317.32275
-99.382401 1269.1161 317.32275
-92.996849 1277.873 289.53516
-87.526421 1277.873 289.53516
-82.056 1277.873 289.53516
-76.585587 1277.873 289.53516
-71.115158 1277.873 289.53516
-65.644844 1277.873 289.53516
-60.174423 1277.873 289.53516
-54.704002 1277.873 289.53516
-49.233582 1277.873 289.53516
-43.763157 1277.873 289.53516
-38.292843 1277.873 289.53516
-32.527863 1286.328 262.7063
-27.106535 1286.328 262.7063
-21.685207 1286.328 262.7063
-16.26388 1286.328 262.7063
-10.842655 1286.328 262.7063
-5.4213276 1286.328 262.7063
0 1286.328 262.7063
5.4212241 1286.328 262.7063
10.842655 1286.328 262.7063
16.26388 1286.328 262.7063
21.881683 1277.873 289.53516
27.352001 1277.873 289.53516
32.822319 1277.873 289.53516
38.292843 1277.873 289.53516
43.763157 1277.873 289.53516
49.233688 1277.873 289.53516
55.212467 1269.1161 317.32275
60.733631 1269.1161 317.32275
66.255005 1269.1161 317.32275
71.776169 1269.1161 317.32275
77.297546 1269.1161 317.32275
82.818703 1269.1161 317.32275
89.153404 1260.3591 345.10986
94.725632 1260.3591 345.10986
100.29764 1260.3591 345.10986
106.86926 1251.3003 373.85571
112.49387 1251.3003 373.85571
118.11848 1251.3003 373.85571
123.7433 1251.3003 373.85571
129.3679 1251.3003 373.85571
136.25513 1242.2413 402.60107
141.93234 1242.2413 402.60107
147.60954 1242.2413 402.60107
153.28697 1242.2413 402.60107
-143.55244 1264.0337 315.16528
-138.03117 1264.0337 315.16528
-132.5099 1264.0337 315.16528
-126.98864 1264.0337 315.16528
-121.46747 1264.0337 315.16528
-115.94621 1264.0337 315.16528
-110.42493 1264.0337 315.16528
-104.90366 1264.0337 315.16528
-99.382401 1264.0337 315.16528
-93.861237 1264.0337 315.16528
-87.526421 1272.8375 287.39771
-82.056 1272.8375 287.39771
-76.585587 1272.8375 287.39771
-71.115158 1272.8375 287.39771
-65.644844 1272.8375 287.39771
-60.174423 1272.8375 287.39771
-54.704002 1272.8375 287.39771
-49.233582 1272.8375 287.39771
-43.763157 1272.8375 287.39771
-38.292843 1272.8375 287.39771
-32.527863 1281.3376 260.58789
-27.106535 1281.3376 260.58789
-21.685207 1281.3376 260.58789
-16.26388 1281.3376 260.58789
-10.842655 1281.3376 260.58789
-5.4213276 1281.3376 260.58789
0 1281.3376 260.58789
5.4212241 1281.3376 260.58789
10.940842 1272.8375 287.39771
16.41116 1272.8375 287.39771
21.881683 1272.8375 287.39771
27.352001 1272.8375 287.39771
32.822319 1272.8375 287.39771
38.648773 1264.0337 315.16528
43.763157 1272.8375 287.39771
49.233688 1272.8375 287.39771
55.212467 1264.0337 315.16528
60.733631 1264.0337 315.16528
66.255005 1264.0337 315.16528
71.115158 1272.8375 287.39771
76.585686 1272.8375 287.39771
82.818703 1264.0337 315.16528
88.339859 1264.0337 315.16528
94.725632 1255.23 342.93286
100.29764 1255.23 342.93286
105.86987 1255.23 342.93286
112.49387 1246.1227 371.65796
118.11848 1246.1227 371.65796
123.7433 1246.1227 371.65796
129.3679 1246.1227 371.65796
136.25513 1237.0154 400.38257
141.93234 1237.0154 400.38257
147.60954 1237.0154 400.38257
153.28697 1237.0154 400.38257
160.48607 1227.6045 430.06519
-150.44656 1250.1008 340.75562
-144.87445 1250.1008 340.75562
-139.30234 1250.1008 340.75562
-133.73022 1250.1008 340.75562
-126.98864 1258.9514 313.00806
-121.46747 1258.9514 313.00806
-115.94621 1258.9514 313.00806
-110.42493 1258.9514 313.00806
-104.90366 1258.9514 313.00806
-99.382401 1258.9514 313.00806
-92.996849 1267.802 285.26025
-87.526421 1267.802 285.26025
-82.056 1267.802 285.26025
-76.585587 1267.802 285.26025
-71.115158 1267.802 285.26025
-65.644844 1267.802 285.26025
-60.174423 1267.802 285.26025
-54.704002 1267.802 285.26025
-49.233582 1267.802 285.26025
-43.763157 1267.802 285.26025
-38.292843 1267.802 285.26025
-32.822422 1267.802 285.26025
-27.352001 1267.802 285.26025
-21.685207 1276.3474 258.46973
-16.26388 1276.3474 258.46973
-10.940842 1267.802 285.26025
-5.4704208 1267.802 285.26025
0 1267.802 285.26025
5.4703169 1267.802 285.26025
10.940842 1267.802 285.26025
16.41116 1267.802 285.26025
21.881683 1267.802 285.26025
27.352001 1267.802 285.26025
32.822319 1267.802 285.26025
38.292843 1267.802 285.26025
43.763157 1267.802 285.26025
49.233688 1267.802 285.26025
54.704002 1267.802 285.26025
60.174316 1267.802 285.26025
65.644844 1267.802 285.26025
71.115158 1267.802 285.26025
76.585686 1267.802 285.26025
82.056 1267.802 285.26025
88.339859 1258.9514 313.00806
94.725632 1250.1008 340.75562
100.29764 1250.1008 340.75562
105.86987 1250.1008 340.75562
112.49387 1240.9451 369.46021
118.11848 1240.9451 369.46021
123.7433 1240.9451 369.46021
129.3679 1240.9451 369.46021
136.25513 1231.7894 398.16431
141.93234 1231.7894 398.16431
147.60954 1231.7894 398.16431
153.28697 1231.7894 398.16431
160.48607 1222.3285 427.82568
-157.49138 1235.7675 367.26245
-150.44656 1244.9717 338.57837
-144.87445 1244.9717 338.57837
-139.30234 1244.9717 338.57837
-133.73022 1244.9717 338.57837
-128.15811 1244.9717 338.57837
-121.46747 1253.869 310.85059
-115.94621 1253.869 310.85059
-110.42493 1253.869 310.85059
-104.90366 1253.869 310.85059
-99.382401 1253.869 310.85059
-92.996849 1262.7665 283.1228
-87.526421 1262.7665 283.1228
-82.056 1262.7665 283.1228
-76.585587 1262.7665 283.1228
-71.115158 1262.7665 283.1228
-65.644844 1262.7665 283.1228
-60.174423 1262.7665 283.1228
-54.704002 1262.7665 283.1228
-49.233582 1262.7665 283.1228
-43.763157 1262.7665 283.1228
-38.292843 1262.7665 283.1228
-32.822422 1262.7665 283.1228
-27.352001 1262.7665 283.1228
-21.881578 1262.7665 283.1228
-16.41116 1262.7665 283.1228
-10.940842 1262.7665 283.1228
-5.4704208 1262.7665 283.1228
0 1262.7665 283.1228
5.4703169 1262.7665 283.1228
10.940842 1262.7665 283.1228
16.41116 1262.7665 283.1228
21.881683 1262.7665 283.1228
27.352001 1262.7665 283.1228
32.822319 1262.7665 283.1228
38.292843 1262.7665 283.1228
43.763157 1262.7665 283.1228
49.233688 1262.7665 283.1228
54.704002 1262.7665 283.1228
60.174316 1262.7665 283.1228
65.644844 1262.7665 283.1228
71.115158 1262.7665 283.1228
76.585686 1262.7665 283.1228
82.056 1262.7665 283.1228
88.339859 1253.869 310.85059
94.725632 1244.9717 338.57837
100.29764 1244.9717 338.57837
105.86987 1244.9717 338.57837
112.49387 1235.7675 367.26245
118.11848 1235.7675 367.26245
123.7433 1235.7675 367.26245
129.3679 1235.7675 367.26245
136.25513 1226.5634 395.94604
141.93234 1226.5634 395.94604
147.60954 1226.5634 395.94604
153.28697 1226.5634 395.94604
160.48607 1217.0524 425.58594
-157.49138 1230.59 365.0647
-151.86678 1230.59 365.0647
-146.24205 1230.59 365.0647
-140.61734 1230.59 365.0647
-133.73022 1239.8425 336.40112
-128.15811 1239.8425 336.40112
-121.46747 1248.7866 308.69336
-115.94621 1248.7866 308.69336
-110.42493 1248.7866 308.69336
-104.90366 1248.7866 308.69336
-99.382401 1248.7866 308.69336
-93.861237 1248.7866 308.69336
-87.526421 1257.731 280.98535
-82.056 1257.731 280.98535
-76.585587 1257.731 280.98535
-71.115158 1257.731 280.98535
-65.644844 1257.731 280.98535
-60.174423 1257.731 280.98535
-54.704002 1257.731 280.98535
-49.233582 1257.731 280.98535
-43.763157 1257.731 280.98535
-38.292843 1257.731 280.98535
-32.822422 1257.731 280.98535
-27.352001 1257.731 280.98535
-21.881578 1257.731 280.98535
-16.41116 1257.731 280.98535
-10.940842 1257.731 280.98535
-5.4704208 1257.731 280.98535
0 1257.731 280.98535
5.4703169 1257.731 280.98535
10.940842 1257.731 280.98535
16.41116 1257.731 280.98535
21.881683 1257.731 280.98535
27.352001 1257.731 280.98535
32.822319 1257.731 280.98535
38.292843 1257.731 280.98535
44.16993 1248.7866 308.69336
49.691303 1248.7866 308.69336
55.212467 1248.7866 308.69336
60.174316 1257.731 280.98535
65.644844 1257.731 280.98535
71.115158 1257.731 280.98535
76.585686 1257.731 280.98535
82.818703 1248.7866 308.69336
88.339859 1248.7866 308.69336
94.725632 1239.8425 336.40112
100.29764 1239.8425 336.40112
106.86926 1230.59 365.0647
112.49387 1230.59 365.0647
118.11848 1230.59 365.0647
123.7433 1230.59 365.0647
130.57771 1221.3374 393.72778
136.25513 1221.3374 393.72778
141.93234 1221.3374 393.72778
147.60954 1221.3374 393.72778
153.28697 1221.3374 393.72778
160.48607 1211.7764 423.34644
-174.36551 1225.4124 362.86694
-168.7408 1225.4124 362.86694
-161.5907 1234.7134 334.22412
-156.01857 1234.7134 334.22412
-150.44656 1234.7134 334.22412
-144.87445 1234.7134 334.22412
-140.61734 1225.4124 362.86694
-133.73022 1234.7134 334.22412
-128.15811 1234.7134 334.22412
-121.46747 1243.7043 306.53613
-115.94621 1243.7043 306.53613
-110.42493 1243.7043 306.53613
-104.90366 1243.7043 306.53613
-99.382401 1243.7043 306.53613
-93.861237 1243.7043 306.53613
-87.526421 1252.6954 278.8479
-82.056 1252.6954 278.8479
-76.585587 1252.6954 278.8479
-71.115158 1252.6954 278.8479
-65.644844 1252.6954 278.8479
-60.174423 1252.6954 278.8479
-54.704002 1252.6954 278.8479
-49.233582 1252.6954 278.8479
-43.763157 1252.6954 278.8479
-38.648773 1243.7043 306.53613
-32.822422 1252.6954 278.8479
-27.352001 1252.6954 278.8479
-21.881578 1252.6954 278.8479
-16.41116 1252.6954 278.8479
-10.940842 1252.6954 278.8479
-5.5212684 1243.7043 306.53613
0 1243.7043 306.53613
5.521163 1243.7043 306.53613
11.042537 1243.7043 306.53613
16.563698 1243.7043 306.53613
22.085073 1243.7043 306.53613
27.606234 1243.7043 306.53613
33.127396 1243.7043 306.53613
38.648773 1243.7043 306.53613
44.16993 1243.7043 306.53613
49.691303 1243.7043 306.53613
54.704002 1252.6954 278.8479
60.174316 1252.6954 278.8479
65.644844 1252.6954 278.8479
71.115158 1252.6954 278.8479
77.297546 1243.7043 306.53613
82.818703 1243.7043 306.53613
89.153404 1234.7134 334.22412
94.725632 1234.7134 334.22412
100.29764 1234.7134 334.22412
106.86926 1225.4124 362.86694
112.49387 1225.4124 362.86694
118.11848 1225.4124 362.86694
123.7433 1225.4124 362.86694
129.3679 1225.4124 362.86694
134.99274 1225.4124 362.86694
141.93234 1216.1113 391.50952
147.60954 1216.1113 391.50952
153.28697 1216.1113 391.50952
160.48607 1206.5004 421.10693
166.21785 1206.5004 421.10693
-178.30704 1229.5842 332.04688
-172.73491 1229.5842 332.04688
-167.16281 1229.5842 332.04688
-161.5907 1229.5842 332.04688
-156.01857 1229.5842 332.04688
-150.44656 1229.5842 332.04688
-144.87445 1229.5842 332.04688
-139.30234 1229.5842 332.04688
-133.73022 1229.5842 332.04688
-128.15811 1229.5842 332.04688
-122.58611 1229.5842 332.04688
-117.01398 1229.5842 332.04688
-111.44187 1229.5842 332.04688
-104.90366 1238.6221 304.37866
-99.382401 1238.6221 304.37866
-93.861237 1238.6221 304.37866
-88.339973 1238.6221 304.37866
-82.056 1247.6599 276.71045
-76.585587 1247.6599 276.71045
-71.115158 1247.6599 276.71045
-65.644844 1247.6599 276.71045
-60.174423 1247.6599 276.71045
-54.704002 1247.6599 276.71045
-49.233582 1247.6599 276.71045
-44.16993 1238.6221 304.37866
-38.648773 1238.6221 304.37866
-32.822422 1247.6599 276.71045
-27.352001 1247.6599 276.71045
-21.881578 1247.6599 276.71045
-16.41116 1247.6599 276.71045
-10.940842 1247.6599 276.71045
-5.5212684 1238.6221 304.37866
0 1238.6221 304.37866
5.521163 1238.6221 304.37866
11.042537 1238.6221 304.37866
16.563698 1238.6221 304.37866
22.085073 1238.6221 304.37866
27.606234 1238.6221 304.37866
33.127396 1238.6221 304.37866
39.0047 1229.5842 332.04688
44.576702 1229.5842 332.04688
50.148926 1229.5842 332.04688
54.704002 1247.6599 276.71045
60.174316 1247.6599 276.71045
65.644844 1247.6599 276.71045
71.115158 1247.6599 276.71045
77.297546 1238.6221 304.37866
82.818703 1238.6221 304.37866
89.153404 1229.5842 332.04688
94.725632 1229.5842 332.04688
100.29764 1229.5842 332.04688
106.86926 1220.2349 360.66919
112.49387 1220.2349 360.66919
118.11848 1220.2349 360.66919
123.7433 1220.2349 360.66919
129.3679 1220.2349 360.66919
134.99274 1220.2349 360.66919
140.61734 1220.2349 360.66919
147.60954 1210.8855 389.29126
153.28697 1210.8855 389.29126
158.96417 1210.8855 389.29126
166.21785 1201.2244 418.86743
171.9494 1201.2244 418.86743
174.36542 1220.2349 360.66919
179.99023 1220.2349 360.66919
-183.87904 1224.4551 329.86963
-178.30704 1224.4551 329.86963
-171.15868 1233.5397 302.22144
-165.63741 1233.5397 302.22144
-161.5907 1224.4551 329.86963
-156.01857 1224.4551 329.86963
-150.44656 1224.4551 329.86963
-144.87445 1224.4551 329.86963
-139.30234 1224.4551 329.86963
-133.73022 1224.4551 329.86963
-128.15811 1224.4551 329.86963
-122.58611 1224.4551 329.86963
-117.01398 1224.4551 329.86963
-111.44187 1224.4551 329.86963
-104.90366 1233.5397 302.22144
-99.382401 1233.5397 302.22144
-93.861237 1233.5397 302.22144
-88.339973 1233.5397 302.22144
-82.056 1242.6243 274.573
-76.585587 1242.6243 274.573
-71.115158 1242.6243 274.573
-65.644844 1242.6243 274.573
-60.174423 1242.6243 274.573
-54.704002 1242.6243 274.573
-49.233582 1242.6243 274.573
-43.763157 1242.6243 274.573
-38.648773 1233.5397 302.22144
-32.822422 1242.6243 274.573
-27.352001 1242.6243 274.573
-21.881578 1242.6243 274.573
-16.563698 1233.5397 302.22144
-11.042537 1233.5397 302.22144
-5.5212684 1233.5397 302.22144
0 1233.5397 302.22144
5.521163 1233.5397 302.22144
11.042537 1233.5397 302.22144
16.563698 1233.5397 302.22144
22.085073 1233.5397 302.22144
27.606234 1233.5397 302.22144
33.127396 1233.5397 302.22144
39.0047 1224.4551 329.86963
44.576702 1224.4551 329.86963
50.148926 1224.4551 329.86963
54.704002 1242.6243 274.573
60.174316 1242.6243 274.573
65.644844 1242.6243 274.573
71.115158 1242.6243 274.573
77.297546 1233.5397 302.22144
82.818703 1233.5397 302.22144
89.153404 1224.4551 329.86963
94.725632 1224.4551 329.86963
100.29764 1224.4551 329.86963
106.86926 1215.0574 358.47144
112.49387 1215.0574 358.47144
118.11848 1215.0574 358.47144
123.7433 1215.0574 358.47144
129.3679 1215.0574 358.47144
134.99274 1215.0574 358.47144
140.61734 1215.0574 358.47144
146.24194 1215.0574 358.47144
153.28697 1205.6594 387.073
158.96417 1205.6594 387.073
164.6416 1205.6594 387.073
170.3188 1205.6594 387.073
174.36542 1215.0574 358.47144
179.99023 1215.0574 358.47144
187.35065 1205.6594 387.073
193.02808 1205.6594 387.073
198.70528 1205.6594 387.073
-195.02327 1219.326 327.69238
-189.45117 1219.326 327.69238
-182.2011 1228.4574 300.06421
-176.67995 1228.4574 300.06421
-171.15868 1228.4574 300.06421
-165.63741 1228.4574 300.06421
-160.11613 1228.4574 300.06421
-154.59486 1228.4574 300.06421
-150.44656 1219.326 327.69238
-144.87445 1219.326 327.69238
-139.30234 1219.326 327.69238
-133.73022 1219.326 327.69238
-128.15811 1219.326 327.69238
-122.58611 1219.326 327.69238
-117.01398 1219.326 327.69238
-111.44187 1219.326 327.69238
-104.90366 1228.4574 300.06421
-99.382401 1228.4574 300.06421
-93.861237 1228.4574 300.06421
-88.339973 1228.4574 300.06421
-82.056 1237.5889 272.43555
-76.585587 1237.5889 272.43555
-71.115158 1237.5889 272.43555
-65.644844 1237.5889 272.43555
-60.174423 1237.5889 272.43555
-54.704002 1237.5889 272.43555
-49.233582 1237.5889 272.43555
-43.763157 1237.5889 272.43555
-38.648773 1228.4574 300.06421
-32.822422 1237.5889 272.43555
-27.352001 1237.5889 272.43555
-21.881578 1237.5889 272.43555
-16.563698 1228.4574 300.06421
-11.042537 1228.4574 300.06421
-5.5212684 1228.4574 300.06421
0 1228.4574 300.06421
5.521163 1228.4574 300.06421
11.042537 1228.4574 300.06421
16.716238 1219.326 327.69238
22.085073 1228.4574 300.06421
27.606234 1228.4574 300.06421
33.127396 1228.4574 300.06421
38.648773 1228.4574 300.06421
44.16993 1228.4574 300.06421
49.691303 1228.4574 300.06421
54.704002 1237.5889 272.43555
60.174316 1237.5889 272.43555
65.644844 1237.5889 272.43555
71.115158 1237.5889 272.43555
76.585686 1237.5889 272.43555
82.056 1237.5889 272.43555
88.339859 1228.4574 300.06421
94.725632 1219.326 327.69238
101.24444 1209.8798 356.27368
106.86926 1209.8798 356.27368
112.49387 1209.8798 356.27368
118.11848 1209.8798 356.27368
123.7433 1209.8798 356.27368
129.3679 1209.8798 356.27368
134.99274 1209.8798 356.27368
140.61734 1209.8798 356.27368
146.24194 1209.8798 356.27368
153.28697 1200.4335 384.85449
158.96417 1200.4335 384.85449
164.6416 1200.4335 384.85449
170.3188 1200.4335 384.85449
174.36542 1209.8798 356.27368
179.99023 1209.8798 356.27368
187.35065 1200.4335 384.85449
193.02808 1200.4335 384.85449
198.70528 1200.4335 384.85449
-195.02327 1214.1968 325.51514
-189.45117 1214.1968 325.51514
-182.2011 1223.375 297.90674
-176.67995 1223.375 297.90674
-171.15868 1223.375 297.90674
-165.63741 1223.375 297.90674
-160.11613 1223.375 297.90674
-154.59486 1223.375 297.90674
-150.44656 1214.1968 325.51514
-144.87445 1214.1968 325.51514
-139.30234 1214.1968 325.51514
-133.73022 1214.1968 325.51514
-128.15811 1214.1968 325.51514
-122.58611 1214.1968 325.51514
-117.01398 1214.1968 325.51514
-111.44187 1214.1968 325.51514
-104.90366 1223.375 297.90674
-99.382401 1223.375 297.90674
-93.861237 1223.375 297.90674
-88.339973 1223.375 297.90674
-82.056 1232.5533 270.2981
-76.585587 1232.5533 270.2981
-71.115158 1232.5533 270.2981
-65.644844 1232.5533 270.2981
-60.174423 1232.5533 270.2981
-54.704002 1232.5533 270.2981
-49.233582 1232.5533 270.2981
-43.763157 1232.5533 270.2981
-38.648773 1223.375 297.90674
-32.822422 1232.5533 270.2981
-27.352001 1232.5533 270.2981
-21.881578 1232.5533 270.2981
-16.41116 1232.5533 270.2981
-11.042537 1223.375 297.90674
-5.5212684 1223.375 297.90674
0 1223.375 297.90674
5.521163 1223.375 297.90674
11.14423 1214.1968 325.51514
16.716238 1214.1968 325.51514
22.085073 1223.375 297.90674
27.606234 1223.375 297.90674
33.127396 1223.375 297.90674
38.648773 1223.375 297.90674
44.16993 1223.375 297.90674
49.691303 1223.375 297.90674
54.704002 1232.5533 270.2981
60.174316 1232.5533 270.2981
65.644844 1232.5533 270.2981
71.115158 1232.5533 270.2981
76.585686 1232.5533 270.2981
82.056 1232.5533 270.2981
88.339859 1223.375 297.90674
94.725632 1214.1968 325.51514
101.24444 1204.7021 354.07593
106.86926 1204.7021 354.07593
112.49387 1204.7021 354.07593
118.11848 1204.7021 354.07593
123.7433 1204.7021 354.07593
129.3679 1204.7021 354.07593
134.99274 1204.7021 354.07593
140.61734 1204.7021 354.07593
146.24194 1204.7021 354.07593
153.28697 1195.2075 382.63623
158.96417 1195.2075 382.63623
164.6416 1195.2075 382.63623
170.3188 1195.2075 382.63623
175.99602 1195.2075 382.63623
181.67343 1195.2075 382.63623
187.35065 1195.2075 382.63623
193.02808 1195.2075 382.63623
198.70528 1195.2075 382.63623
-204.28618 1218.2927 295.74951
-198.76491 1218.2927 295.74951
-193.24364 1218.2927 295.74951
-187.72237 1218.2927 295.74951
-183.87904 1209.0677 323.33813
-176.67995 1218.2927 295.74951
-171.15868 1218.2927 295.74951
-165.63741 1218.2927 295.74951
-160.11613 1218.2927 295.74951
-154.59486 1218.2927 295.74951
-150.44656 1209.0677 323.33813
-144.87445 1209.0677 323.33813
-139.30234 1209.0677 323.33813
-133.73022 1209.0677 323.33813
-128.15811 1209.0677 323.33813
-122.58611 1209.0677 323.33813
-117.01398 1209.0677 323.33813
-111.44187 1209.0677 323.33813
-104.90366 1218.2927 295.74951
-99.382401 1218.2927 295.74951
-93.861237 1218.2927 295.74951
-88.339973 1218.2927 295.74951
-82.056 1227.5178 268.16064
