ply
format ascii 1.0
comment PCL generated
element vertex 1585
property float x
property float y
property float z
element camera 0
property float view_px
property float view_py
property float view_pz
property float x_axisx
property float x_axisy
property float x_axisz
property float y_axisx
property float y_axisy
property float y_axisz
property float z_axisx
property float z_axisy
property float z_axisz
property float focal
property float scalex
property float scaley
property float centerx
property float centery
property int viewportx
property int viewporty
property float k1
property float k2
end_header
-44.16993 821.87061 127.47827
-39.0047 808.99487 153.51709
-33.127502 821.87061 127.47827
-27.606234 821.87061 127.47827
-21.881578 834.74634 101.43896
-16.41116 834.74634 101.43896
-10.940842 834.74634 101.43896
-5.4704208 834.74634 101.43896
0 834.74634 101.43896
5.4703169 834.74634 101.43896
10.842655 847.1781 76.298096
16.26388 847.1781 76.298096
21.68531 847.1781 76.298096
27.106535 847.1781 76.298096
32.52776 847.1781 76.298096
37.949188 847.1781 76.298096
43.370415 847.1781 76.298096
48.791843 847.1781 76.298096
54.21307 847.1781 76.298096
59.634293 847.1781 76.298096
65.055725 847.1781 76.298096
70.476952 847.1781 76.298096
75.898376 847.1781 76.298096
81.319603 847.1781 76.298096
86.740829 847.1781 76.298096
91.327667 859.60986 51.156982
96.699806 859.60986 51.156982
101.17268 871.59766 26.913574
106.49747 871.59766 26.913574
111.82227 871.59766 26.913574
117.14725 871.59766 26.913574
122.47205 871.59766 26.913574
127.79705 871.59766 26.913574
133.12184 871.59766 26.913574
138.44662 871.59766 26.913574
142.49345 883.58545 2.6704102
147.7709 883.58545 2.6704102
153.04855 883.58545 2.6704102
158.326 883.58545 2.6704102
163.60345 883.58545 2.6704102
168.8811 883.58545 2.6704102
174.15857 883.58545 2.6704102
179.43622 883.58545 2.6704102
-80.243034 763.31567 232.98633
-74.51136 763.31567 232.98633
-68.779808 763.31567 232.98633
-62.450253 777.12939 205.17261
-56.246937 790.49756 178.25659
-50.148819 803.86572 151.34009
-44.576702 803.86572 151.34009
-39.0047 803.86572 151.34009
-33.432583 803.86572 151.34009
-27.606234 816.78833 125.32104
-21.881578 829.71094 99.301514
-16.41116 829.71094 99.301514
-10.940842 829.71094 99.301514
-5.4704208 829.71094 99.301514
0 829.71094 99.301514
5.4703169 829.71094 99.301514
10.940842 829.71094 99.301514
16.41116 829.71094 99.301514
21.881683 829.71094 99.301514
27.106535 842.18787 74.179932
32.52776 842.18787 74.179932
37.949188 842.18787 74.179932
43.370415 842.18787 74.179932
48.791843 842.18787 74.179932
54.21307 842.18787 74.179932
59.634293 842.18787 74.179932
65.055725 842.18787 74.179932
70.476952 842.18787 74.179932
75.898376 842.18787 74.179932
81.319603 842.18787 74.179932
86.740829 842.18787 74.179932
91.327667 854.66479 49.057861
96.699806 854.66479 49.057861
101.17268 866.69617 24.833008
106.49747 866.69617 24.833008
111.82227 866.69617 24.833008
117.14725 866.69617 24.833008
122.47205 866.69617 24.833008
127.79705 866.69617 24.833008
133.12184 866.69617 24.833008
138.44662 866.69617 24.833008
143.77162 866.69617 24.833008
147.7709 878.72754 0.60839844
153.04855 878.72754 0.60839844
158.326 878.72754 0.60839844
163.60345 878.72754 0.60839844
168.8811 878.72754 0.60839844
174.15857 878.72754 0.60839844
179.43622 878.72754 0.60839844
-87.657906 729.41748 288.12451
-81.814018 729.41748 288.12451
-75.970139 729.41748 288.12451
-70.126366 729.41748 288.12451
-63.048141 758.03955 230.74658
-56.772934 771.90344 202.95435
-50.148819 798.73657 149.16284
-44.576702 798.73657 149.16284
-39.0047 798.73657 149.16284
-33.432583 798.73657 149.16284
-27.860468 798.73657 149.16284
-21.881578 824.67529 97.164062
-16.41116 824.67529 97.164062
-10.940842 824.67529 97.164062
-5.4704208 824.67529 97.164062
0 824.67529 97.164062
5.4703169 824.67529 97.164062
10.940842 824.67529 97.164062
16.41116 824.67529 97.164062
21.881683 824.67529 97.164062
27.352001 824.67529 97.164062
32.52776 837.19751 72.061523
37.949188 837.19751 72.061523
43.370415 837.19751 72.061523
48.791843 837.19751 72.061523
54.21307 837.19751 72.061523
59.634293 837.19751 72.061523
65.055725 837.19751 72.061523
70.476952 837.19751 72.061523
75.898376 837.19751 72.061523
81.319603 837.19751 72.061523
86.740829 837.19751 72.061523
91.327667 849.71948 46.95874
96.699806 849.71948 46.95874
102.07214 849.71948 46.95874
107.44427 849.71948 46.95874
112.81641 849.71948 46.95874
118.18874 849.71948 46.95874
122.47205 861.79456 22.752441
127.79705 861.79456 22.752441
133.12184 861.79456 22.752441
138.44662 861.79456 22.752441
143.77162 861.79456 22.752441
147.7709 873.86938 -1.4536133
153.04855 873.86938 -1.4536133
158.326 873.86938 -1.4536133
163.60345 873.86938 -1.4536133
168.8811 873.86938 -1.4536133
174.15857 873.86938 -1.4536133
179.43622 873.86938 -1.4536133
-87.657906 724.03833 285.84106
-81.814018 724.03833 285.84106
-75.970139 724.03833 285.84106
-70.126366 724.03833 285.84106
-63.048141 752.76367 228.50732
-56.772934 766.67749 200.73608
-50.622219 780.14246 173.86108
-44.997505 780.14246 173.86108
-39.0047 793.60754 146.9856
-33.432583 793.60754 146.9856
-27.860468 793.60754 146.9856
-22.084965 806.62366 121.00635
-16.41116 819.63989 95.026611
-10.940842 819.63989 95.026611
-5.4704208 819.63989 95.026611
0 819.63989 95.026611
5.4703169 819.63989 95.026611
10.940842 819.63989 95.026611
16.41116 819.63989 95.026611
21.881683 819.63989 95.026611
27.352001 819.63989 95.026611
32.52776 832.20715 69.943359
37.949188 832.20715 69.943359
43.370415 832.20715 69.943359
48.791843 832.20715 69.943359
54.21307 832.20715 69.943359
59.634293 832.20715 69.943359
65.055725 832.20715 69.943359
70.476952 832.20715 69.943359
75.898376 832.20715 69.943359
81.319603 832.20715 69.943359
86.740829 832.20715 69.943359
92.162254 832.20715 69.943359
96.699806 844.77454 44.859863
102.07214 844.77454 44.859863
107.44427 844.77454 44.859863
112.81641 844.77454 44.859863
117.14725 856.89307 20.671875
122.47205 856.89307 20.671875
127.79705 856.89307 20.671875
133.12184 856.89307 20.671875
138.44662 856.89307 20.671875
143.77162 856.89307 20.671875
147.7709 869.01147 -3.515625
153.04855 869.01147 -3.515625
158.326 869.01147 -3.515625
163.60345 869.01147 -3.515625
168.8811 869.01147 -3.515625
174.15857 869.01147 -3.515625
-88.499504 704.24475 312.20264
-82.59951 704.24475 312.20264
-76.699524 704.24475 312.20264
-70.126366 718.65894 283.55762
-63.646023 733.52368 254.01758
-57.316467 747.48755 226.26758
-50.622219 774.96484 171.66333
-44.997505 774.96484 171.66333
-39.372898 774.96484 171.66333
-33.432583 788.47827 144.80835
-27.860468 788.47827 144.80835
-22.084965 801.54126 118.84888
-16.41116 814.60425 92.88916
-10.940842 814.60425 92.88916
-5.4704208 814.60425 92.88916
0 814.60425 92.88916
5.4703169 814.60425 92.88916
10.940842 814.60425 92.88916
16.41116 814.60425 92.88916
21.881683 814.60425 92.88916
27.352001 814.60425 92.88916
32.822319 814.60425 92.88916
38.292843 814.60425 92.88916
43.370415 827.2168 67.824951
48.791843 827.2168 67.824951
54.21307 827.2168 67.824951
59.634293 827.2168 67.824951
65.055725 827.2168 67.824951
71.115158 814.60425 92.88916
75.898376 827.2168 67.824951
81.319603 827.2168 67.824951
86.740829 827.2168 67.824951
92.162254 827.2168 67.824951
96.699806 839.82935 42.760742
102.07214 839.82935 42.760742
107.44427 839.82935 42.760742
112.81641 839.82935 42.760742
117.14725 851.99146 18.591309
122.47205 851.99146 18.591309
127.79705 851.99146 18.591309
133.12184 851.99146 18.591309
138.44662 851.99146 18.591309
143.77162 851.99146 18.591309
147.7709 864.15344 -5.5778809
153.04855 864.15344 -5.5778809
158.326 864.15344 -5.5778809
166.53854 839.82935 42.760742
173.48186 827.2168 67.824951
-94.399498 698.81384 309.89746
-88.499504 698.81384 309.89746
-82.59951 698.81384 309.89746
-76.699524 698.81384 309.89746
-70.799652 698.81384 309.89746
-64.282486 713.27966 281.27441
-57.316467 742.21167 224.02808
-51.095619 756.22559 196.29956
-45.418304 756.22559 196.29956
-39.372898 769.78735 169.46558
-33.432583 783.34924 142.63135
-27.860468 783.34924 142.63135
-22.084965 796.45898 116.69165
-16.41116 809.56885 90.751709
-10.940842 809.56885 90.751709
-5.4704208 809.56885 90.751709
0 809.56885 90.751709
5.4703169 809.56885 90.751709
10.940842 809.56885 90.751709
16.41116 809.56885 90.751709
21.881683 809.56885 90.751709
27.352001 809.56885 90.751709
32.822319 809.56885 90.751709
38.292843 809.56885 90.751709
43.763157 809.56885 90.751709
49.233688 809.56885 90.751709
54.21307 822.22656 65.706787
59.634293 822.22656 65.706787
65.644844 809.56885 90.751709
71.115158 809.56885 90.751709
76.585686 809.56885 90.751709
82.056 809.56885 90.751709
86.740829 822.22656 65.706787
92.162254 822.22656 65.706787
96.699806 834.88416 40.661621
102.07214 834.88416 40.661621
107.44427 834.88416 40.661621
112.81641 834.88416 40.661621
117.14725 847.08984 16.510742
122.47205 847.08984 16.510742
127.79705 847.08984 16.510742
133.12184 847.08984 16.510742
138.44662 847.08984 16.510742
143.77162 847.08984 16.510742
147.7709 859.29553 -7.6398926
153.04855 859.29553 -7.6398926
159.7462 847.08984 16.510742
168.06042 822.22656 65.706787
173.48186 822.22656 65.706787
-93.501785 707.90027 278.99097
-87.657906 707.90027 278.99097
-82.59951 693.38281 307.59204
-76.699524 693.38281 307.59204
-70.799652 693.38281 307.59204
-63.646023 722.8717 249.49585
-57.860001 722.8717 249.49585
-51.584797 736.93555 221.78857
-45.418304 750.99951 194.0813
-39.7411 750.99951 194.0813
-33.432583 778.21997 140.4541
-27.860468 778.21997 140.4541
-22.084965 791.37659 114.53442
-16.41116 804.5332 88.614258
-10.940842 804.5332 88.614258
-5.4704208 804.5332 88.614258
0 804.5332 88.614258
5.4703169 804.5332 88.614258
10.940842 804.5332 88.614258
16.41116 804.5332 88.614258
21.881683 804.5332 88.614258
27.352001 804.5332 88.614258
32.822319 804.5332 88.614258
38.292843 804.5332 88.614258
43.763157 804.5332 88.614258
49.233688 804.5332 88.614258
54.21307 817.23608 63.588623
59.634293 817.23608 63.588623
65.055725 817.23608 63.588623
71.115158 804.5332 88.614258
76.585686 804.5332 88.614258
82.056 804.5332 88.614258
86.740829 817.23608 63.588623
92.162254 817.23608 63.588623
97.583481 817.23608 63.588623
103.00491 817.23608 63.588623
108.42614 817.23608 63.588623
112.81641 829.93896 38.5625
117.14725 842.18823 14.430176
122.47205 842.18823 14.430176
127.79705 842.18823 14.430176
133.12184 842.18823 14.430176
138.44662 842.18823 14.430176
143.77162 842.18823 14.430176
147.7709 854.4375 -9.7021484
153.04855 854.4375 -9.7021484
159.7462 842.18823 14.430176
165.071 842.18823 14.430176
-99.345665 702.52112 276.70752
-93.501785 702.52112 276.70752
-87.657906 702.52112 276.70752
-82.59951 687.9519 305.28687
-76.699524 687.9519 305.28687
-70.799652 687.9519 305.28687
-63.646023 717.54565 247.23535
-57.860001 717.54565 247.23535
-51.584797 731.65967 219.54907
-45.418304 745.77368 191.86304
-39.372898 759.43225 165.07007
-33.432583 773.09094 138.27686
-27.860468 773.09094 138.27686
-22.084965 786.29431 112.37695
-16.563698 786.29431 112.37695
-11.042537 786.29431 112.37695
-5.4704208 799.4978 86.476807
0 799.4978 86.476807
5.4703169 799.4978 86.476807
10.940842 799.4978 86.476807
16.41116 799.4978 86.476807
21.881683 799.4978 86.476807
27.352001 799.4978 86.476807
32.822319 799.4978 86.476807
38.292843 799.4978 86.476807
43.763157 799.4978 86.476807
49.233688 799.4978 86.476807
54.21307 812.24585 61.470215
59.634293 812.24585 61.470215
65.055725 812.24585 61.470215
70.476952 812.24585 61.470215
75.898376 812.24585 61.470215
81.319603 812.24585 61.470215
86.740829 812.24585 61.470215
92.162254 812.24585 61.470215
97.583481 812.24585 61.470215
103.00491 812.24585 61.470215
108.42614 812.24585 61.470215
112.81641 824.9939 36.463379
117.14725 837.28674 12.349609
122.47205 837.28674 12.349609
127.79705 837.28674 12.349609
133.12184 837.28674 12.349609
138.44662 837.28674 12.349609
143.77162 837.28674 12.349609
149.09642 837.28674 12.349609
154.42142 837.28674 12.349609
159.7462 837.28674 12.349609
165.071 837.28674 12.349609
-99.345665 697.14172 274.42432
-93.501785 697.14172 274.42432
-87.657906 697.14172 274.42432
-82.59951 682.52087 302.98145
-76.699524 682.52087 302.98145
-70.799652 682.52087 302.98145
-64.282486 697.14172 274.42432
-57.860001 712.2196 244.97437
-51.584797 726.38354 217.30957
-45.418304 740.54761 189.64453
-39.372898 754.25464 162.87231
-33.748184 754.25464 162.87231
-27.860468 767.96179 136.09961
-22.084965 781.21191 110.21973
-16.563698 781.21191 110.21973
-11.042537 781.21191 110.21973
-5.4704208 794.46216 84.339355
0 794.46216 84.339355
5.4703169 794.46216 84.339355
10.940842 794.46216 84.339355
16.41116 794.46216 84.339355
21.881683 794.46216 84.339355
27.352001 794.46216 84.339355
32.822319 794.46216 84.339355
38.292843 794.46216 84.339355
43.763157 794.46216 84.339355
49.233688 794.46216 84.339355
54.21307 807.25537 59.352051
59.634293 807.25537 59.352051
65.055725 807.25537 59.352051
70.476952 807.25537 59.352051
75.898376 807.25537 59.352051
81.319603 807.25537 59.352051
86.740829 807.25537 59.352051
92.162254 807.25537 59.352051
97.583481 807.25537 59.352051
103.00491 807.25537 59.352051
108.42614 807.25537 59.352051
111.82227 832.38513 10.268799
117.14725 832.38513 10.268799
122.47205 832.38513 10.268799
127.79705 832.38513 10.268799
133.12184 832.38513 10.268799
138.44662 832.38513 10.268799
143.77162 832.38513 10.268799
149.09642 832.38513 10.268799
154.42142 832.38513 10.268799
159.7462 832.38513 10.268799
165.071 832.38513 10.268799
-99.345665 691.76245 272.14087
-93.501785 691.76245 272.14087
-87.657906 691.76245 272.14087
-81.814018 691.76245 272.14087
-76.699524 677.09009 300.67627
-70.799652 677.09009 300.67627
-64.282486 691.76245 272.14087
-58.438602 691.76245 272.14087
-52.073982 706.89368 242.71362
-45.85313 721.10767 215.07007
-39.7411 735.32166 187.42627
-33.748184 749.07715 160.67456
-27.860468 762.83276 133.92261
-22.084965 776.12964 108.0625
-16.563698 776.12964 108.0625
-11.042537 776.12964 108.0625
-5.4704208 789.42676 82.201904
0 789.42676 82.201904
5.4703169 789.42676 82.201904
10.940842 789.42676 82.201904
16.41116 789.42676 82.201904
21.881683 789.42676 82.201904
27.352001 789.42676 82.201904
32.822319 789.42676 82.201904
38.292843 789.42676 82.201904
43.763157 789.42676 82.201904
49.233688 789.42676 82.201904
54.704002 789.42676 82.201904
60.174316 789.42676 82.201904
65.644844 789.42676 82.201904
71.115158 789.42676 82.201904
75.898376 802.26514 57.233643
81.319603 802.26514 57.233643
86.740829 802.26514 57.233643
92.162254 802.26514 57.233643
96.699806 815.10364 32.265137
102.07214 815.10364 32.265137
106.49747 827.48364 8.1882324
111.82227 827.48364 8.1882324
117.14725 827.48364 8.1882324
122.47205 827.48364 8.1882324
127.79705 827.48364 8.1882324
133.12184 827.48364 8.1882324
138.44662 827.48364 8.1882324
143.77162 827.48364 8.1882324
149.09642 827.48364 8.1882324
154.42142 827.48364 8.1882324
162.63921 802.26514 57.233643
168.06042 802.26514 57.233643
-98.362045 701.5675 240.45288
-92.576027 701.5675 240.45288
-87.657906 686.38318 269.85742
-81.814018 686.38318 269.85742
-76.699524 671.65906 298.37085
-70.799652 671.65906 298.37085
-64.282486 686.38318 269.85742
-58.438602 686.38318 269.85742
-52.073982 701.5675 240.45288
-46.28796 701.5675 240.45288
-40.121571 715.83154 212.83057
-34.063782 730.0957 185.20801
-28.123468 743.89954 158.47681
-22.288351 757.70349 131.74536
-16.716238 757.70349 131.74536
-11.042537 771.04724 105.90503
-5.4704208 784.39111 80.064453
0 784.39111 80.064453
5.4703169 784.39111 80.064453
10.940842 784.39111 80.064453
16.41116 784.39111 80.064453
21.881683 784.39111 80.064453
27.352001 784.39111 80.064453
32.822319 784.39111 80.064453
38.292843 784.39111 80.064453
43.763157 784.39111 80.064453
49.233688 784.39111 80.064453
54.704002 784.39111 80.064453
60.174316 784.39111 80.064453
65.644844 784.39111 80.064453
71.115158 784.39111 80.064453
76.585686 784.39111 80.064453
81.319603 797.27478 55.115479
86.740829 797.27478 55.115479
91.327667 810.15845 30.166016
96.699806 810.15845 30.166016
102.07214 810.15845 30.166016
106.49747 822.58203 6.107666
111.82227 822.58203 6.107666
117.14725 822.58203 6.107666
122.47205 822.58203 6.107666
127.79705 822.58203 6.107666
133.12184 822.58203 6.107666
138.44662 822.58203 6.107666
145.04982 810.15845 30.166016
150.42194 810.15845 30.166016
155.79427 810.15845 30.166016
162.63921 797.27478 55.115479
168.06042 797.27478 55.115479
-103.16959 710.55566 210.59106
-97.438042 710.55566 210.59106
-91.706375 710.55566 210.59106
-86.790001 696.24158 238.19214
-81.814018 681.00391 267.57422
-76.699524 666.22815 296.06567
-70.799652 666.22815 296.06567
-64.282486 681.00391 267.57422
-58.438602 681.00391 267.57422
-52.594719 681.00391 267.57422
-46.750835 681.00391 267.57422
-40.502045 696.24158 238.19214
-34.389904 710.55566 210.59106
-28.386467 724.86975 182.98975
-22.288351 752.57446 129.56812
-16.716238 752.57446 129.56812
-11.14423 752.57446 129.56812
-5.5212684 765.96497 103.7478
0 765.96497 103.7478
5.4703169 779.35571 77.927002
10.940842 779.35571 77.927002
16.41116 779.35571 77.927002
21.881683 779.35571 77.927002
27.352001 779.35571 77.927002
32.822319 779.35571 77.927002
38.292843 779.35571 77.927002
43.763157 779.35571 77.927002
49.233688 779.35571 77.927002
55.212467 765.96497 103.7478
60.174316 779.35571 77.927002
65.644844 779.35571 77.927002
71.115158 779.35571 77.927002
75.898376 792.28455 52.99707
81.319603 792.28455 52.99707
86.740829 792.28455 52.99707
91.327667 805.21338 28.067139
96.699806 805.21338 28.067139
102.07214 805.21338 28.067139
106.49747 817.68054 4.0270996
111.82227 817.68054 4.0270996
117.14725 817.68054 4.0270996
122.47205 817.68054 4.0270996
127.79705 817.68054 4.0270996
133.12184 817.68054 4.0270996
138.44662 817.68054 4.0270996
145.04982 805.21338 28.067139
150.42194 805.21338 28.067139
157.21799 792.28455 52.99707
162.63921 792.28455 52.99707
172.73482 752.57446 129.56812
179.99023 738.72205 156.27905
-103.16959 705.27954 208.35132
-97.438042 705.27954 208.35132
-91.706375 705.27954 208.35132
-86.790001 690.91541 235.9314
-81.814018 675.62451 265.29077
-75.970139 675.62451 265.29077
-70.126366 675.62451 265.29077
-64.282486 675.62451 265.29077
-58.438602 675.62451 265.29077
-52.594719 675.62451 265.29077
-46.750835 675.62451 265.29077
-40.502045 690.91541 235.9314
-34.389904 705.27954 208.35132
-28.658234 705.27954 208.35132
-22.498753 733.54443 154.0813
-16.716238 747.44519 127.39087
-11.14423 747.44519 127.39087
-5.5212684 760.88257 101.59033
0 760.88257 101.59033
5.4703169 774.32007 75.789551
10.940842 774.32007 75.789551
16.41116 774.32007 75.789551
21.881683 774.32007 75.789551
27.352001 774.32007 75.789551
32.822319 774.32007 75.789551
38.292843 774.32007 75.789551
43.763157 774.32007 75.789551
49.233688 774.32007 75.789551
55.212467 760.88257 101.59033
60.174316 774.32007 75.789551
65.644844 774.32007 75.789551
71.115158 774.32007 75.789551
75.898376 787.29407 50.878906
81.319603 787.29407 50.878906
86.740829 787.29407 50.878906
91.327667 800.26807 25.968018
96.699806 800.26807 25.968018
102.07214 800.26807 25.968018
106.49747 812.77893 1.9465332
111.82227 812.77893 1.9465332
117.14725 812.77893 1.9465332
122.47205 812.77893 1.9465332
127.79705 812.77893 1.9465332
133.12184 812.77893 1.9465332
138.44662 812.77893 1.9465332
145.04982 800.26807 25.968018
151.79655 787.29407 50.878906
157.21799 787.29407 50.878906
167.16281 747.44519 127.39087
172.73482 747.44519 127.39087
179.99023 733.54443 154.0813
185.61484 733.54443 154.0813
-103.16959 700.00342 206.11182
-97.438042 700.00342 206.11182
-92.576027 685.58936 233.67065
-87.657906 670.24512 263.00732
-81.814018 670.24512 263.00732
-75.970139 670.24512 263.00732
-70.126366 670.24512 263.00732
-64.282486 670.24512 263.00732
-58.438602 670.24512 263.00732
-52.073982 685.58936 233.67065
-46.28796 685.58936 233.67065
-40.121571 700.00342 206.11182
-34.389904 700.00342 206.11182
-28.658234 700.00342 206.11182
-22.498753 728.36682 151.88354
-16.716238 742.31604 125.21362
-11.14423 742.31604 125.21362
-5.5212684 755.80017 99.433105
0 755.80017 99.433105
5.4703169 769.28455 73.6521
10.940842 769.28455 73.6521
16.41116 769.28455 73.6521
21.881683 769.28455 73.6521
27.352001 769.28455 73.6521
32.822319 769.28455 73.6521
38.292843 769.28455 73.6521
43.763157 769.28455 73.6521
49.233688 769.28455 73.6521
54.704002 769.28455 73.6521
60.174316 769.28455 73.6521
65.644844 769.28455 73.6521
71.115158 769.28455 73.6521
75.898376 782.30371 48.760498
81.319603 782.30371 48.760498
86.740829 782.30371 48.760498
92.162254 782.30371 48.760498
97.583481 782.30371 48.760498
102.07214 795.32288 23.868896
107.44427 795.32288 23.868896
111.82227 807.8772 -0.1340332
117.14725 807.8772 -0.1340332
122.47205 807.8772 -0.1340332
127.79705 807.8772 -0.1340332
134.30534 795.32288 23.868896
139.67747 795.32288 23.868896
145.04982 795.32288 23.868896
151.79655 782.30371 48.760498
160.11624 755.80017 99.433105
167.16281 742.31604 125.21362
172.73482 742.31604 125.21362
179.99023 728.36682 151.88354
185.61484 728.36682 151.88354
-104.14796 680.26331 231.40991
-98.362045 680.26331 231.40991
-93.501785 664.86597 260.72388
-87.657906 664.86597 260.72388
-81.814018 664.86597 260.72388
-75.970139 664.86597 260.72388
-70.126366 664.86597 260.72388
-64.282486 664.86597 260.72388
-58.438602 664.86597 260.72388
-52.073982 680.26331 231.40991
-46.28796 680.26331 231.40991
-40.121571 694.72754 203.87231
-34.389904 694.72754 203.87231
-28.658234 694.72754 203.87231
-22.498753 723.18933 149.68579
-16.874039 723.18933 149.68579
-11.14423 737.18689 123.03662
-5.5721149 737.18689 123.03662
0 750.7179 97.275635
5.521163 750.7179 97.275635
10.940842 764.24902 71.514648
16.41116 764.24902 71.514648
22.085073 750.7179 97.275635
27.606234 750.7179 97.275635
33.127396 750.7179 97.275635
38.292843 764.24902 71.514648
43.763157 764.24902 71.514648
49.233688 764.24902 71.514648
54.704002 764.24902 71.514648
60.174316 764.24902 71.514648
65.644844 764.24902 71.514648
71.115158 764.24902 71.514648
75.898376 777.31348 46.642334
81.319603 777.31348 46.642334
86.740829 777.31348 46.642334
92.162254 777.31348 46.642334
97.583481 777.31348 46.642334
102.07214 790.37781 21.769775
107.44427 790.37781 21.769775
112.81641 790.37781 21.769775
118.18874 790.37781 21.769775
122.47205 802.97571 -2.2145996
127.79705 802.97571 -2.2145996
134.30534 790.37781 21.769775
139.67747 790.37781 21.769775
146.37532 777.31348 46.642334
151.79655 777.31348 46.642334
160.11624 750.7179 97.275635
167.16281 737.18689 123.03662
172.73482 737.18689 123.03662
179.99023 723.18933 149.68579
185.61484 723.18933 149.68579
-111.03333 659.48657 258.44067
-105.18944 659.48657 258.44067
-99.345665 659.48657 258.44067
-93.501785 659.48657 258.44067
-87.657906 659.48657 258.44067
-81.814018 659.48657 258.44067
-75.970139 659.48657 258.44067
-70.126366 659.48657 258.44067
-64.282486 659.48657 258.44067
-58.438602 659.48657 258.44067
-52.073982 674.93726 229.14893
-46.28796 674.93726 229.14893
-40.502045 674.93726 229.14893
-34.716022 674.93726 229.14893
-28.658234 689.45142 201.63281
-22.498753 718.01172 147.48804
-16.874039 718.01172 147.48804
-11.24943 718.01172 147.48804
-5.6247149 718.01172 147.48804
0 732.05774 120.85938
5.5720086 732.05774 120.85938
11.14423 732.05774 120.85938
16.563698 745.6355 95.118408
22.085073 745.6355 95.118408
27.606234 745.6355 95.118408
33.127396 745.6355 95.118408
38.292843 759.2135 69.377197
43.763157 759.2135 69.377197
49.233688 759.2135 69.377197
54.704002 759.2135 69.377197
60.174316 759.2135 69.377197
65.644844 759.2135 69.377197
71.115158 759.2135 69.377197
76.585686 759.2135 69.377197
82.056 759.2135 69.377197
86.740829 772.323 44.523926
92.162254 772.323 44.523926
97.583481 772.323 44.523926
102.07214 785.43262 19.670654
107.44427 785.43262 19.670654
112.81641 785.43262 19.670654
118.18874 785.43262 19.670654
123.56087 785.43262 19.670654
128.9332 785.43262 19.670654
134.30534 785.43262 19.670654
140.9539 772.323 44.523926
146.37532 772.323 44.523926
154.59486 745.6355 95.118408
161.59081 732.05774 120.85938
167.16281 732.05774 120.85938
174.36542 718.01172 147.48804
179.99023 718.01172 147.48804
185.61484 718.01172 147.48804
-111.03333 654.10742 256.15723
-105.18944 654.10742 256.15723
-99.345665 654.10742 256.15723
-93.501785 654.10742 256.15723
-87.657906 654.10742 256.15723
-81.814018 654.10742 256.15723
-75.970139 654.10742 256.15723
-70.126366 654.10742 256.15723
-64.282486 654.10742 256.15723
-58.438602 654.10742 256.15723
-52.073982 669.61133 226.88818
-46.28796 669.61133 226.88818
-40.502045 669.61133 226.88818
-34.716022 669.61133 226.88818
-28.658234 684.17554 199.39331
-22.709152 698.73975 171.89819
-16.874039 712.83423 145.29028
-11.24943 712.83423 145.29028
-5.6247149 712.83423 145.29028
0 726.92871 118.68213
5.5720086 726.92871 118.68213
11.14423 726.92871 118.68213
16.563698 740.55322 92.961182
22.085073 740.55322 92.961182
27.606234 740.55322 92.961182
32.822319 754.17798 67.239746
38.292843 754.17798 67.239746
43.763157 754.17798 67.239746
49.233688 754.17798 67.239746
54.704002 754.17798 67.239746
60.174316 754.17798 67.239746
65.644844 754.17798 67.239746
71.115158 754.17798 67.239746
75.898376 767.33276 42.405762
81.319603 767.33276 42.405762
86.740829 767.33276 42.405762
92.162254 767.33276 42.405762
97.583481 767.33276 42.405762
102.07214 780.48755 17.571533
107.44427 780.48755 17.571533
112.81641 780.48755 17.571533
118.18874 780.48755 17.571533
123.56087 780.48755 17.571533
128.9332 780.48755 17.571533
134.30534 780.48755 17.571533
140.9539 767.33276 42.405762
147.70084 754.17798 67.239746
154.59486 740.55322 92.961182
161.59081 726.92871 118.68213
168.7408 712.83423 145.29028
174.36542 712.83423 145.29028
179.99023 712.83423 145.29028
185.61484 712.83423 145.29028
-116.8772 648.72803 253.87378
-111.03333 648.72803 253.87378
-105.18944 648.72803 253.87378
-99.345665 648.72803 253.87378
-93.501785 648.72803 253.87378
-87.657906 648.72803 253.87378
-81.814018 648.72803 253.87378
-75.970139 648.72803 253.87378
-70.126366 648.72803 253.87378
-64.282486 648.72803 253.87378
-58.438602 648.72803 253.87378
-52.073982 664.28516 224.62744
-46.28796 664.28516 224.62744
-40.502045 664.28516 224.62744
-34.716022 664.28516 224.62744
-28.658234 678.89941 197.15381
-22.709152 693.51379 169.67993
-16.874039 707.65662 143.09253
-11.24943 707.65662 143.09253
-5.6247149 707.65662 143.09253
0 721.79944 116.50488
5.5720086 721.79944 116.50488
11.14423 721.79944 116.50488
16.716238 721.79944 116.50488
22.28846 721.79944 116.50488
27.352001 749.14246 65.102295
32.822319 749.14246 65.102295
38.292843 749.14246 65.102295
43.763157 749.14246 65.102295
49.233688 749.14246 65.102295
54.704002 749.14246 65.102295
60.174316 749.14246 65.102295
65.644844 749.14246 65.102295
70.476952 762.34241 40.287598
75.898376 762.34241 40.287598
81.319603 762.34241 40.287598
86.740829 762.34241 40.287598
92.162254 762.34241 40.287598
97.583481 762.34241 40.287598
103.00491 762.34241 40.287598
107.44427 775.54236 15.472412
112.81641 775.54236 15.472412
119.26879 762.34241 40.287598
124.69002 762.34241 40.287598
130.11145 762.34241 40.287598
135.53267 762.34241 40.287598
142.23032 749.14246 65.102295
147.70084 749.14246 65.102295
154.59486 735.47083 90.803711
161.59081 721.79944 116.50488
168.7408 707.65662 143.09253
174.36542 707.65662 143.09253
179.99023 707.65662 143.09253
185.61484 707.65662 143.09253
-116.8772 643.34875 251.59058
-111.03333 643.34875 251.59058
-105.18944 643.34875 251.59058
-100.29948 628.21143 279.92847
-94.399498 628.21143 279.92847
-88.499504 628.21143 279.92847
-82.59951 628.21143 279.92847
-75.970139 643.34875 251.59058
-70.126366 643.34875 251.59058
-64.282486 643.34875 251.59058
-58.438602 643.34875 251.59058
-52.594719 643.34875 251.59058
-46.750835 643.34875 251.59058
-40.502045 658.95923 222.3667
-34.716022 658.95923 222.3667
-28.658234 673.62354 194.91431
-22.709152 688.28784 167.46167
-16.874039 702.47913 140.89478
-11.24943 702.47913 140.89478
-5.6247149 702.47913 140.89478
0 716.67041 114.32788
5.5720086 716.67041 114.32788
11.14423 716.67041 114.32788
16.716238 716.67041 114.32788
22.28846 716.67041 114.32788
27.352001 744.10693 62.964844
32.822319 744.10693 62.964844
38.292843 744.10693 62.964844
43.763157 744.10693 62.964844
49.233688 744.10693 62.964844
54.704002 744.10693 62.964844
60.174316 744.10693 62.964844
65.644844 744.10693 62.964844
70.476952 757.35205 38.169189
75.898376 757.35205 38.169189
81.319603 757.35205 38.169189
86.740829 757.35205 38.169189
92.162254 757.35205 38.169189
97.583481 757.35205 38.169189
102.07214 770.59729 13.373291
107.44427 770.59729 13.373291
112.81641 770.59729 13.373291
118.18874 770.59729 13.373291
124.69002 757.35205 38.169189
130.11145 757.35205 38.169189
135.53267 757.35205 38.169189
142.23032 744.10693 62.964844
149.07372 730.38867 88.646484
154.59486 730.38867 88.646484
161.59081 716.67041 114.32788
168.7408 702.47913 140.89478
174.36542 702.47913 140.89478
179.99023 702.47913 140.89478
185.61484 702.47913 140.89478
-117.99934 622.78052 277.62305
-112.09934 622.78052 277.62305
-106.19936 622.78052 277.62305
-100.29948 622.78052 277.62305
-94.399498 622.78052 277.62305
-88.499504 622.78052 277.62305
-81.814018 637.96936 249.30713
-75.970139 637.96936 249.30713
-70.126366 637.96936 249.30713
-64.282486 637.96936 249.30713
-58.438602 637.96936 249.30713
-52.594719 637.96936 249.30713
-46.750835 637.96936 249.30713
-40.502045 653.63306 220.10596
-34.716022 653.63306 220.10596
-28.658234 668.34741 192.67456
-22.709152 683.06177 165.24341
-16.874039 697.30151 138.69702
-11.24943 697.30151 138.69702
-5.6247149 697.30151 138.69702
0 711.54126 112.15063
5.5720086 711.54126 112.15063
11.14423 711.54126 112.15063
16.716238 711.54126 112.15063
22.28846 711.54126 112.15063
27.352001 739.07129 60.827393
32.822319 739.07129 60.827393
38.292843 739.07129 60.827393
43.763157 739.07129 60.827393
49.233688 739.07129 60.827393
54.704002 739.07129 60.827393
60.174316 739.07129 60.827393
65.644844 739.07129 60.827393
70.476952 752.36169 36.051025
75.898376 752.36169 36.051025
81.319603 752.36169 36.051025
86.740829 752.36169 36.051025
91.327667 765.6521 11.27417
96.699806 765.6521 11.27417
102.07214 765.6521 11.27417
107.44427 765.6521 11.27417
112.81641 765.6521 11.27417
118.18874 765.6521 11.27417
124.69002 752.36169 36.051025
130.11145 752.36169 36.051025
135.53267 752.36169 36.051025
142.23032 739.07129 60.827393
147.70084 739.07129 60.827393
154.59486 725.30615 86.489014
161.59081 711.54126 112.15063
168.7408 697.30151 138.69702
174.36542 697.30151 138.69702
179.99023 697.30151 138.69702
185.61484 697.30151 138.69702
-125.15121 601.15637 305.38062
-117.99934 617.34961 275.31787
-112.09934 617.34961 275.31787
-106.19936 617.34961 275.31787
-100.29948 617.34961 275.31787
-94.399498 617.34961 275.31787
-88.499504 617.34961 275.31787
-81.814018 632.59009 247.02368
-75.970139 632.59009 247.02368
-70.126366 632.59009 247.02368
-64.282486 632.59009 247.02368
-58.438602 632.59009 247.02368
-52.594719 632.59009 247.02368
-46.750835 632.59009 247.02368
-40.907066 632.59009 247.02368
-35.063183 632.59009 247.02368
-28.93 648.30713 217.84521
-22.926565 663.07153 190.43506
-17.031837 677.83594 163.02515
-11.24943 692.12402 136.49951
-5.6247149 692.12402 136.49951
0 692.12402 136.49951
5.5720086 706.41211 109.97339
11.14423 706.41211 109.97339
16.716238 706.41211 109.97339
22.28846 706.41211 109.97339
27.860468 706.41211 109.97339
33.127396 720.224 84.331787
38.648773 720.224 84.331787
43.763157 734.03589 58.689941
49.233688 734.03589 58.689941
54.704002 734.03589 58.689941
60.174316 734.03589 58.689941
65.644844 734.03589 58.689941
70.476952 747.37146 33.932617
75.898376 747.37146 33.932617
80.583206 760.70703 9.175293
85.955338 760.70703 9.175293
91.327667 760.70703 9.175293
96.699806 760.70703 9.175293
102.07214 760.70703 9.175293
107.44427 760.70703 9.175293
113.84736 747.37146 33.932617
119.26879 747.37146 33.932617
124.69002 747.37146 33.932617
130.11145 747.37146 33.932617
136.76001 734.03589 58.689941
142.23032 734.03589 58.689941
147.70084 734.03589 58.689941
154.59486 720.224 84.331787
161.59081 706.41211 109.97339
168.7408 692.12402 136.49951
174.36542 692.12402 136.49951
179.99023 692.12402 136.49951
-125.15121 595.67041 303.052
-117.99934 611.91858 273.01245
-112.09934 611.91858 273.01245
-106.19936 611.91858 273.01245
-100.29948 611.91858 273.01245
-94.399498 611.91858 273.01245
-88.499504 611.91858 273.01245
-82.59951 611.91858 273.01245
-75.970139 627.21082 244.74023
-70.126366 627.21082 244.74023
-64.282486 627.21082 244.74023
-58.438602 627.21082 244.74023
-52.594719 627.21082 244.74023
-46.750835 627.21082 244.74023
-40.907066 627.21082 244.74023
-35.063183 627.21082 244.74023
-28.93 642.98096 215.58447
-22.926565 657.79541 188.19556
-17.031837 672.60986 160.80688
-11.35463 672.60986 160.80688
-5.6247149 686.94641 134.30151
0 686.94641 134.30151
5.5720086 701.28296 107.79614
11.14423 701.28296 107.79614
16.716238 701.28296 107.79614
22.28846 701.28296 107.79614
27.860468 701.28296 107.79614
33.127396 715.1416 82.174561
38.648773 715.1416 82.174561
43.763157 729.00037 56.55249
49.233688 729.00037 56.55249
54.704002 729.00037 56.55249
60.174316 729.00037 56.55249
65.055725 742.3811 31.814453
70.476952 742.3811 31.814453
75.898376 742.3811 31.814453
80.583206 755.76172 7.0761719
85.955338 755.76172 7.0761719
91.327667 755.76172 7.0761719
96.699806 755.76172 7.0761719
102.07214 755.76172 7.0761719
107.44427 755.76172 7.0761719
113.84736 742.3811 31.814453
119.26879 742.3811 31.814453
124.69002 742.3811 31.814453
130.11145 742.3811 31.814453
136.76001 729.00037 56.55249
142.23032 729.00037 56.55249
149.07372 715.1416 82.174561
156.01857 701.28296 107.79614
161.59081 701.28296 107.79614
168.7408 686.94641 134.30151
174.36542 686.94641 134.30151
179.99023 686.94641 134.30151
-131.11081 590.18469 300.72363
-125.15121 590.18469 300.72363
-117.99934 606.48779 270.70728
-112.09934 606.48779 270.70728
-106.19936 606.48779 270.70728
-100.29948 606.48779 270.70728
-94.399498 606.48779 270.70728
-88.499504 606.48779 270.70728
-82.59951 606.48779 270.70728
-75.970139 621.83154 242.45703
-70.126366 621.83154 242.45703
-64.282486 621.83154 242.45703
-58.438602 621.83154 242.45703
-52.594719 621.83154 242.45703
-47.199688 606.48779 270.70728
-41.299816 606.48779 270.70728
-35.399826 606.48779 270.70728
-29.219301 621.83154 242.45703
-23.14398 637.65503 213.32373
-17.194897 652.51953 185.95605
-11.35463 667.38403 158.58838
-5.6773152 667.38403 158.58838
0 681.76892 132.104
5.5720086 696.15381 105.61914
11.14423 696.15381 105.61914
16.716238 696.15381 105.61914
22.28846 696.15381 105.61914
27.860468 696.15381 105.61914
33.127396 710.05933 80.01709
38.648773 710.05933 80.01709
43.763157 723.96484 54.415039
49.233688 723.96484 54.415039
54.704002 723.96484 54.415039
60.174316 723.96484 54.415039
65.055725 737.39075 29.696289
70.476952 737.39075 29.696289
75.898376 737.39075 29.696289
80.583206 750.81665 4.9770508
85.955338 750.81665 4.9770508
91.327667 750.81665 4.9770508
96.699806 750.81665 4.9770508
102.07214 750.81665 4.9770508
107.44427 750.81665 4.9770508
113.84736 737.39075 29.696289
119.26879 737.39075 29.696289
124.69002 737.39075 29.696289
131.28969 723.96484 54.415039
136.76001 723.96484 54.415039
143.55234 710.05933 80.01709
149.07372 710.05933 80.01709
156.01857 696.15381 105.61914
161.59081 696.15381 105.61914
168.7408 681.76892 132.104
172.73482 696.15381 105.61914
178.30704 696.15381 105.61914
-131.11081 584.69885 298.39502
-125.15121 584.69885 298.39502
-119.1916 584.69885 298.39502
-113.232 584.69885 298.39502
-107.27239 584.69885 298.39502
-101.31291 584.69885 298.39502
-94.399498 601.05664 268.40186
-88.499504 601.05664 268.40186
-82.59951 601.05664 268.40186
-75.970139 616.45215 240.17358
-70.126366 616.45215 240.17358
-64.282486 616.45215 240.17358
-58.438602 616.45215 240.17358
-52.594719 616.45215 240.17358
-47.199688 601.05664 268.40186
-41.299816 601.05664 268.40186
-35.399826 601.05664 268.40186
-29.219301 616.45215 240.17358
-23.14398 632.32898 211.06299
-17.194897 647.24341 183.71655
-11.35463 662.15796 156.37012
-5.6773152 662.15796 156.37012
0 676.59131 129.90625
5.5720086 691.02466 103.44189
11.14423 691.02466 103.44189
16.716238 691.02466 103.44189
22.28846 691.02466 103.44189
27.860468 691.02466 103.44189
33.127396 704.97693 77.859863
38.648773 704.97693 77.859863
43.763157 718.9292 52.277588
49.233688 718.9292 52.277588
54.704002 718.9292 52.277588
59.634293 732.40039 27.577881
65.055725 732.40039 27.577881
69.838737 745.87146 2.8779297
75.211067 745.87146 2.8779297
80.583206 745.87146 2.8779297
85.955338 745.87146 2.8779297
91.327667 745.87146 2.8779297
96.699806 745.87146 2.8779297
102.07214 745.87146 2.8779297
107.44427 745.87146 2.8779297
113.84736 732.40039 27.577881
119.26879 732.40039 27.577881
124.69002 732.40039 27.577881
131.28969 718.9292 52.277588
136.76001 718.9292 52.277588
143.55234 704.97693 77.859863
149.07372 704.97693 77.859863
156.01857 691.02466 103.44189
161.59081 691.02466 103.44189
168.7408 676.59131 129.90625
172.73482 691.02466 103.44189
178.30704 691.02466 103.44189
-131.11081 579.21313 296.06641
-125.15121 579.21313 296.06641
-119.1916 579.21313 296.06641
-113.232 579.21313 296.06641
-107.27239 579.21313 296.06641
-100.29948 595.62585 266.09668
-94.399498 595.62585 266.09668
-88.499504 595.62585 266.09668
-82.59951 595.62585 266.09668
-75.970139 611.073 237.89014
-70.126366 611.073 237.89014
-64.282486 611.073 237.89014
-58.438602 611.073 237.89014
-52.594719 611.073 237.89014
-47.199688 595.62585 266.09668
-41.299816 595.62585 266.09668
-35.399826 595.62585 266.09668
-29.219301 611.073 237.89014
-23.14398 627.00305 208.80225
-17.357956 627.00305 208.80225
-11.463337 641.96753 181.47705
-5.6773152 656.93201 154.15186
0 671.41382 127.7085
5.6246076 671.41382 127.7085
11.14423 685.89563 101.26465
16.716238 685.89563 101.26465
22.28846 685.89563 101.26465
27.860468 685.89563 101.26465
33.127396 699.89465 75.702637
38.648773 699.89465 75.702637
43.763157 713.8938 50.140137
49.233688 713.8938 50.140137
54.21307 727.41016 25.459717
59.634293 727.41016 25.459717
65.055725 727.41016 25.459717
69.838737 740.92639 0.77880859
75.211067 740.92639 0.77880859
80.583206 740.92639 0.77880859
85.955338 740.92639 0.77880859
91.327667 740.92639 0.77880859
96.699806 740.92639 0.77880859
102.07214 740.92639 0.77880859
108.42614 727.41016 25.459717
113.84736 727.41016 25.459717
119.26879 727.41016 25.459717
125.81916 713.8938 50.140137
131.28969 713.8938 50.140137
136.76001 713.8938 50.140137
143.55234 699.89465 75.702637
150.44656 685.89563 101.26465
156.01857 685.89563 101.26465
161.59081 685.89563 101.26465
167.16281 685.89563 101.26465
172.73482 685.89563 101.26465
178.30704 685.89563 101.26465
-131.11081 573.72717 293.73779
-125.15121 573.72717 293.73779
-119.1916 573.72717 293.73779
-113.232 573.72717 293.73779
-107.27239 573.72717 293.73779
-100.29948 590.19482 263.79126
-94.399498 590.19482 263.79126
-88.499504 590.19482 263.79126
-82.59951 590.19482 263.79126
-76.699524 590.19482 263.79126
-70.799652 590.19482 263.79126
-64.282486 605.6936 235.60669
-58.438602 605.6936 235.60669
-53.099682 590.19482 263.79126
-47.199688 590.19482 263.79126
-41.299816 590.19482 263.79126
-35.399826 590.19482 263.79126
-29.499834 590.19482 263.79126
-23.375418 605.6936 235.60669
-17.357956 621.67688 206.54126
-11.463337 636.69141 179.23755
-5.6773152 651.70605 151.93359
0 651.70605 151.93359
5.6246076 666.23621 125.51074
11.14423 680.76636 99.087402
16.716238 680.76636 99.087402
22.28846 680.76636 99.087402
27.860468 680.76636 99.087402
33.127396 694.81226 73.545166
38.648773 694.81226 73.545166
43.763157 708.85815 48.002686
49.233688 708.85815 48.002686
54.21307 722.41968 23.341309
59.634293 722.41968 23.341309
65.055725 722.41968 23.341309
70.476952 722.41968 23.341309
75.211067 735.9812 -1.3203125
80.583206 735.9812 -1.3203125
85.955338 735.9812 -1.3203125
91.327667 735.9812 -1.3203125
96.699806 735.9812 -1.3203125
103.00491 722.41968 23.341309
108.42614 722.41968 23.341309
113.84736 722.41968 23.341309
119.26879 722.41968 23.341309
125.81916 708.85815 48.002686
131.28969 708.85815 48.002686
136.76001 708.85815 48.002686
144.87434 680.76636 99.087402
150.44656 680.76636 99.087402
156.01857 680.76636 99.087402
161.59081 680.76636 99.087402
167.16281 680.76636 99.087402
172.73482 680.76636 99.087402
-137.0703 568.24146 291.40918
-131.11081 568.24146 291.40918
-125.15121 568.24146 291.40918
-119.1916 568.24146 291.40918
-113.232 568.24146 291.40918
-107.27239 568.24146 291.40918
-101.31291 568.24146 291.40918
-94.399498 584.76392 261.48608
-88.499504 584.76392 261.48608
-82.59951 584.76392 261.48608
-76.699524 584.76392 261.48608
-70.799652 584.76392 261.48608
-64.282486 600.31445 233.32349
-58.438602 600.31445 233.32349
-53.099682 584.76392 261.48608
-47.199688 584.76392 261.48608
-41.299816 584.76392 261.48608
-35.399826 584.76392 261.48608
-29.499834 584.76392 261.48608
-23.14398 616.35095 204.28052
-17.357956 616.35095 204.28052
-11.463337 631.41553 176.99805
-5.6773152 646.4801 149.71533
0 646.4801 149.71533
5.6246076 661.05872 123.31299
11.14423 675.63733 96.9104
16.716238 675.63733 96.9104
22.28846 675.63733 96.9104
27.860468 675.63733 96.9104
33.127396 689.72998 71.387939
38.648773 689.72998 71.387939
43.763157 703.82275 45.865234
49.233688 703.82275 45.865234
54.21307 717.42944 21.223145
59.634293 717.42944 21.223145
65.055725 717.42944 21.223145
70.476952 717.42944 21.223145
75.898376 717.42944 21.223145
81.319603 717.42944 21.223145
86.740829 717.42944 21.223145
92.162254 717.42944 21.223145
97.583481 717.42944 21.223145
103.00491 717.42944 21.223145
108.42614 717.42944 21.223145
113.84736 717.42944 21.223145
120.34885 703.82275 45.865234
125.81916 703.82275 45.865234
132.51001 689.72998 71.387939
138.03117 689.72998 71.387939
144.87434 675.63733 96.9104
150.44656 675.63733 96.9104
156.01857 675.63733 96.9104
161.59081 675.63733 96.9104
168.7408 661.05872 123.31299
-137.0703 562.75562 289.08057
-131.11081 562.75562 289.08057
-125.15121 562.75562 289.08057
-119.1916 562.75562 289.08057
-113.232 562.75562 289.08057
-107.27239 562.75562 289.08057
-101.31291 562.75562 289.08057
-94.399498 579.33301 259.18066
-88.499504 579.33301 259.18066
-82.59951 579.33301 259.18066
-76.699524 579.33301 259.18066
-70.799652 579.33301 259.18066
-64.899658 579.33301 259.18066
-58.999668 579.33301 259.18066
-53.099682 579.33301 259.18066
-47.199688 579.33301 259.18066
-41.299816 579.33301 259.18066
-35.399826 579.33301 259.18066
-29.499834 579.33301 259.18066
-23.14398 611.02478 202.01978
-17.357956 611.02478 202.01978
-11.572044 611.02478 202.01978
-5.7316685 626.1394 174.7583
0 641.25403 147.49707
5.6246076 655.8811 121.11523
11.24943 655.8811 121.11523
16.716238 670.50818 94.733154
22.28846 670.50818 94.733154
27.860468 670.50818 94.733154
33.127396 684.64758 69.230469
38.648773 684.64758 69.230469
43.763157 698.78711 43.727783
49.233688 698.78711 43.727783
54.21307 712.43896 19.104736
59.634293 712.43896 19.104736
65.055725 712.43896 19.104736
70.476952 712.43896 19.104736
75.898376 712.43896 19.104736
81.319603 712.43896 19.104736
86.740829 712.43896 19.104736
92.162254 712.43896 19.104736
97.583481 712.43896 19.104736
103.00491 712.43896 19.104736
108.42614 712.43896 19.104736
114.87832 698.78711 43.727783
120.34885 698.78711 43.727783
126.98864 684.64758 69.230469
132.51001 684.64758 69.230469
139.30234 670.50818 94.733154
146.24194 655.8811 121.11523
151.86678 655.8811 121.11523
157.49138 655.8811 121.11523
163.1162 655.8811 121.11523
168.7408 655.8811 121.11523
-137.0703 557.26965 286.75195
-131.11081 557.26965 286.75195
-125.15121 557.26965 286.75195
-119.1916 557.26965 286.75195
-113.232 557.26965 286.75195
-107.27239 557.26965 286.75195
-101.31291 557.26965 286.75195
-94.399498 573.90186 256.87549
-88.499504 573.90186 256.87549
-82.59951 573.90186 256.87549
-76.699524 573.90186 256.87549
-70.799652 573.90186 256.87549
-64.899658 573.90186 256.87549
-58.999668 573.90186 256.87549
-53.099682 573.90186 256.87549
-47.199688 573.90186 256.87549
-41.299816 573.90186 256.87549
-35.399826 573.90186 256.87549
-29.499834 573.90186 256.87549
-23.375418 589.55566 228.75659
-17.357956 605.69873 199.75903
-11.572044 605.69873 199.75903
-5.7316685 620.86328 172.5188
0 636.02808 145.27881
5.6772065 636.02808 145.27881
11.24943 650.70349 118.91748
16.874039 650.70349 118.91748
22.28846 665.37891 92.555908
27.860468 665.37891 92.555908
33.127396 679.56519 67.073242
38.648773 679.56519 67.073242
43.763157 693.75159 41.590332
49.233688 693.75159 41.590332
54.21307 707.44861 16.986572
59.634293 707.44861 16.986572
65.055725 707.44861 16.986572
70.476952 707.44861 16.986572
75.898376 707.44861 16.986572
81.319603 707.44861 16.986572
86.740829 707.44861 16.986572
92.162254 707.44861 16.986572
97.583481 707.44861 16.986572
103.00491 707.44861 16.986572
109.408 693.75159 41.590332
114.87832 693.75159 41.590332
120.34885 693.75159 41.590332
126.98864 679.56519 67.073242
133.73033 665.37891 92.555908
139.30234 665.37891 92.555908
146.24194 650.70349 118.91748
151.86678 650.70349 118.91748
157.49138 650.70349 118.91748
163.1162 650.70349 118.91748
168.7408 650.70349 118.91748
-137.0703 551.78394 284.42334
-131.11081 551.78394 284.42334
-125.15121 551.78394 284.42334
-119.1916 551.78394 284.42334
-113.232 551.78394 284.42334
-107.27239 551.78394 284.42334
-101.31291 551.78394 284.42334
-94.399498 568.47107 254.57007
-88.499504 568.47107 254.57007
-82.59951 568.47107 254.57007
-76.699524 568.47107 254.57007
-70.799652 568.47107 254.57007
-64.899658 568.47107 254.57007
-58.999668 568.47107 254.57007
-53.099682 568.47107 254.57007
-47.199688 568.47107 254.57007
-41.299816 568.47107 254.57007
-35.399826 568.47107 254.57007
-29.499834 568.47107 254.57007
-23.375418 584.17639 226.47339
-17.531536 584.17639 226.47339
-11.572044 600.3728 197.49829
-5.7316685 615.5874 170.2793
0 630.80212 143.06055
5.6772065 630.80212 143.06055
11.24943 645.526 116.71973
16.874039 645.526 116.71973
22.28846 660.24988 90.378662
27.860468 660.24988 90.378662
33.127396 674.48291 64.916016
38.292843 688.71606 39.452881
43.370415 702.45837 14.868164
48.791843 702.45837 14.868164
54.21307 702.45837 14.868164
59.094265 716.20068 -9.7165527
64.466599 716.20068 -9.7165527
69.838737 716.20068 -9.7165527
75.898376 702.45837 14.868164
81.319603 702.45837 14.868164
86.740829 702.45837 14.868164
92.162254 702.45837 14.868164
97.583481 702.45837 14.868164
103.93769 688.71606 39.452881
109.408 688.71606 39.452881
114.87832 688.71606 39.452881
121.46747 674.48291 64.916016
126.98864 674.48291 64.916016
133.73033 660.24988 90.378662
139.30234 660.24988 90.378662
146.24194 645.526 116.71973
151.86678 645.526 116.71973
157.49138 645.526 116.71973
163.1162 645.526 116.71973
168.7408 645.526 116.71973
-137.0703 546.2981 282.09473
-131.11081 546.2981 282.09473
-125.15121 546.2981 282.09473
-119.1916 546.2981 282.09473
-113.232 546.2981 282.09473
-107.27239 546.2981 282.09473
-101.31291 546.2981 282.09473
-95.35331 546.2981 282.09473
-88.499504 563.04004 252.26489
-82.59951 563.04004 252.26489
-76.699524 563.04004 252.26489
-70.799652 563.04004 252.26489
-64.899658 563.04004 252.26489
-58.999668 563.04004 252.26489
-53.099682 563.04004 252.26489
-47.199688 563.04004 252.26489
-41.299816 563.04004 252.26489
-35.399826 563.04004 252.26489
-29.499834 563.04004 252.26489
-23.375418 578.79712 224.18994
-17.531536 578.79712 224.18994
-11.572044 595.04663 195.23755
-5.7316685 610.31128 168.03979
0 610.31128 168.03979
5.6772065 625.57605 140.84204
11.35463 625.57605 140.84204
16.874039 640.34839 114.52197
22.498859 640.34839 114.52197
27.860468 655.12061 88.201416
33.432476 655.12061 88.201416
38.292843 683.68054 37.31543
43.370415 697.46802 12.75
48.791843 697.46802 12.75
54.21307 697.46802 12.75
59.094265 711.25537 -11.815674
