ply
format ascii 1.0
comment PCL generated
element vertex 1600
property float x
property float y
property float z
element camera 0
property float view_px
property float view_py
property float view_pz
property float x_axisx
property float x_axisy
property float x_axisz
property float y_axisx
property float y_axisy
property float y_axisz
property float z_axisx
property float z_axisy
property float z_axisz
property float focal
property float scalex
property float scaley
property float centerx
property float centery
property int viewportx
property int viewporty
property float k1
property float k2
end_header
147.7709 1043.8993 70.719727
153.04855 1043.8993 70.719727
158.326 1043.8993 70.719727
163.60345 1043.8993 70.719727
168.8811 1043.8993 70.719727
174.15857 1043.8993 70.719727
179.43622 1043.8993 70.719727
186.37057 1033.3496 95.573242
191.69536 1033.3496 95.573242
197.02036 1033.3496 95.573242
204.14407 1022.7998 120.427
209.5164 1022.7998 120.427
-82.818703 984.50525 196.51245
-77.297432 984.50525 196.51245
-69.838737 1017.8546 118.32788
-64.466599 1017.8546 118.32788
-59.094368 1017.8546 118.32788
-53.722134 1017.8546 118.32788
-47.92384 1028.448 93.492676
-42.598946 1028.448 93.492676
-37.274155 1028.448 93.492676
-31.949263 1028.448 93.492676
-26.387667 1039.0413 68.657715
-20.927767 1049.2423 44.742188
-15.695801 1049.2423 44.742188
-10.463933 1049.2423 44.742188
-5.2319665 1049.2423 44.742188
0 1049.2423 44.742188
5.2318668 1049.2423 44.742188
10.463933 1049.2423 44.742188
15.695801 1049.2423 44.742188
20.927866 1049.2423 44.742188
25.931801 1059.4431 20.826904
31.118082 1059.4431 20.826904
36.623669 1049.2423 44.742188
42.22023 1039.0413 68.657715
47.497883 1039.0413 68.657715
53.248734 1028.448 93.492676
58.573528 1028.448 93.492676
63.898525 1028.448 93.492676
69.838737 1017.8546 118.32788
75.898376 1006.869 144.08276
81.319603 1006.869 144.08276
85.955338 1017.8546 118.32788
91.327667 1017.8546 118.32788
96.699806 1017.8546 118.32788
102.07214 1017.8546 118.32788
106.49747 1028.448 93.492676
110.82812 1039.0413 68.657715
116.10578 1039.0413 68.657715
121.38322 1039.0413 68.657715
126.66088 1039.0413 68.657715
130.79868 1049.2423 44.742188
136.03053 1049.2423 44.742188
141.2626 1049.2423 44.742188
147.7709 1039.0413 68.657715
153.04855 1039.0413 68.657715
158.326 1039.0413 68.657715
163.60345 1039.0413 68.657715
168.8811 1039.0413 68.657715
174.15857 1039.0413 68.657715
179.43622 1039.0413 68.657715
186.37057 1028.448 93.492676
191.69536 1028.448 93.492676
197.02036 1028.448 93.492676
202.34515 1028.448 93.492676
207.67015 1028.448 93.492676
212.99493 1028.448 93.492676
-82.818703 979.42297 194.35522
-77.297432 979.42297 194.35522
-71.115158 990.8479 167.7002
-65.055725 1001.8787 141.9646
-59.634396 1001.8787 141.9646
-53.722134 1012.9095 116.22876
-48.349903 1012.9095 116.22876
-42.598946 1023.5465 91.412109
-37.274155 1023.5465 91.412109
-31.949263 1023.5465 91.412109
-26.387667 1034.1833 66.595459
-20.927767 1044.4263 42.697998
-15.695801 1044.4263 42.697998
-10.463933 1044.4263 42.697998
-5.2319665 1044.4263 42.697998
0 1044.4263 42.697998
5.2318668 1044.4263 42.697998
10.463933 1044.4263 42.697998
15.695801 1044.4263 42.697998
20.927866 1044.4263 42.697998
26.159735 1044.4263 42.697998
31.391602 1044.4263 42.697998
36.623669 1044.4263 42.697998
42.22023 1034.1833 66.595459
47.497883 1034.1833 66.595459
53.248734 1023.5465 91.412109
58.573528 1023.5465 91.412109
63.898525 1023.5465 91.412109
69.838737 1012.9095 116.22876
75.898376 1001.8787 141.9646
81.319603 1001.8787 141.9646
85.955338 1012.9095 116.22876
91.327667 1012.9095 116.22876
96.699806 1012.9095 116.22876
102.07214 1012.9095 116.22876
106.49747 1023.5465 91.412109
110.82812 1034.1833 66.595459
116.10578 1034.1833 66.595459
121.38322 1034.1833 66.595459
126.66088 1034.1833 66.595459
130.79868 1044.4263 42.697998
136.03053 1044.4263 42.697998
142.49345 1034.1833 66.595459
147.7709 1034.1833 66.595459
153.04855 1034.1833 66.595459
158.326 1034.1833 66.595459
163.60345 1034.1833 66.595459
168.8811 1034.1833 66.595459
174.15857 1034.1833 66.595459
179.43622 1034.1833 66.595459
186.37057 1023.5465 91.412109
191.69536 1023.5465 91.412109
197.02036 1023.5465 91.412109
202.34515 1023.5465 91.412109
207.67015 1023.5465 91.412109
211.10133 1034.1833 66.595459
-82.818703 974.34058 192.198
-77.297432 974.34058 192.198
-71.115158 985.81226 165.56274
-65.644844 985.81226 165.56274
-60.174423 985.81226 165.56274
-54.21307 996.88831 139.84644
-48.79174 996.88831 139.84644
-42.977669 1007.9644 114.12964
-37.274155 1018.6449 89.331543
-31.949263 1018.6449 89.331543
-26.624367 1018.6449 89.331543
-21.110115 1029.3252 64.533447
-15.83256 1029.3252 64.533447
-10.555108 1029.3252 64.533447
-5.2319665 1039.6102 40.653809
0 1039.6102 40.653809
5.2318668 1039.6102 40.653809
10.463933 1039.6102 40.653809
15.695801 1039.6102 40.653809
20.927866 1039.6102 40.653809
26.159735 1039.6102 40.653809
31.391602 1039.6102 40.653809
36.942772 1029.3252 64.533447
42.22023 1029.3252 64.533447
47.497883 1029.3252 64.533447
53.248734 1018.6449 89.331543
58.573528 1018.6449 89.331543
63.898525 1018.6449 89.331543
69.838737 1007.9644 114.12964
75.898376 996.88831 139.84644
80.583206 1007.9644 114.12964
85.955338 1007.9644 114.12964
91.327667 1007.9644 114.12964
96.699806 1007.9644 114.12964
102.07214 1007.9644 114.12964
107.44427 1007.9644 114.12964
111.82227 1018.6449 89.331543
117.14725 1018.6449 89.331543
121.38322 1029.3252 64.533447
126.66088 1029.3252 64.533447
131.93834 1029.3252 64.533447
137.21579 1029.3252 64.533447
142.49345 1029.3252 64.533447
147.7709 1029.3252 64.533447
153.04855 1029.3252 64.533447
158.326 1029.3252 64.533447
163.60345 1029.3252 64.533447
168.8811 1029.3252 64.533447
174.15857 1029.3252 64.533447
179.43622 1029.3252 64.533447
184.71367 1029.3252 64.533447
189.99112 1029.3252 64.533447
195.26877 1029.3252 64.533447
200.54623 1029.3252 64.533447
205.8239 1029.3252 64.533447
211.10133 1029.3252 64.533447
-83.581406 957.73999 216.65576
-77.297432 969.2583 190.04053
-71.776169 969.2583 190.04053
-65.644844 980.77686 163.42529
-60.174423 980.77686 163.42529
-54.21307 991.89807 137.72803
-48.79174 991.89807 137.72803
-42.977669 1003.0193 112.03076
-37.274155 1013.7433 87.250977
-31.949263 1013.7433 87.250977
-26.624367 1013.7433 87.250977
-21.110115 1024.4673 62.471436
-15.83256 1024.4673 62.471436
-10.555108 1024.4673 62.471436
-5.277554 1024.4673 62.471436
0 1024.4673 62.471436
5.2774534 1024.4673 62.471436
10.555108 1024.4673 62.471436
15.83256 1024.4673 62.471436
20.927866 1034.7942 38.609375
26.159735 1034.7942 38.609375
31.391602 1034.7942 38.609375
36.942772 1024.4673 62.471436
42.22023 1024.4673 62.471436
47.497883 1024.4673 62.471436
53.248734 1013.7433 87.250977
58.573528 1013.7433 87.250977
63.898525 1013.7433 87.250977
69.838737 1003.0193 112.03076
75.898376 991.89807 137.72803
80.583206 1003.0193 112.03076
85.955338 1003.0193 112.03076
91.327667 1003.0193 112.03076
96.699806 1003.0193 112.03076
103.00491 991.89807 137.72803
107.44427 1003.0193 112.03076
112.81641 1003.0193 112.03076
117.14725 1013.7433 87.250977
121.38322 1024.4673 62.471436
126.66088 1024.4673 62.471436
131.93834 1024.4673 62.471436
137.21579 1024.4673 62.471436
142.49345 1024.4673 62.471436
147.7709 1024.4673 62.471436
153.04855 1024.4673 62.471436
158.326 1024.4673 62.471436
163.60345 1024.4673 62.471436
168.8811 1024.4673 62.471436
174.15857 1024.4673 62.471436
179.43622 1024.4673 62.471436
184.71367 1024.4673 62.471436
189.99112 1024.4673 62.471436
195.26877 1024.4673 62.471436
200.54623 1024.4673 62.471436
205.8239 1024.4673 62.471436
211.10133 1024.4673 62.471436
-77.297432 964.1759 187.8833
-71.776169 964.1759 187.8833
-65.644844 975.74121 161.28784
-60.174423 975.74121 161.28784
-54.704002 975.74121 161.28784
-48.79174 986.90759 135.60986
-42.977669 998.07397 109.93164
-37.605534 998.07397 109.93164
-31.949263 1008.8417 85.170166
-26.624367 1008.8417 85.170166
-21.110115 1019.6093 60.40918
-15.83256 1019.6093 60.40918
-10.555108 1019.6093 60.40918
-5.277554 1019.6093 60.40918
0 1019.6093 60.40918
5.2774534 1019.6093 60.40918
10.649788 1008.8417 85.170166
15.83256 1019.6093 60.40918
21.110216 1019.6093 60.40918
26.387667 1019.6093 60.40918
31.665119 1019.6093 60.40918
36.942772 1019.6093 60.40918
42.22023 1019.6093 60.40918
47.923943 1008.8417 85.170166
53.248734 1008.8417 85.170166
58.573528 1008.8417 85.170166
63.898525 1008.8417 85.170166
69.223312 1008.8417 85.170166
75.211067 998.07397 109.93164
80.583206 998.07397 109.93164
85.955338 998.07397 109.93164
91.327667 998.07397 109.93164
96.699806 998.07397 109.93164
102.07214 998.07397 109.93164
108.42614 986.90759 135.60986
112.81641 998.07397 109.93164
117.14725 1008.8417 85.170166
121.38322 1019.6093 60.40918
126.66088 1019.6093 60.40918
131.93834 1019.6093 60.40918
137.21579 1019.6093 60.40918
142.49345 1019.6093 60.40918
147.7709 1019.6093 60.40918
153.04855 1019.6093 60.40918
158.326 1019.6093 60.40918
163.60345 1019.6093 60.40918
168.8811 1019.6093 60.40918
172.65421 1029.9781 36.565186
177.88628 1029.9781 36.565186
183.11813 1029.9781 36.565186
188.35001 1029.9781 36.565186
195.26877 1019.6093 60.40918
200.54623 1019.6093 60.40918
205.8239 1019.6093 60.40918
211.10133 1019.6093 60.40918
-77.297432 959.09363 185.72607
-71.776169 959.09363 185.72607
-65.644844 970.70581 159.15039
-60.174423 970.70581 159.15039
-54.704002 970.70581 159.15039
-48.79174 981.91736 133.49146
-42.977669 993.12891 107.83252
-37.605534 993.12891 107.83252
-31.949263 1003.9402 83.0896
-26.624367 1003.9402 83.0896
-21.110115 1014.7513 58.347168
-15.83256 1014.7513 58.347168
-10.555108 1014.7513 58.347168
-5.277554 1014.7513 58.347168
0 1014.7513 58.347168
5.2774534 1014.7513 58.347168
10.649788 1003.9402 83.0896
15.97458 1003.9402 83.0896
21.110216 1014.7513 58.347168
26.387667 1014.7513 58.347168
31.665119 1014.7513 58.347168
36.942772 1014.7513 58.347168
42.22023 1014.7513 58.347168
47.923943 1003.9402 83.0896
53.248734 1003.9402 83.0896
58.573528 1003.9402 83.0896
63.898525 1003.9402 83.0896
69.223312 1003.9402 83.0896
75.211067 993.12891 107.83252
80.583206 993.12891 107.83252
85.955338 993.12891 107.83252
91.327667 993.12891 107.83252
96.699806 993.12891 107.83252
102.07214 993.12891 107.83252
108.42614 981.91736 133.49146
112.81641 993.12891 107.83252
117.14725 1003.9402 83.0896
122.47205 1003.9402 83.0896
126.66088 1014.7513 58.347168
131.93834 1014.7513 58.347168
137.21579 1014.7513 58.347168
142.49345 1014.7513 58.347168
147.7709 1014.7513 58.347168
153.04855 1014.7513 58.347168
158.326 1014.7513 58.347168
163.60345 1014.7513 58.347168
168.8811 1014.7513 58.347168
172.65421 1025.1622 34.520996
177.88628 1025.1622 34.520996
183.11813 1025.1622 34.520996
188.35001 1025.1622 34.520996
195.26877 1014.7513 58.347168
200.54623 1014.7513 58.347168
205.8239 1014.7513 58.347168
211.10133 1014.7513 58.347168
-77.297432 954.01123 183.5686
-71.776169 954.01123 183.5686
-65.644844 965.67017 157.01294
-60.174423 965.67017 157.01294
-54.21307 976.927 131.37329
-48.79174 976.927 131.37329
-42.977669 988.18372 105.7334
-37.274155 999.03857 81.009033
-31.949263 999.03857 81.009033
-26.624367 999.03857 81.009033
-21.110115 1009.8933 56.285156
-15.83256 1009.8933 56.285156
-10.649788 999.03857 81.009033
-5.277554 1009.8933 56.285156
0 1009.8933 56.285156
5.3247924 999.03857 81.009033
10.649788 999.03857 81.009033
15.97458 999.03857 81.009033
21.110216 1009.8933 56.285156
26.387667 1009.8933 56.285156
31.665119 1009.8933 56.285156
36.942772 1009.8933 56.285156
42.22023 1009.8933 56.285156
47.923943 999.03857 81.009033
53.248734 999.03857 81.009033
58.573528 999.03857 81.009033
63.898525 999.03857 81.009033
69.223312 999.03857 81.009033
75.211067 988.18372 105.7334
80.583206 988.18372 105.7334
85.955338 988.18372 105.7334
91.327667 988.18372 105.7334
96.699806 988.18372 105.7334
103.00491 976.927 131.37329
108.42614 976.927 131.37329
113.84736 976.927 131.37329
117.14725 999.03857 81.009033
122.47205 999.03857 81.009033
126.66088 1009.8933 56.285156
131.93834 1009.8933 56.285156
137.21579 1009.8933 56.285156
142.49345 1009.8933 56.285156
147.7709 1009.8933 56.285156
153.04855 1009.8933 56.285156
158.326 1009.8933 56.285156
163.60345 1009.8933 56.285156
168.8811 1009.8933 56.285156
172.65421 1020.3461 32.476562
177.88628 1020.3461 32.476562
183.11813 1020.3461 32.476562
189.99112 1009.8933 56.285156
195.26877 1009.8933 56.285156
200.54623 1009.8933 56.285156
205.8239 1009.8933 56.285156
211.10133 1009.8933 56.285156
-77.297432 948.92896 181.41138
-71.776169 948.92896 181.41138
-65.644844 960.63477 154.87549
-59.634396 971.93665 129.25488
-54.21307 971.93665 129.25488
-48.349903 983.23865 103.63428
-42.977669 983.23865 103.63428
-37.274155 994.13708 78.928467
-31.949263 994.13708 78.928467
-26.624367 994.13708 78.928467
-21.110115 1005.0354 54.2229
-15.83256 1005.0354 54.2229
-10.649788 994.13708 78.928467
-5.324894 994.13708 78.928467
0 994.13708 78.928467
5.3247924 994.13708 78.928467
10.649788 994.13708 78.928467
15.97458 994.13708 78.928467
21.299576 994.13708 78.928467
26.387667 1005.0354 54.2229
31.665119 1005.0354 54.2229
36.942772 1005.0354 54.2229
42.22023 1005.0354 54.2229
47.923943 994.13708 78.928467
53.722134 983.23865 103.63428
59.094265 983.23865 103.63428
64.466599 983.23865 103.63428
69.838737 983.23865 103.63428
75.211067 983.23865 103.63428
80.583206 983.23865 103.63428
85.955338 983.23865 103.63428
91.327667 983.23865 103.63428
96.699806 983.23865 103.63428
103.00491 971.93665 129.25488
108.42614 971.93665 129.25488
113.84736 971.93665 129.25488
118.18874 983.23865 103.63428
123.56087 983.23865 103.63428
127.79705 994.13708 78.928467
131.93834 1005.0354 54.2229
137.21579 1005.0354 54.2229
142.49345 1005.0354 54.2229
147.7709 1005.0354 54.2229
153.04855 1005.0354 54.2229
158.326 1005.0354 54.2229
163.60345 1005.0354 54.2229
168.8811 1005.0354 54.2229
172.65421 1015.5302 30.432373
177.88628 1015.5302 30.432373
183.11813 1015.5302 30.432373
189.99112 1005.0354 54.2229
195.26877 1005.0354 54.2229
200.54623 1005.0354 54.2229
205.8239 1005.0354 54.2229
211.10133 1005.0354 54.2229
216.37878 1005.0354 54.2229
-71.776169 943.84656 179.25391
-65.644844 955.59912 152.73804
-59.634396 966.94629 127.13672
-54.21307 966.94629 127.13672
-48.349903 978.29346 101.53516
-42.977669 978.29346 101.53516
-37.274155 989.23547 76.8479
-31.949263 989.23547 76.8479
-26.624367 989.23547 76.8479
-21.299473 989.23547 76.8479
-15.97458 989.23547 76.8479
-10.649788 989.23547 76.8479
-5.324894 989.23547 76.8479
0 989.23547 76.8479
5.3721313 978.29346 101.53516
10.649788 989.23547 76.8479
15.97458 989.23547 76.8479
21.299576 989.23547 76.8479
26.624367 989.23547 76.8479
31.94916 989.23547 76.8479
37.274155 989.23547 76.8479
42.598946 989.23547 76.8479
48.350006 978.29346 101.53516
53.722134 978.29346 101.53516
59.094265 978.29346 101.53516
64.466599 978.29346 101.53516
69.838737 978.29346 101.53516
75.211067 978.29346 101.53516
80.583206 978.29346 101.53516
85.955338 978.29346 101.53516
91.327667 978.29346 101.53516
96.699806 978.29346 101.53516
103.00491 966.94629 127.13672
108.42614 966.94629 127.13672
113.84736 966.94629 127.13672
118.18874 978.29346 101.53516
123.56087 978.29346 101.53516
127.79705 989.23547 76.8479
133.12184 989.23547 76.8479
137.21579 1000.1772 52.160889
142.49345 1000.1772 52.160889
147.7709 1000.1772 52.160889
153.04855 1000.1772 52.160889
158.326 1000.1772 52.160889
163.60345 1000.1772 52.160889
168.8811 1000.1772 52.160889
172.65421 1010.714 28.387939
177.88628 1010.714 28.387939
184.71367 1000.1772 52.160889
189.99112 1000.1772 52.160889
195.26877 1000.1772 52.160889
200.54623 1000.1772 52.160889
205.8239 1000.1772 52.160889
211.10133 1000.1772 52.160889
216.37878 1000.1772 52.160889
-71.776169 938.7644 177.09668
-65.644844 950.56372 150.60059
-60.174423 950.56372 150.60059
-54.21307 961.95605 125.01855
-48.79174 961.95605 125.01855
-42.977669 973.34839 99.436035
-37.605534 973.34839 99.436035
-32.233299 973.34839 99.436035
-26.861067 973.34839 99.436035
-21.299473 984.33398 74.767334
-15.97458 984.33398 74.767334
-10.649788 984.33398 74.767334
-5.3722343 973.34839 99.436035
0 973.34839 99.436035
5.3721313 973.34839 99.436035
10.744469 973.34839 99.436035
16.116598 973.34839 99.436035
21.299576 984.33398 74.767334
26.624367 984.33398 74.767334
31.94916 984.33398 74.767334
37.274155 984.33398 74.767334
42.598946 984.33398 74.767334
48.350006 973.34839 99.436035
53.722134 973.34839 99.436035
59.094265 973.34839 99.436035
64.466599 973.34839 99.436035
69.838737 973.34839 99.436035
75.211067 973.34839 99.436035
80.583206 973.34839 99.436035
85.955338 973.34839 99.436035
91.327667 973.34839 99.436035
96.699806 973.34839 99.436035
103.00491 961.95605 125.01855
108.42614 961.95605 125.01855
114.87832 950.56372 150.60059
119.26879 961.95605 125.01855
124.69002 961.95605 125.01855
128.9332 973.34839 99.436035
133.12184 984.33398 74.767334
137.21579 995.31934 50.098877
142.49345 995.31934 50.098877
147.7709 995.31934 50.098877
153.04855 995.31934 50.098877
158.326 995.31934 50.098877
163.60345 995.31934 50.098877
168.8811 995.31934 50.098877
172.65421 1005.8981 26.34375
177.88628 1005.8981 26.34375
184.71367 995.31934 50.098877
189.99112 995.31934 50.098877
195.26877 995.31934 50.098877
200.54623 995.31934 50.098877
205.8239 995.31934 50.098877
211.10133 995.31934 50.098877
216.37878 995.31934 50.098877
-71.115158 945.52808 148.46313
-65.055725 956.96558 122.90015
-59.634396 956.96558 122.90015
-54.21307 956.96558 122.90015
-48.79174 956.96558 122.90015
-42.977669 968.4032 97.336914
-37.605534 968.4032 97.336914
-32.233299 968.4032 97.336914
-26.861067 968.4032 97.336914
-21.299473 979.43225 72.686768
-15.97458 979.43225 72.686768
-10.649788 979.43225 72.686768
-5.3722343 968.4032 97.336914
0 968.4032 97.336914
5.3721313 968.4032 97.336914
10.744469 968.4032 97.336914
16.116598 968.4032 97.336914
21.488937 968.4032 97.336914
26.861067 968.4032 97.336914
32.233196 968.4032 97.336914
37.605534 968.4032 97.336914
42.977669 968.4032 97.336914
48.791843 956.96558 122.90015
54.21307 956.96558 122.90015
59.634293 956.96558 122.90015
64.466599 968.4032 97.336914
69.838737 968.4032 97.336914
75.211067 968.4032 97.336914
80.583206 968.4032 97.336914
85.955338 968.4032 97.336914
91.327667 968.4032 97.336914
96.699806 968.4032 97.336914
103.00491 956.96558 122.90015
108.42614 956.96558 122.90015
114.87832 945.52808 148.46313
120.34885 945.52808 148.46313
125.81916 945.52808 148.46313
130.11145 956.96558 122.90015
134.30534 968.4032 97.336914
137.21579 990.4613 48.036621
142.49345 990.4613 48.036621
147.7709 990.4613 48.036621
153.04855 990.4613 48.036621
158.326 990.4613 48.036621
163.60345 990.4613 48.036621
168.8811 990.4613 48.036621
172.65421 1001.082 24.299561
177.88628 1001.082 24.299561
184.71367 990.4613 48.036621
189.99112 990.4613 48.036621
195.26877 990.4613 48.036621
200.54623 990.4613 48.036621
205.8239 990.4613 48.036621
211.10133 990.4613 48.036621
216.37878 990.4613 48.036621
-71.115158 940.49268 146.32568
-65.055725 951.97534 120.78198
-59.634396 951.97534 120.78198
-54.21307 951.97534 120.78198
-48.79174 951.97534 120.78198
-42.977669 963.45813 95.238037
-37.605534 963.45813 95.238037
-32.233299 963.45813 95.238037
-26.861067 963.45813 95.238037
-21.299473 974.53076 70.606201
-15.97458 974.53076 70.606201
-10.649788 974.53076 70.606201
-5.3722343 963.45813 95.238037
0 963.45813 95.238037
5.3721313 963.45813 95.238037
10.744469 963.45813 95.238037
16.116598 963.45813 95.238037
21.68531 951.97534 120.78198
27.106535 951.97534 120.78198
32.52776 951.97534 120.78198
37.949188 951.97534 120.78198
43.370415 951.97534 120.78198
48.791843 951.97534 120.78198
54.21307 951.97534 120.78198
59.634293 951.97534 120.78198
65.055725 951.97534 120.78198
70.476952 951.97534 120.78198
75.898376 951.97534 120.78198
81.319603 951.97534 120.78198
86.740829 951.97534 120.78198
92.162254 951.97534 120.78198
97.583481 951.97534 120.78198
103.00491 951.97534 120.78198
108.42614 951.97534 120.78198
114.87832 940.49268 146.32568
120.34885 940.49268 146.32568
125.81916 940.49268 146.32568
131.28969 940.49268 146.32568
135.53267 951.97534 120.78198
137.21579 985.60339 45.974609
142.49345 985.60339 45.974609
147.7709 985.60339 45.974609
153.04855 985.60339 45.974609
158.326 985.60339 45.974609
163.60345 985.60339 45.974609
168.8811 985.60339 45.974609
172.65421 996.26599 22.255127
177.88628 996.26599 22.255127
184.71367 985.60339 45.974609
189.99112 985.60339 45.974609
195.26877 985.60339 45.974609
200.54623 985.60339 45.974609
205.8239 985.60339 45.974609
211.10133 985.60339 45.974609
216.37878 985.60339 45.974609
221.65645 985.60339 45.974609
-71.115158 935.45703 144.18823
-65.644844 935.45703 144.18823
-60.174423 935.45703 144.18823
-54.704002 935.45703 144.18823
-48.79174 946.98499 118.66357
-42.977669 958.51282 93.138916
-37.605534 958.51282 93.138916
-32.233299 958.51282 93.138916
-26.861067 958.51282 93.138916
-21.299473 969.62915 68.525635
-15.97458 969.62915 68.525635
-10.649788 969.62915 68.525635
-5.3722343 958.51282 93.138916
0 958.51282 93.138916
5.3721313 958.51282 93.138916
10.744469 958.51282 93.138916
16.26388 946.98499 118.66357
21.68531 946.98499 118.66357
27.106535 946.98499 118.66357
32.52776 946.98499 118.66357
37.949188 946.98499 118.66357
43.370415 946.98499 118.66357
48.791843 946.98499 118.66357
54.21307 946.98499 118.66357
59.634293 946.98499 118.66357
65.055725 946.98499 118.66357
70.476952 946.98499 118.66357
75.898376 946.98499 118.66357
81.319603 946.98499 118.66357
86.740829 946.98499 118.66357
92.162254 946.98499 118.66357
97.583481 946.98499 118.66357
103.00491 946.98499 118.66357
108.42614 946.98499 118.66357
114.87832 935.45703 144.18823
120.34885 935.45703 144.18823
125.81916 935.45703 144.18823
130.11145 946.98499 118.66357
135.53267 946.98499 118.66357
137.21579 980.74536 43.912354
142.49345 980.74536 43.912354
147.7709 980.74536 43.912354
153.04855 980.74536 43.912354
158.326 980.74536 43.912354
163.60345 980.74536 43.912354
168.8811 980.74536 43.912354
174.15857 980.74536 43.912354
179.43622 980.74536 43.912354
184.71367 980.74536 43.912354
189.99112 980.74536 43.912354
195.26877 980.74536 43.912354
200.54623 980.74536 43.912354
205.8239 980.74536 43.912354
211.10133 980.74536 43.912354
218.31973 969.62915 68.525635
223.64473 969.62915 68.525635
-72.437172 906.44861 194.88379
-65.644844 930.42163 142.05078
-60.174423 930.42163 142.05078
-54.704002 930.42163 142.05078
-48.79174 941.99463 116.54541
-43.370415 941.99463 116.54541
-37.605534 953.56775 91.039795
-32.233299 953.56775 91.039795
-26.861067 953.56775 91.039795
-21.299473 964.72766 66.445068
-15.97458 964.72766 66.445068
-10.649788 964.72766 66.445068
-5.3722343 953.56775 91.039795
0 953.56775 91.039795
5.3721313 953.56775 91.039795
10.744469 953.56775 91.039795
16.26388 941.99463 116.54541
21.68531 941.99463 116.54541
27.106535 941.99463 116.54541
32.52776 941.99463 116.54541
37.949188 941.99463 116.54541
43.370415 941.99463 116.54541
48.791843 941.99463 116.54541
54.21307 941.99463 116.54541
59.634293 941.99463 116.54541
65.055725 941.99463 116.54541
70.476952 941.99463 116.54541
75.898376 941.99463 116.54541
81.319603 941.99463 116.54541
86.740829 941.99463 116.54541
92.162254 941.99463 116.54541
97.583481 941.99463 116.54541
103.00491 941.99463 116.54541
108.42614 941.99463 116.54541
114.87832 930.42163 142.05078
120.34885 930.42163 142.05078
125.81916 930.42163 142.05078
130.11145 941.99463 116.54541
135.53267 941.99463 116.54541
138.44662 964.72766 66.445068
142.49345 975.88745 41.850342
147.7709 975.88745 41.850342
153.04855 975.88745 41.850342
158.326 975.88745 41.850342
163.60345 975.88745 41.850342
168.8811 975.88745 41.850342
174.15857 975.88745 41.850342
179.43622 975.88745 41.850342
184.71367 975.88745 41.850342
189.99112 975.88745 41.850342
195.26877 975.88745 41.850342
200.54623 975.88745 41.850342
205.8239 975.88745 41.850342
211.10133 975.88745 41.850342
216.37878 975.88745 41.850342
223.64473 964.72766 66.445068
-78.009285 901.31934 192.70654
-72.437172 901.31934 192.70654
-66.865166 901.31934 192.70654
-60.733734 913.35266 166.31006
-54.704002 925.38599 139.91333
-49.233582 925.38599 139.91333
-43.370415 937.00427 114.427
-37.949188 937.00427 114.427
-32.527863 937.00427 114.427
-27.106535 937.00427 114.427
-21.488834 948.62256 88.940674
-16.116598 948.62256 88.940674
-10.744469 948.62256 88.940674
-5.3722343 948.62256 88.940674
0 948.62256 88.940674
5.3721313 948.62256 88.940674
10.744469 948.62256 88.940674
16.26388 937.00427 114.427
21.68531 937.00427 114.427
27.106535 937.00427 114.427
32.52776 937.00427 114.427
37.949188 937.00427 114.427
43.370415 937.00427 114.427
48.791843 937.00427 114.427
54.21307 937.00427 114.427
59.634293 937.00427 114.427
65.055725 937.00427 114.427
70.476952 937.00427 114.427
75.898376 937.00427 114.427
81.319603 937.00427 114.427
86.740829 937.00427 114.427
92.162254 937.00427 114.427
97.583481 937.00427 114.427
103.00491 937.00427 114.427
108.42614 937.00427 114.427
114.87832 925.38599 139.91333
120.34885 925.38599 139.91333
125.81916 925.38599 139.91333
131.28969 925.38599 139.91333
135.53267 937.00427 114.427
138.44662 959.82605 64.364258
142.49345 971.02942 39.78833
147.7709 971.02942 39.78833
153.04855 971.02942 39.78833
158.326 971.02942 39.78833
163.60345 971.02942 39.78833
168.8811 971.02942 39.78833
174.15857 971.02942 39.78833
179.43622 971.02942 39.78833
184.71367 971.02942 39.78833
189.99112 971.02942 39.78833
195.26877 971.02942 39.78833
200.54623 971.02942 39.78833
205.8239 971.02942 39.78833
211.10133 971.02942 39.78833
216.37878 971.02942 39.78833
223.64473 959.82605 64.364258
-71.776169 908.27026 164.15283
-66.255005 908.27026 164.15283
-60.733734 908.27026 164.15283
-54.704002 920.35034 137.77588
-49.233582 920.35034 137.77588
-43.370415 932.01392 112.30884
-37.949188 932.01392 112.30884
-32.527863 932.01392 112.30884
-27.106535 932.01392 112.30884
-21.488834 943.67737 86.841553
-16.116598 943.67737 86.841553
-10.744469 943.67737 86.841553
-5.3722343 943.67737 86.841553
0 932.01392 112.30884
5.4212241 932.01392 112.30884
10.842655 932.01392 112.30884
16.26388 932.01392 112.30884
21.68531 932.01392 112.30884
27.106535 932.01392 112.30884
32.52776 932.01392 112.30884
37.949188 932.01392 112.30884
43.370415 932.01392 112.30884
48.791843 932.01392 112.30884
54.21307 932.01392 112.30884
59.634293 932.01392 112.30884
65.055725 932.01392 112.30884
70.476952 932.01392 112.30884
75.898376 932.01392 112.30884
81.319603 932.01392 112.30884
86.740829 932.01392 112.30884
92.162254 932.01392 112.30884
97.583481 932.01392 112.30884
103.00491 932.01392 112.30884
108.42614 932.01392 112.30884
114.87832 920.35034 137.77588
120.34885 920.35034 137.77588
126.98864 908.27026 164.15283
131.28969 920.35034 137.77588
135.53267 932.01392 112.30884
138.44662 954.92444 62.283691
142.49345 966.17126 37.726074
147.7709 966.17126 37.726074
153.04855 966.17126 37.726074
158.326 966.17126 37.726074
163.60345 966.17126 37.726074
168.8811 966.17126 37.726074
174.15857 966.17126 37.726074
179.43622 966.17126 37.726074
184.71367 966.17126 37.726074
189.99112 966.17126 37.726074
195.26877 966.17126 37.726074
200.54623 966.17126 37.726074
205.8239 966.17126 37.726074
211.10133 966.17126 37.726074
216.37878 966.17126 37.726074
223.64473 954.92444 62.283691
-71.776169 903.18799 161.99536
-66.255005 903.18799 161.99536
-60.733734 903.18799 161.99536
-54.704002 915.31494 135.63843
-49.233582 915.31494 135.63843
-43.370415 927.02356 110.19043
-37.949188 927.02356 110.19043
-32.527863 927.02356 110.19043
-27.106535 927.02356 110.19043
-21.488834 938.7323 84.742432
-16.116598 938.7323 84.742432
-10.744469 938.7323 84.742432
-5.4213276 927.02356 110.19043
0 927.02356 110.19043
5.4212241 927.02356 110.19043
10.842655 927.02356 110.19043
16.26388 927.02356 110.19043
21.68531 927.02356 110.19043
27.106535 927.02356 110.19043
32.52776 927.02356 110.19043
37.949188 927.02356 110.19043
43.370415 927.02356 110.19043
48.791843 927.02356 110.19043
54.21307 927.02356 110.19043
59.634293 927.02356 110.19043
65.055725 927.02356 110.19043
70.476952 927.02356 110.19043
75.898376 927.02356 110.19043
81.319603 927.02356 110.19043
86.740829 927.02356 110.19043
92.162254 927.02356 110.19043
97.583481 927.02356 110.19043
103.00491 927.02356 110.19043
108.42614 927.02356 110.19043
114.87832 915.31494 135.63843
120.34885 915.31494 135.63843
125.81916 915.31494 135.63843
131.28969 915.31494 135.63843
136.76001 915.31494 135.63843
138.44662 950.02295 60.203125
142.49345 961.31335 35.664062
147.7709 961.31335 35.664062
153.04855 961.31335 35.664062
158.326 961.31335 35.664062
163.60345 961.31335 35.664062
168.8811 961.31335 35.664062
174.15857 961.31335 35.664062
179.43622 961.31335 35.664062
184.71367 961.31335 35.664062
189.99112 961.31335 35.664062
195.26877 961.31335 35.664062
200.54623 961.31335 35.664062
205.8239 961.31335 35.664062
211.10133 961.31335 35.664062
216.37878 961.31335 35.664062
221.65645 961.31335 35.664062
-71.115158 910.2793 133.50098
-65.644844 910.2793 133.50098
-60.733734 898.10559 159.83813
-54.704002 910.2793 133.50098
-49.233582 910.2793 133.50098
-43.763157 910.2793 133.50098
-38.292843 910.2793 133.50098
-32.822422 910.2793 133.50098
-27.106535 922.0332 108.07227
-21.488834 933.78711 82.643311
-16.116598 933.78711 82.643311
-10.744469 933.78711 82.643311
-5.4213276 922.0332 108.07227
0 922.0332 108.07227
5.4212241 922.0332 108.07227
10.842655 922.0332 108.07227
16.26388 922.0332 108.07227
21.68531 922.0332 108.07227
27.106535 922.0332 108.07227
32.52776 922.0332 108.07227
37.949188 922.0332 108.07227
43.370415 922.0332 108.07227
48.791843 922.0332 108.07227
54.21307 922.0332 108.07227
59.634293 922.0332 108.07227
65.055725 922.0332 108.07227
70.476952 922.0332 108.07227
75.898376 922.0332 108.07227
81.319603 922.0332 108.07227
86.740829 922.0332 108.07227
92.162254 922.0332 108.07227
97.583481 922.0332 108.07227
103.00491 922.0332 108.07227
108.42614 922.0332 108.07227
114.87832 910.2793 133.50098
120.34885 910.2793 133.50098
125.81916 910.2793 133.50098
131.28969 910.2793 133.50098
136.76001 910.2793 133.50098
140.9539 922.0332 108.07227
143.77162 945.12122 58.122559
147.7709 956.45532 33.602051
153.04855 956.45532 33.602051
158.326 956.45532 33.602051
163.60345 956.45532 33.602051
168.8811 956.45532 33.602051
174.15857 956.45532 33.602051
179.43622 956.45532 33.602051
184.71367 956.45532 33.602051
189.99112 956.45532 33.602051
195.26877 956.45532 33.602051
200.54623 956.45532 33.602051
205.8239 956.45532 33.602051
211.10133 956.45532 33.602051
216.37878 956.45532 33.602051
-71.115158 905.2439 131.36353
-65.644844 905.2439 131.36353
-60.733734 893.02332 157.68091
-55.212467 893.02332 157.68091
-49.233582 905.2439 131.36353
-43.763157 905.2439 131.36353
-38.292843 905.2439 131.36353
-32.822422 905.2439 131.36353
-27.352001 905.2439 131.36353
-21.685207 917.04297 105.9541
-16.26388 917.04297 105.9541
-10.842655 917.04297 105.9541
-5.4213276 917.04297 105.9541
0 917.04297 105.9541
5.4212241 917.04297 105.9541
10.842655 917.04297 105.9541
16.26388 917.04297 105.9541
21.68531 917.04297 105.9541
27.106535 917.04297 105.9541
32.52776 917.04297 105.9541
37.949188 917.04297 105.9541
43.370415 917.04297 105.9541
48.791843 917.04297 105.9541
54.21307 917.04297 105.9541
59.634293 917.04297 105.9541
65.055725 917.04297 105.9541
70.476952 917.04297 105.9541
75.898376 917.04297 105.9541
81.319603 917.04297 105.9541
86.740829 917.04297 105.9541
92.162254 917.04297 105.9541
97.583481 917.04297 105.9541
103.00491 917.04297 105.9541
108.42614 917.04297 105.9541
114.87832 905.2439 131.36353
120.34885 905.2439 131.36353
125.81916 905.2439 131.36353
131.28969 905.2439 131.36353
135.53267 917.04297 105.9541
140.9539 917.04297 105.9541
143.77162 940.21973 56.041992
147.7709 951.59741 31.539795
153.04855 951.59741 31.539795
158.326 951.59741 31.539795
163.60345 951.59741 31.539795
168.8811 951.59741 31.539795
174.15857 951.59741 31.539795
179.43622 951.59741 31.539795
184.71367 951.59741 31.539795
189.99112 951.59741 31.539795
195.26877 951.59741 31.539795
200.54623 951.59741 31.539795
205.8239 951.59741 31.539795
211.10133 951.59741 31.539795
216.37878 951.59741 31.539795
-71.115158 900.20825 129.22607
-65.644844 900.20825 129.22607
-60.733734 887.94092 155.52344
-55.212467 887.94092 155.52344
-49.233582 900.20825 129.22607
-43.763157 900.20825 129.22607
-38.292843 900.20825 129.22607
-32.822422 900.20825 129.22607
-27.352001 900.20825 129.22607
-21.685207 912.05249 103.83569
-16.26388 912.05249 103.83569
-10.842655 912.05249 103.83569
-5.4213276 912.05249 103.83569
0 912.05249 103.83569
5.4212241 912.05249 103.83569
10.842655 912.05249 103.83569
16.26388 912.05249 103.83569
21.68531 912.05249 103.83569
27.106535 912.05249 103.83569
32.52776 912.05249 103.83569
37.949188 912.05249 103.83569
43.370415 912.05249 103.83569
48.791843 912.05249 103.83569
54.21307 912.05249 103.83569
59.634293 912.05249 103.83569
65.055725 912.05249 103.83569
70.476952 912.05249 103.83569
75.898376 912.05249 103.83569
81.319603 912.05249 103.83569
86.740829 912.05249 103.83569
92.162254 912.05249 103.83569
97.583481 912.05249 103.83569
103.00491 912.05249 103.83569
108.42614 912.05249 103.83569
114.87832 900.20825 129.22607
120.34885 900.20825 129.22607
125.81916 900.20825 129.22607
131.28969 900.20825 129.22607
135.53267 912.05249 103.83569
140.9539 912.05249 103.83569
143.77162 935.31812 53.961426
149.09642 935.31812 53.961426
153.04855 946.73938 29.477783
158.326 946.73938 29.477783
163.60345 946.73938 29.477783
168.8811 946.73938 29.477783
174.15857 946.73938 29.477783
179.43622 946.73938 29.477783
184.71367 946.73938 29.477783
191.69536 935.31812 53.961426
195.26877 946.73938 29.477783
200.54623 946.73938 29.477783
205.8239 946.73938 29.477783
211.10133 946.73938 29.477783
216.37878 946.73938 29.477783
-76.585587 895.17285 127.08862
-71.115158 895.17285 127.08862
-65.644844 895.17285 127.08862
-60.733734 882.85864 153.36621
-55.212467 882.85864 153.36621
-49.233582 895.17285 127.08862
-43.763157 895.17285 127.08862
-38.292843 895.17285 127.08862
-32.822422 895.17285 127.08862
-27.352001 895.17285 127.08862
-21.685207 907.06226 101.71753
-16.26388 907.06226 101.71753
-10.842655 907.06226 101.71753
-5.4213276 907.06226 101.71753
0 907.06226 101.71753
5.4212241 907.06226 101.71753
10.842655 907.06226 101.71753
16.26388 907.06226 101.71753
21.68531 907.06226 101.71753
27.352001 895.17285 127.08862
32.52776 907.06226 101.71753
37.949188 907.06226 101.71753
43.370415 907.06226 101.71753
48.791843 907.06226 101.71753
54.21307 907.06226 101.71753
59.634293 907.06226 101.71753
65.055725 907.06226 101.71753
70.476952 907.06226 101.71753
75.898376 907.06226 101.71753
81.319603 907.06226 101.71753
86.740829 907.06226 101.71753
92.162254 907.06226 101.71753
97.583481 907.06226 101.71753
103.00491 907.06226 101.71753
108.42614 907.06226 101.71753
114.87832 895.17285 127.08862
120.34885 895.17285 127.08862
125.81916 895.17285 127.08862
131.28969 895.17285 127.08862
135.53267 907.06226 101.71753
140.9539 907.06226 101.71753
145.04982 918.95166 76.346191
149.09642 930.41663 51.880859
154.42142 930.41663 51.880859
159.7462 930.41663 51.880859
165.071 930.41663 51.880859
168.8811 941.88147 27.415771
174.15857 941.88147 27.415771
179.43622 941.88147 27.415771
184.71367 941.88147 27.415771
189.99112 941.88147 27.415771
195.26877 941.88147 27.415771
202.34515 930.41663 51.880859
205.8239 941.88147 27.415771
211.10133 941.88147 27.415771
216.37878 941.88147 27.415771
-76.585587 890.13721 124.95117
-71.115158 890.13721 124.95117
-65.644844 890.13721 124.95117
-60.733734 877.77625 151.20874
-55.212467 877.77625 151.20874
-49.6912 877.77625 151.20874
-44.16993 877.77625 151.20874
-38.648773 877.77625 151.20874
-32.822422 890.13721 124.95117
-27.352001 890.13721 124.95117
-21.685207 902.0719 99.599121
-16.26388 902.0719 99.599121
-10.842655 902.0719 99.599121
-5.4213276 902.0719 99.599121
0 902.0719 99.599121
5.4212241 902.0719 99.599121
10.842655 902.0719 99.599121
16.26388 902.0719 99.599121
21.68531 902.0719 99.599121
27.352001 890.13721 124.95117
32.52776 902.0719 99.599121
37.949188 902.0719 99.599121
43.370415 902.0719 99.599121
48.791843 902.0719 99.599121
54.21307 902.0719 99.599121
59.634293 902.0719 99.599121
65.055725 902.0719 99.599121
70.476952 902.0719 99.599121
75.898376 902.0719 99.599121
81.319603 902.0719 99.599121
86.740829 902.0719 99.599121
92.162254 902.0719 99.599121
97.583481 902.0719 99.599121
103.00491 902.0719 99.599121
108.42614 902.0719 99.599121
114.87832 890.13721 124.95117
120.34885 890.13721 124.95117
125.81916 890.13721 124.95117
131.28969 890.13721 124.95117
135.53267 902.0719 99.599121
140.9539 902.0719 99.599121
145.04982 914.00647 74.24707
149.09642 925.51501 49.800049
154.42142 925.51501 49.800049
159.7462 925.51501 49.800049
165.071 925.51501 49.800049
168.8811 937.02332 25.353516
174.15857 937.02332 25.353516
179.43622 937.02332 25.353516
184.71367 937.02332 25.353516
189.99112 937.02332 25.353516
195.26877 937.02332 25.353516
202.34515 925.51501 49.800049
207.67015 925.51501 49.800049
212.99493 925.51501 49.800049
-71.776169 872.69397 149.05151
-66.255005 872.69397 149.05151
-60.733734 872.69397 149.05151
-55.212467 872.69397 149.05151
-49.6912 872.69397 149.05151
-44.16993 872.69397 149.05151
-38.648773 872.69397 149.05151
-32.822422 885.10181 122.81372
-27.352001 885.10181 122.81372
-21.685207 897.08167 97.480957
-16.26388 897.08167 97.480957
-10.842655 897.08167 97.480957
-5.4213276 897.08167 97.480957
0 897.08167 97.480957
5.4703169 885.10181 122.81372
10.940842 885.10181 122.81372
16.41116 885.10181 122.81372
21.881683 885.10181 122.81372
27.352001 885.10181 122.81372
32.52776 897.08167 97.480957
37.949188 897.08167 97.480957
43.370415 897.08167 97.480957
48.350006 909.0614 72.147949
53.722134 909.0614 72.147949
59.634293 897.08167 97.480957
65.055725 897.08167 97.480957
70.476952 897.08167 97.480957
75.898376 897.08167 97.480957
81.319603 897.08167 97.480957
86.740829 897.08167 97.480957
92.162254 897.08167 97.480957
97.583481 897.08167 97.480957
103.00491 897.08167 97.480957
109.408 885.10181 122.81372
114.87832 885.10181 122.81372
119.26879 897.08167 97.480957
124.69002 897.08167 97.480957
130.11145 897.08167 97.480957
135.53267 897.08167 97.480957
139.67747 909.0614 72.147949
145.04982 909.0614 72.147949
149.09642 920.61353 47.719482
154.42142 920.61353 47.719482
159.7462 920.61353 47.719482
165.071 920.61353 47.719482
168.8811 932.16541 23.291504
174.15857 932.16541 23.291504
179.43622 932.16541 23.291504
184.71367 932.16541 23.291504
189.99112 932.16541 23.291504
195.26877 932.16541 23.291504
200.54623 932.16541 23.291504
205.8239 932.16541 23.291504
211.10133 932.16541 23.291504
-78.745689 842.27319 200.23389
-72.437172 855.1571 173.11182
-66.865166 855.1571 173.11182
-61.293053 855.1571 173.11182
-55.720936 855.1571 173.11182
-50.148819 855.1571 173.11182
-44.16993 867.61157 146.89404
-38.648773 867.61157 146.89404
-33.127502 867.61157 146.89404
-27.606234 867.61157 146.89404
-21.881578 880.06616 120.67627
-16.41116 880.06616 120.67627
-10.940842 880.06616 120.67627
-5.4213276 892.09119 95.362549
0 892.09119 95.362549
5.4703169 880.06616 120.67627
10.940842 880.06616 120.67627
16.41116 880.06616 120.67627
21.68531 892.09119 95.362549
27.106535 892.09119 95.362549
32.52776 892.09119 95.362549
37.949188 892.09119 95.362549
43.370415 892.09119 95.362549
48.350006 904.11621 70.048828
53.722134 904.11621 70.048828
59.634293 892.09119 95.362549
65.055725 892.09119 95.362549
70.476952 892.09119 95.362549
75.898376 892.09119 95.362549
81.319603 892.09119 95.362549
86.740829 892.09119 95.362549
92.162254 892.09119 95.362549
97.583481 892.09119 95.362549
103.00491 892.09119 95.362549
109.408 880.06616 120.67627
114.87832 880.06616 120.67627
119.26879 892.09119 95.362549
124.69002 892.09119 95.362549
130.11145 892.09119 95.362549
135.53267 892.09119 95.362549
139.67747 904.11621 70.048828
145.04982 904.11621 70.048828
150.42194 904.11621 70.048828
154.42142 915.71191 45.638916
159.7462 915.71191 45.638916
165.071 915.71191 45.638916
170.396 915.71191 45.638916
174.15857 927.30737 21.229492
179.43622 927.30737 21.229492
184.71367 927.30737 21.229492
189.99112 927.30737 21.229492
195.26877 927.30737 21.229492
200.54623 927.30737 21.229492
205.8239 927.30737 21.229492
-78.745689 837.0957 198.03613
-71.776169 862.5293 144.73682
-66.255005 862.5293 144.73682
-61.293053 850.02808 170.93481
-55.720936 850.02808 170.93481
-49.6912 862.5293 144.73682
-44.16993 862.5293 144.73682
-38.648773 862.5293 144.73682
-33.127502 862.5293 144.73682
-27.606234 862.5293 144.73682
-21.881578 875.03076 118.53882
-16.41116 875.03076 118.53882
-10.940842 875.03076 118.53882
-5.4704208 875.03076 118.53882
0 875.03076 118.53882
5.4703169 875.03076 118.53882
10.940842 875.03076 118.53882
16.41116 875.03076 118.53882
21.68531 887.10095 93.244385
27.106535 887.10095 93.244385
32.52776 887.10095 93.244385
37.949188 887.10095 93.244385
43.370415 887.10095 93.244385
48.791843 887.10095 93.244385
54.21307 887.10095 93.244385
59.634293 887.10095 93.244385
65.055725 887.10095 93.244385
70.476952 887.10095 93.244385
75.898376 887.10095 93.244385
81.319603 887.10095 93.244385
86.740829 887.10095 93.244385
92.162254 887.10095 93.244385
97.583481 887.10095 93.244385
103.00491 887.10095 93.244385
108.42614 887.10095 93.244385
113.84736 887.10095 93.244385
119.26879 887.10095 93.244385
124.69002 887.10095 93.244385
130.11145 887.10095 93.244385
134.30534 899.17114 67.949707
139.67747 899.17114 67.949707
143.77162 910.8103 43.55835
149.09642 910.8103 43.55835
154.42142 910.8103 43.55835
159.7462 910.8103 43.55835
165.071 910.8103 43.55835
170.396 910.8103 43.55835
174.15857 922.44946 19.167236
179.43622 922.44946 19.167236
184.71367 922.44946 19.167236
189.99112 922.44946 19.167236
195.26877 922.44946 19.167236
200.54623 922.44946 19.167236
205.8239 922.44946 19.167236
-71.776169 857.4469 142.57959
-66.255005 857.4469 142.57959
-61.293053 844.8988 168.75757
-55.720936 844.8988 168.75757
-49.6912 857.4469 142.57959
-44.16993 857.4469 142.57959
-38.648773 857.4469 142.57959
-33.127502 857.4469 142.57959
-27.606234 857.4469 142.57959
-21.881578 869.99512 116.40137
-16.41116 869.99512 116.40137
-10.940842 869.99512 116.40137
-5.4704208 869.99512 116.40137
0 869.99512 116.40137
5.4703169 869.99512 116.40137
10.940842 869.99512 116.40137
16.41116 869.99512 116.40137
21.68531 882.1106 91.125977
27.106535 882.1106 91.125977
32.52776 882.1106 91.125977
37.949188 882.1106 91.125977
43.370415 882.1106 91.125977
48.791843 882.1106 91.125977
54.21307 882.1106 91.125977
59.634293 882.1106 91.125977
65.055725 882.1106 91.125977
70.476952 882.1106 91.125977
75.898376 882.1106 91.125977
81.319603 882.1106 91.125977
86.740829 882.1106 91.125977
92.162254 882.1106 91.125977
97.583481 882.1106 91.125977
103.00491 882.1106 91.125977
108.42614 882.1106 91.125977
113.84736 882.1106 91.125977
119.26879 882.1106 91.125977
124.69002 882.1106 91.125977
128.9332 894.22595 65.850586
134.30534 894.22595 65.850586
138.44662 905.90869 41.477783
143.77162 905.90869 41.477783
149.09642 905.90869 41.477783
154.42142 905.90869 41.477783
159.7462 905.90869 41.477783
163.60345 917.59143 17.105225
168.8811 917.59143 17.105225
174.15857 917.59143 17.105225
179.43622 917.59143 17.105225
184.71367 917.59143 17.105225
189.99112 917.59143 17.105225
195.26877 917.59143 17.105225
200.54623 917.59143 17.105225
205.8239 917.59143 17.105225
-72.437172 839.76978 166.58032
-66.865166 839.76978 166.58032
-61.293053 839.76978 166.58032
-55.720936 839.76978 166.58032
-49.6912 852.36462 140.42212
-44.16993 852.36462 140.42212
-38.648773 852.36462 140.42212
-33.127502 852.36462 140.42212
-27.606234 852.36462 140.42212
-21.881578 864.95972 114.26392
-16.41116 864.95972 114.26392
-10.940842 864.95972 114.26392
-5.4704208 864.95972 114.26392
0 864.95972 114.26392
5.4212241 877.12024 89.007812
10.842655 877.12024 89.007812
16.26388 877.12024 89.007812
21.68531 877.12024 89.007812
27.106535 877.12024 89.007812
32.52776 877.12024 89.007812
37.949188 877.12024 89.007812
43.370415 877.12024 89.007812
48.791843 877.12024 89.007812
54.21307 877.12024 89.007812
59.634293 877.12024 89.007812
65.055725 877.12024 89.007812
70.476952 877.12024 89.007812
75.898376 877.12024 89.007812
81.319603 877.12024 89.007812
86.740829 877.12024 89.007812
92.162254 877.12024 89.007812
97.583481 877.12024 89.007812
103.00491 877.12024 89.007812
108.42614 877.12024 89.007812
113.84736 877.12024 89.007812
119.26879 877.12024 89.007812
123.56087 889.28088 63.751465
128.9332 889.28088 63.751465
133.12184 901.0072 39.397217
138.44662 901.0072 39.397217
143.77162 901.0072 39.397217
149.09642 901.0072 39.397217
153.04855 912.73352 15.043213
158.326 912.73352 15.043213
163.60345 912.73352 15.043213
168.8811 912.73352 15.043213
174.15857 912.73352 15.043213
179.43622 912.73352 15.043213
184.71367 912.73352 15.043213
189.99112 912.73352 15.043213
195.26877 912.73352 15.043213
200.54623 912.73352 15.043213
205.8239 912.73352 15.043213
-66.865166 834.64062 164.40308
-61.293053 834.64062 164.40308
-55.720936 834.64062 164.40308
-49.6912 847.28223 138.26489
-44.16993 847.28223 138.26489
-38.648773 847.28223 138.26489
-33.127502 847.28223 138.26489
-27.606234 847.28223 138.26489
-21.881578 859.92407 112.12622
-16.41116 859.92407 112.12622
-10.940842 859.92407 112.12622
-5.4704208 859.92407 112.12622
0 859.92407 112.12622
5.4212241 872.12988 86.889404
10.842655 872.12988 86.889404
16.26388 872.12988 86.889404
21.68531 872.12988 86.889404
27.106535 872.12988 86.889404
32.52776 872.12988 86.889404
37.949188 872.12988 86.889404
43.370415 872.12988 86.889404
48.791843 872.12988 86.889404
54.21307 872.12988 86.889404
59.634293 872.12988 86.889404
65.055725 872.12988 86.889404
70.476952 872.12988 86.889404
75.898376 872.12988 86.889404
81.319603 872.12988 86.889404
86.740829 872.12988 86.889404
92.162254 872.12988 86.889404
97.583481 872.12988 86.889404
103.00491 872.12988 86.889404
108.42614 872.12988 86.889404
113.84736 872.12988 86.889404
119.26879 872.12988 86.889404
123.56087 884.33557 61.652344
127.79705 896.10559 37.31665
133.12184 896.10559 37.31665
137.21579 907.87549 12.980957
142.49345 907.87549 12.980957
147.7709 907.87549 12.980957
153.04855 907.87549 12.980957
158.326 907.87549 12.980957
163.60345 907.87549 12.980957
168.8811 907.87549 12.980957
174.15857 907.87549 12.980957
179.43622 907.87549 12.980957
184.71367 907.87549 12.980957
189.99112 907.87549 12.980957
195.26877 907.87549 12.980957
200.54623 907.87549 12.980957
-67.496368 816.3855 189.24512
-60.733734 842.19995 136.10767
-55.212467 842.19995 136.10767
-50.148819 829.51147 162.22607
-44.16993 842.19995 136.10767
-38.648773 842.19995 136.10767
-33.127502 842.19995 136.10767
-27.606234 842.19995 136.10767
-21.881578 854.88867 109.98901
-16.41116 854.88867 109.98901
-10.940842 854.88867 109.98901
-5.4704208 854.88867 109.98901
0 854.88867 109.98901
5.4212241 867.13965 84.77124
10.842655 867.13965 84.77124
16.26388 867.13965 84.77124
21.68531 867.13965 84.77124
27.106535 867.13965 84.77124
32.52776 867.13965 84.77124
37.949188 867.13965 84.77124
43.370415 867.13965 84.77124
48.791843 867.13965 84.77124
54.21307 867.13965 84.77124
59.634293 867.13965 84.77124
65.055725 867.13965 84.77124
70.476952 867.13965 84.77124
75.211067 879.39062 59.553467
80.583206 879.39062 59.553467
85.955338 879.39062 59.553467
91.327667 879.39062 59.553467
96.699806 879.39062 59.553467
102.07214 879.39062 59.553467
107.44427 879.39062 59.553467
112.81641 879.39062 59.553467
118.18874 879.39062 59.553467
123.56087 879.39062 59.553467
127.79705 891.2041 35.236084
133.12184 891.2041 35.236084
137.21579 903.01746 10.918945
142.49345 903.01746 10.918945
147.7709 903.01746 10.918945
153.04855 903.01746 10.918945
158.326 903.01746 10.918945
163.60345 903.01746 10.918945
168.8811 903.01746 10.918945
174.15857 903.01746 10.918945
