ply
format ascii 1.0
comment PCL generated
element vertex 1591
property float x
property float y
property float z
element camera 0
property float view_px
property float view_py
property float view_pz
property float x_axisx
property float x_axisy
property float x_axisz
property float y_axisx
property float y_axisy
property float y_axisz
property float z_axisx
property float z_axisy
property float z_axisz
property float focal
property float scalex
property float scaley
property float centerx
property float centery
property int viewportx
property int viewporty
property float k1
property float k2
end_header
142.49345 1155.6332 118.14795
146.49446 1164.8271 93.805176
151.72653 1164.8271 93.805176
156.9584 1164.8271 93.805176
162.19028 1164.8271 93.805176
167.42235 1164.8271 93.805176
172.65421 1164.8271 93.805176
177.88628 1164.8271 93.805176
183.11813 1164.8271 93.805176
188.35001 1164.8271 93.805176
195.26877 1155.6332 118.14795
200.54623 1155.6332 118.14795
205.8239 1155.6332 118.14795
211.10133 1155.6332 118.14795
216.37878 1155.6332 118.14795
221.65645 1155.6332 118.14795
226.93391 1155.6332 118.14795
234.29451 1146.0858 143.427
239.61931 1146.0858 143.427
247.12175 1136.5382 168.70605
252.49408 1136.5382 168.70605
257.86621 1136.5382 168.70605
263.23856 1136.5382 168.70605
268.61069 1136.5382 168.70605
-103.7272 1169.2468 67.435791
-98.540825 1169.2468 67.435791
-94.175003 1160.011 91.760986
-90.522888 1141.1842 141.34619
-85.197998 1141.1842 141.34619
-79.8731 1141.1842 141.34619
-74.54821 1141.1842 141.34619
-69.223312 1141.1842 141.34619
-63.898525 1141.1842 141.34619
-58.573627 1141.1842 141.34619
-53.248734 1141.1842 141.34619
-47.92384 1141.1842 141.34619
-42.598946 1141.1842 141.34619
-37.274155 1141.1842 141.34619
-31.949263 1141.1842 141.34619
-26.159735 1160.011 91.760986
-20.927767 1160.011 91.760986
-15.695801 1160.011 91.760986
-10.463933 1160.011 91.760986
-5.2319665 1160.011 91.760986
0 1160.011 91.760986
5.2318668 1160.011 91.760986
10.463933 1160.011 91.760986
15.695801 1160.011 91.760986
20.927866 1160.011 91.760986
26.159735 1160.011 91.760986
31.391602 1160.011 91.760986
36.623669 1160.011 91.760986
41.855534 1160.011 91.760986
47.087601 1160.011 91.760986
52.319469 1160.011 91.760986
57.551338 1160.011 91.760986
62.783401 1160.011 91.760986
68.015266 1160.011 91.760986
73.247337 1160.011 91.760986
78.479202 1160.011 91.760986
83.711067 1160.011 91.760986
88.943138 1160.011 91.760986
94.175003 1160.011 91.760986
100.27322 1150.7751 116.08594
105.55067 1150.7751 116.08594
110.82812 1150.7751 116.08594
116.10578 1150.7751 116.08594
121.38322 1150.7751 116.08594
126.66088 1150.7751 116.08594
131.93834 1150.7751 116.08594
137.21579 1150.7751 116.08594
142.49345 1150.7751 116.08594
147.7709 1150.7751 116.08594
151.72653 1160.011 91.760986
156.9584 1160.011 91.760986
162.19028 1160.011 91.760986
167.42235 1160.011 91.760986
172.65421 1160.011 91.760986
177.88628 1160.011 91.760986
183.11813 1160.011 91.760986
188.35001 1160.011 91.760986
195.26877 1150.7751 116.08594
200.54623 1150.7751 116.08594
205.8239 1150.7751 116.08594
211.10133 1150.7751 116.08594
216.37878 1150.7751 116.08594
221.65645 1150.7751 116.08594
226.93391 1150.7751 116.08594
234.29451 1141.1842 141.34619
239.61931 1141.1842 141.34619
247.12175 1131.593 166.60693
252.49408 1131.593 166.60693
257.86621 1131.593 166.60693
265.6441 1121.6469 192.80322
271.06534 1121.6469 192.80322
-103.7272 1164.4727 65.409424
-98.540825 1164.4727 65.409424
-94.99556 1145.9171 114.02368
-90.522888 1136.2826 139.26562
-85.197998 1136.2826 139.26562
-79.8731 1136.2826 139.26562
-74.54821 1136.2826 139.26562
-69.223312 1136.2826 139.26562
-63.898525 1136.2826 139.26562
-58.573627 1136.2826 139.26562
-53.248734 1136.2826 139.26562
-47.92384 1136.2826 139.26562
-42.598946 1136.2826 139.26562
-37.274155 1136.2826 139.26562
-31.66522 1145.9171 114.02368
-26.159735 1155.1949 89.716553
-20.927767 1155.1949 89.716553
-15.695801 1155.1949 89.716553
-10.463933 1155.1949 89.716553
-5.2319665 1155.1949 89.716553
0 1155.1949 89.716553
5.2318668 1155.1949 89.716553
10.463933 1155.1949 89.716553
15.695801 1155.1949 89.716553
20.927866 1155.1949 89.716553
26.159735 1155.1949 89.716553
31.391602 1155.1949 89.716553
36.623669 1155.1949 89.716553
41.855534 1155.1949 89.716553
47.087601 1155.1949 89.716553
52.319469 1155.1949 89.716553
57.551338 1155.1949 89.716553
62.783401 1155.1949 89.716553
68.015266 1155.1949 89.716553
73.247337 1155.1949 89.716553
78.479202 1155.1949 89.716553
83.711067 1155.1949 89.716553
88.943138 1155.1949 89.716553
94.175003 1155.1949 89.716553
100.27322 1145.9171 114.02368
105.55067 1145.9171 114.02368
110.82812 1145.9171 114.02368
116.10578 1145.9171 114.02368
121.38322 1145.9171 114.02368
126.66088 1145.9171 114.02368
131.93834 1145.9171 114.02368
137.21579 1145.9171 114.02368
142.49345 1145.9171 114.02368
147.7709 1145.9171 114.02368
153.04855 1145.9171 114.02368
158.326 1145.9171 114.02368
163.60345 1145.9171 114.02368
167.42235 1155.1949 89.716553
172.65421 1155.1949 89.716553
177.88628 1155.1949 89.716553
183.11813 1155.1949 89.716553
188.35001 1155.1949 89.716553
195.26877 1145.9171 114.02368
200.54623 1145.9171 114.02368
205.8239 1145.9171 114.02368
211.10133 1145.9171 114.02368
216.37878 1145.9171 114.02368
221.65645 1145.9171 114.02368
226.93391 1145.9171 114.02368
234.29451 1136.2826 139.26562
239.61931 1136.2826 139.26562
247.12175 1126.6479 164.50781
252.49408 1126.6479 164.50781
260.22269 1116.6565 190.68481
265.6441 1116.6565 190.68481
271.06534 1116.6565 190.68481
-104.63894 1150.379 87.672363
-99.406967 1150.379 87.672363
-94.99556 1141.0592 111.96167
-90.522888 1131.381 137.18506
-85.197998 1131.381 137.18506
-79.8731 1131.381 137.18506
-74.54821 1131.381 137.18506
-69.223312 1131.381 137.18506
-63.898525 1131.381 137.18506
-58.573627 1131.381 137.18506
-53.248734 1131.381 137.18506
-47.92384 1131.381 137.18506
-42.22023 1141.0592 111.96167
-36.942772 1141.0592 111.96167
-31.66522 1141.0592 111.96167
-26.159735 1150.379 87.672363
-20.927767 1150.379 87.672363
-15.695801 1150.379 87.672363
-10.463933 1150.379 87.672363
-5.2319665 1150.379 87.672363
0 1150.379 87.672363
5.2318668 1150.379 87.672363
10.463933 1150.379 87.672363
15.695801 1150.379 87.672363
20.927866 1150.379 87.672363
26.159735 1150.379 87.672363
31.391602 1150.379 87.672363
36.623669 1150.379 87.672363
41.855534 1150.379 87.672363
47.087601 1150.379 87.672363
52.319469 1150.379 87.672363
57.551338 1150.379 87.672363
62.783401 1150.379 87.672363
68.015266 1150.379 87.672363
73.247337 1150.379 87.672363
78.479202 1150.379 87.672363
83.711067 1150.379 87.672363
88.943138 1150.379 87.672363
94.175003 1150.379 87.672363
100.27322 1141.0592 111.96167
105.55067 1141.0592 111.96167
110.82812 1141.0592 111.96167
116.10578 1141.0592 111.96167
121.38322 1141.0592 111.96167
126.66088 1141.0592 111.96167
131.93834 1141.0592 111.96167
137.21579 1141.0592 111.96167
142.49345 1141.0592 111.96167
147.7709 1141.0592 111.96167
153.04855 1141.0592 111.96167
158.326 1141.0592 111.96167
163.60345 1141.0592 111.96167
167.42235 1150.379 87.672363
172.65421 1150.379 87.672363
177.88628 1150.379 87.672363
183.11813 1150.379 87.672363
188.35001 1150.379 87.672363
193.58208 1150.379 87.672363
198.81393 1150.379 87.672363
204.04601 1150.379 87.672363
211.10133 1141.0592 111.96167
216.37878 1141.0592 111.96167
221.65645 1141.0592 111.96167
226.93391 1141.0592 111.96167
234.29451 1131.381 137.18506
239.61931 1131.381 137.18506
247.12175 1121.7028 162.40869
252.49408 1121.7028 162.40869
260.22269 1111.6661 188.56665
265.6441 1111.6661 188.56665
271.06534 1111.6661 188.56665
-100.27312 1136.2012 109.89966
-94.99556 1136.2012 109.89966
-90.522888 1126.4795 135.10449
-85.197998 1126.4795 135.10449
-79.8731 1126.4795 135.10449
-74.54821 1126.4795 135.10449
-69.223312 1126.4795 135.10449
-63.898525 1126.4795 135.10449
-58.573627 1126.4795 135.10449
-53.248734 1126.4795 135.10449
-47.92384 1126.4795 135.10449
-42.22023 1136.2012 109.89966
-36.942772 1136.2012 109.89966
-31.66522 1136.2012 109.89966
-26.159735 1145.563 85.62793
-20.927767 1145.563 85.62793
-15.695801 1145.563 85.62793
-10.463933 1145.563 85.62793
-5.2319665 1145.563 85.62793
0 1145.563 85.62793
5.2318668 1145.563 85.62793
10.463933 1145.563 85.62793
15.695801 1145.563 85.62793
20.927866 1145.563 85.62793
26.159735 1145.563 85.62793
31.391602 1145.563 85.62793
36.623669 1145.563 85.62793
41.855534 1145.563 85.62793
47.087601 1145.563 85.62793
52.319469 1145.563 85.62793
57.551338 1145.563 85.62793
62.783401 1145.563 85.62793
68.015266 1145.563 85.62793
73.247337 1145.563 85.62793
78.479202 1145.563 85.62793
83.711067 1145.563 85.62793
88.943138 1145.563 85.62793
94.99556 1136.2012 109.89966
100.27322 1136.2012 109.89966
105.55067 1136.2012 109.89966
110.82812 1136.2012 109.89966
116.10578 1136.2012 109.89966
121.38322 1136.2012 109.89966
126.66088 1136.2012 109.89966
131.93834 1136.2012 109.89966
137.21579 1136.2012 109.89966
142.49345 1136.2012 109.89966
147.7709 1136.2012 109.89966
153.04855 1136.2012 109.89966
158.326 1136.2012 109.89966
163.60345 1136.2012 109.89966
167.42235 1145.563 85.62793
172.65421 1145.563 85.62793
177.88628 1145.563 85.62793
183.11813 1145.563 85.62793
188.35001 1145.563 85.62793
193.58208 1145.563 85.62793
198.81393 1145.563 85.62793
204.04601 1145.563 85.62793
209.27788 1145.563 85.62793
216.37878 1136.2012 109.89966
221.65645 1136.2012 109.89966
226.93391 1136.2012 109.89966
232.21156 1136.2012 109.89966
239.61931 1126.4795 135.10449
244.94411 1126.4795 135.10449
252.49408 1116.7576 160.30981
260.22269 1106.6758 186.44824
265.6441 1106.6758 186.44824
271.06534 1106.6758 186.44824
-101.17258 1121.5779 133.02393
-95.847679 1121.5779 133.02393
-90.522888 1121.5779 133.02393
-85.197998 1121.5779 133.02393
-79.8731 1121.5779 133.02393
-75.210968 1111.8125 158.21069
-69.223312 1121.5779 133.02393
-63.898525 1121.5779 133.02393
-58.573627 1121.5779 133.02393
-52.775333 1131.3431 107.8374
-47.49778 1131.3431 107.8374
-42.22023 1131.3431 107.8374
-36.942772 1131.3431 107.8374
-31.66522 1131.3431 107.8374
-25.931801 1150.1505 59.330078
-20.74542 1150.1505 59.330078
-15.695801 1140.7469 83.58374
-10.463933 1140.7469 83.58374
-5.2319665 1140.7469 83.58374
0 1140.7469 83.58374
5.2318668 1140.7469 83.58374
10.463933 1140.7469 83.58374
15.695801 1140.7469 83.58374
20.927866 1140.7469 83.58374
26.159735 1140.7469 83.58374
31.391602 1140.7469 83.58374
36.623669 1140.7469 83.58374
41.855534 1140.7469 83.58374
47.087601 1140.7469 83.58374
52.319469 1140.7469 83.58374
57.551338 1140.7469 83.58374
62.783401 1140.7469 83.58374
68.015266 1140.7469 83.58374
73.247337 1140.7469 83.58374
78.479202 1140.7469 83.58374
83.711067 1140.7469 83.58374
89.718109 1131.3431 107.8374
94.175003 1140.7469 83.58374
99.407066 1140.7469 83.58374
104.63894 1140.7469 83.58374
109.8708 1140.7469 83.58374
115.10287 1140.7469 83.58374
120.33474 1140.7469 83.58374
125.5668 1140.7469 83.58374
131.93834 1131.3431 107.8374
137.21579 1131.3431 107.8374
142.49345 1131.3431 107.8374
147.7709 1131.3431 107.8374
153.04855 1131.3431 107.8374
158.326 1131.3431 107.8374
163.60345 1131.3431 107.8374
167.42235 1140.7469 83.58374
172.65421 1140.7469 83.58374
177.88628 1140.7469 83.58374
183.11813 1140.7469 83.58374
188.35001 1140.7469 83.58374
193.58208 1140.7469 83.58374
198.81393 1140.7469 83.58374
204.04601 1140.7469 83.58374
209.27788 1140.7469 83.58374
216.37878 1131.3431 107.8374
221.65645 1131.3431 107.8374
226.93391 1131.3431 107.8374
232.21156 1131.3431 107.8374
239.61931 1121.5779 133.02393
244.94411 1121.5779 133.02393
252.49408 1111.8125 158.21069
260.22269 1101.6854 184.33008
265.6441 1101.6854 184.33008
271.06534 1101.6854 184.33008
-101.17258 1116.6763 130.94336
-95.847679 1116.6763 130.94336
-90.522888 1116.6763 130.94336
-85.197998 1116.6763 130.94336
-79.8731 1116.6763 130.94336
-75.210968 1106.8673 156.11157
-69.223312 1116.6763 130.94336
-63.898525 1116.6763 130.94336
-58.573627 1116.6763 130.94336
-52.775333 1126.4852 105.77539
-47.49778 1126.4852 105.77539
-42.22023 1126.4852 105.77539
-36.942772 1126.4852 105.77539
-31.66522 1126.4852 105.77539
-25.931801 1145.3765 57.303467
-20.74542 1145.3765 57.303467
-15.695801 1135.9309 81.539551
-10.463933 1135.9309 81.539551
-5.2319665 1135.9309 81.539551
0 1135.9309 81.539551
5.2318668 1135.9309 81.539551
10.463933 1135.9309 81.539551
15.695801 1135.9309 81.539551
20.927866 1135.9309 81.539551
26.159735 1135.9309 81.539551
31.391602 1135.9309 81.539551
36.623669 1135.9309 81.539551
41.855534 1135.9309 81.539551
47.087601 1135.9309 81.539551
52.319469 1135.9309 81.539551
57.551338 1135.9309 81.539551
62.783401 1135.9309 81.539551
68.015266 1135.9309 81.539551
73.247337 1135.9309 81.539551
78.479202 1135.9309 81.539551
83.711067 1135.9309 81.539551
89.718109 1126.4852 105.77539
94.175003 1135.9309 81.539551
99.407066 1135.9309 81.539551
104.63894 1135.9309 81.539551
109.8708 1135.9309 81.539551
115.10287 1135.9309 81.539551
120.33474 1135.9309 81.539551
125.5668 1135.9309 81.539551
131.93834 1126.4852 105.77539
137.21579 1126.4852 105.77539
142.49345 1126.4852 105.77539
147.7709 1126.4852 105.77539
153.04855 1126.4852 105.77539
158.326 1126.4852 105.77539
163.60345 1126.4852 105.77539
168.8811 1126.4852 105.77539
174.15857 1126.4852 105.77539
177.88628 1135.9309 81.539551
183.11813 1135.9309 81.539551
188.35001 1135.9309 81.539551
193.58208 1135.9309 81.539551
198.81393 1135.9309 81.539551
204.04601 1135.9309 81.539551
209.27788 1135.9309 81.539551
216.37878 1126.4852 105.77539
221.65645 1126.4852 105.77539
226.93391 1126.4852 105.77539
232.21156 1126.4852 105.77539
239.61931 1116.6763 130.94336
244.94411 1116.6763 130.94336
250.2691 1116.6763 130.94336
255.59389 1116.6763 130.94336
260.91888 1116.6763 130.94336
266.24368 1116.6763 130.94336
-101.17258 1111.7748 128.86279
-95.847679 1111.7748 128.86279
-90.522888 1111.7748 128.86279
-85.197998 1111.7748 128.86279
-79.8731 1111.7748 128.86279
-74.54821 1111.7748 128.86279
-69.223312 1111.7748 128.86279
-63.898525 1111.7748 128.86279
-58.573627 1111.7748 128.86279
-53.248734 1111.7748 128.86279
-47.49778 1121.6272 103.71338
-42.22023 1121.6272 103.71338
-36.942772 1121.6272 103.71338
-31.66522 1121.6272 103.71338
-26.159735 1131.1149 79.495117
-20.927767 1131.1149 79.495117
-15.695801 1131.1149 79.495117
-10.463933 1131.1149 79.495117
-5.2319665 1131.1149 79.495117
0 1131.1149 79.495117
5.2318668 1131.1149 79.495117
10.463933 1131.1149 79.495117
15.695801 1131.1149 79.495117
20.927866 1131.1149 79.495117
26.159735 1131.1149 79.495117
31.391602 1131.1149 79.495117
36.623669 1131.1149 79.495117
41.855534 1131.1149 79.495117
47.087601 1131.1149 79.495117
52.319469 1131.1149 79.495117
57.551338 1131.1149 79.495117
62.783401 1131.1149 79.495117
68.015266 1131.1149 79.495117
73.247337 1131.1149 79.495117
78.479202 1131.1149 79.495117
83.711067 1131.1149 79.495117
89.718109 1121.6272 103.71338
94.99556 1121.6272 103.71338
99.407066 1131.1149 79.495117
104.63894 1131.1149 79.495117
109.8708 1131.1149 79.495117
115.10287 1131.1149 79.495117
120.33474 1131.1149 79.495117
125.5668 1131.1149 79.495117
131.93834 1121.6272 103.71338
137.21579 1121.6272 103.71338
142.49345 1121.6272 103.71338
147.7709 1121.6272 103.71338
153.04855 1121.6272 103.71338
158.326 1121.6272 103.71338
163.60345 1121.6272 103.71338
168.8811 1121.6272 103.71338
174.15857 1121.6272 103.71338
179.43622 1121.6272 103.71338
184.71367 1121.6272 103.71338
188.35001 1131.1149 79.495117
193.58208 1131.1149 79.495117
198.81393 1131.1149 79.495117
204.04601 1131.1149 79.495117
209.27788 1131.1149 79.495117
216.37878 1121.6272 103.71338
221.65645 1121.6272 103.71338
226.93391 1121.6272 103.71338
232.21156 1121.6272 103.71338
237.48901 1121.6272 103.71338
242.76645 1121.6272 103.71338
248.04411 1121.6272 103.71338
255.59389 1111.7748 128.86279
260.91888 1111.7748 128.86279
273.52002 1081.4874 206.17432
278.99033 1081.4874 206.17432
284.46085 1081.4874 206.17432
-106.49747 1106.8732 126.78223
-101.17258 1106.8732 126.78223
-95.847679 1106.8732 126.78223
-90.522888 1106.8732 126.78223
-85.197998 1106.8732 126.78223
-79.8731 1106.8732 126.78223
-74.54821 1106.8732 126.78223
-69.223312 1106.8732 126.78223
-63.898525 1106.8732 126.78223
-58.573627 1106.8732 126.78223
-53.248734 1106.8732 126.78223
-47.49778 1116.7692 101.65112
-42.22023 1116.7692 101.65112
-36.942772 1116.7692 101.65112
-31.66522 1116.7692 101.65112
-26.159735 1126.2988 77.450928
-20.927767 1126.2988 77.450928
-15.695801 1126.2988 77.450928
-10.463933 1126.2988 77.450928
-5.2319665 1126.2988 77.450928
0 1126.2988 77.450928
5.2318668 1126.2988 77.450928
10.463933 1126.2988 77.450928
15.695801 1126.2988 77.450928
20.927866 1126.2988 77.450928
26.159735 1126.2988 77.450928
31.391602 1126.2988 77.450928
36.623669 1126.2988 77.450928
41.855534 1126.2988 77.450928
47.087601 1126.2988 77.450928
52.319469 1126.2988 77.450928
57.551338 1126.2988 77.450928
62.783401 1126.2988 77.450928
68.015266 1126.2988 77.450928
73.247337 1126.2988 77.450928
78.479202 1126.2988 77.450928
83.711067 1126.2988 77.450928
89.718109 1116.7692 101.65112
94.99556 1116.7692 101.65112
99.407066 1126.2988 77.450928
104.63894 1126.2988 77.450928
109.8708 1126.2988 77.450928
115.10287 1126.2988 77.450928
120.33474 1126.2988 77.450928
125.5668 1126.2988 77.450928
131.93834 1116.7692 101.65112
137.21579 1116.7692 101.65112
142.49345 1116.7692 101.65112
147.7709 1116.7692 101.65112
153.04855 1116.7692 101.65112
158.326 1116.7692 101.65112
163.60345 1116.7692 101.65112
168.8811 1116.7692 101.65112
174.15857 1116.7692 101.65112
179.43622 1116.7692 101.65112
184.71367 1116.7692 101.65112
189.99112 1116.7692 101.65112
195.26877 1116.7692 101.65112
198.81393 1126.2988 77.450928
204.04601 1126.2988 77.450928
211.10133 1116.7692 101.65112
216.37878 1116.7692 101.65112
221.65645 1116.7692 101.65112
226.93391 1116.7692 101.65112
232.21156 1116.7692 101.65112
237.48901 1116.7692 101.65112
242.76645 1116.7692 101.65112
248.04411 1116.7692 101.65112
255.59389 1106.8732 126.78223
260.91888 1106.8732 126.78223
273.52002 1076.4519 204.03687
278.99033 1076.4519 204.03687
284.46085 1076.4519 204.03687
-106.49747 1101.9717 124.70166
-101.17258 1101.9717 124.70166
-95.847679 1101.9717 124.70166
-91.327667 1092.0319 149.81421
-85.955437 1092.0319 149.81421
-80.583206 1092.0319 149.81421
-75.210968 1092.0319 149.81421
-69.838737 1092.0319 149.81421
-63.898525 1101.9717 124.70166
-58.573627 1101.9717 124.70166
-53.248734 1101.9717 124.70166
-47.49778 1111.9113 99.589111
-42.22023 1111.9113 99.589111
-36.942772 1111.9113 99.589111
-31.66522 1111.9113 99.589111
-26.159735 1121.4828 75.406494
-20.927767 1121.4828 75.406494
-15.695801 1121.4828 75.406494
-10.463933 1121.4828 75.406494
-5.2319665 1121.4828 75.406494
0 1121.4828 75.406494
5.2318668 1121.4828 75.406494
10.463933 1121.4828 75.406494
15.695801 1121.4828 75.406494
20.927866 1121.4828 75.406494
26.159735 1121.4828 75.406494
31.391602 1121.4828 75.406494
36.623669 1121.4828 75.406494
41.855534 1121.4828 75.406494
47.087601 1121.4828 75.406494
52.319469 1121.4828 75.406494
57.551338 1121.4828 75.406494
62.783401 1121.4828 75.406494
68.015266 1121.4828 75.406494
73.247337 1121.4828 75.406494
78.479202 1121.4828 75.406494
83.711067 1121.4828 75.406494
89.718109 1111.9113 99.589111
94.99556 1111.9113 99.589111
99.407066 1121.4828 75.406494
104.63894 1121.4828 75.406494
109.8708 1121.4828 75.406494
115.10287 1121.4828 75.406494
120.33474 1121.4828 75.406494
125.5668 1121.4828 75.406494
131.93834 1111.9113 99.589111
137.21579 1111.9113 99.589111
142.49345 1111.9113 99.589111
147.7709 1111.9113 99.589111
153.04855 1111.9113 99.589111
158.326 1111.9113 99.589111
163.60345 1111.9113 99.589111
168.8811 1111.9113 99.589111
174.15857 1111.9113 99.589111
179.43622 1111.9113 99.589111
184.71367 1111.9113 99.589111
189.99112 1111.9113 99.589111
195.26877 1111.9113 99.589111
200.54623 1111.9113 99.589111
205.8239 1111.9113 99.589111
211.10133 1111.9113 99.589111
216.37878 1111.9113 99.589111
221.65645 1111.9113 99.589111
226.93391 1111.9113 99.589111
232.21156 1111.9113 99.589111
237.48901 1111.9113 99.589111
242.76645 1111.9113 99.589111
248.04411 1111.9113 99.589111
255.59389 1101.9717 124.70166
263.23856 1092.0319 149.81421
271.06534 1081.7241 175.85693
278.99033 1071.4164 201.89941
284.46085 1071.4164 201.89941
-106.49747 1097.0701 122.62085
-101.17258 1097.0701 122.62085
-95.847679 1097.0701 122.62085
-91.327667 1087.0868 147.71509
-85.955437 1087.0868 147.71509
-80.583206 1087.0868 147.71509
-75.210968 1087.0868 147.71509
-69.838737 1087.0868 147.71509
-64.466599 1087.0868 147.71509
-58.573627 1097.0701 122.62085
-53.248734 1097.0701 122.62085
-47.92384 1097.0701 122.62085
-42.22023 1107.0532 97.5271
-36.942772 1107.0532 97.5271
-31.66522 1107.0532 97.5271
-26.159735 1116.6667 73.362305
-20.927767 1116.6667 73.362305
-15.695801 1116.6667 73.362305
-10.463933 1116.6667 73.362305
-5.2319665 1116.6667 73.362305
0 1116.6667 73.362305
5.2318668 1116.6667 73.362305
10.463933 1116.6667 73.362305
15.695801 1116.6667 73.362305
20.927866 1116.6667 73.362305
26.159735 1116.6667 73.362305
31.391602 1116.6667 73.362305
36.623669 1116.6667 73.362305
41.855534 1116.6667 73.362305
47.087601 1116.6667 73.362305
52.319469 1116.6667 73.362305
57.551338 1116.6667 73.362305
62.783401 1116.6667 73.362305
68.607895 1107.0532 97.5271
73.885544 1107.0532 97.5271
79.163002 1107.0532 97.5271
84.44046 1107.0532 97.5271
89.718109 1107.0532 97.5271
94.99556 1107.0532 97.5271
99.407066 1116.6667 73.362305
104.63894 1116.6667 73.362305
109.8708 1116.6667 73.362305
115.10287 1116.6667 73.362305
120.33474 1116.6667 73.362305
125.5668 1116.6667 73.362305
131.93834 1107.0532 97.5271
137.21579 1107.0532 97.5271
142.49345 1107.0532 97.5271
147.7709 1107.0532 97.5271
153.04855 1107.0532 97.5271
158.326 1107.0532 97.5271
163.60345 1107.0532 97.5271
168.8811 1107.0532 97.5271
174.15857 1107.0532 97.5271
179.43622 1107.0532 97.5271
184.71367 1107.0532 97.5271
189.99112 1107.0532 97.5271
195.26877 1107.0532 97.5271
200.54623 1107.0532 97.5271
205.8239 1107.0532 97.5271
211.10133 1107.0532 97.5271
216.37878 1107.0532 97.5271
221.65645 1107.0532 97.5271
226.93391 1107.0532 97.5271
232.21156 1107.0532 97.5271
237.48901 1107.0532 97.5271
242.76645 1107.0532 97.5271
250.2691 1097.0701 122.62085
255.59389 1097.0701 122.62085
263.23856 1087.0868 147.71509
271.06534 1076.7338 173.73877
278.99033 1066.3809 199.76196
284.46085 1066.3809 199.76196
289.93118 1066.3809 199.76196
-106.49747 1092.1685 120.54028
-101.17258 1092.1685 120.54028
-95.847679 1092.1685 120.54028
-91.327667 1082.1416 145.61621
-85.955437 1082.1416 145.61621
-80.583206 1082.1416 145.61621
-75.210968 1082.1416 145.61621
-69.838737 1082.1416 145.61621
-64.466599 1082.1416 145.61621
-59.094368 1082.1416 145.61621
-53.248734 1092.1685 120.54028
-47.92384 1092.1685 120.54028
-42.598946 1092.1685 120.54028
-37.274155 1092.1685 120.54028
-31.66522 1102.1952 95.464844
-26.159735 1111.8507 71.318115
-20.927767 1111.8507 71.318115
-15.695801 1111.8507 71.318115
-10.463933 1111.8507 71.318115
-5.2319665 1111.8507 71.318115
0 1111.8507 71.318115
5.2318668 1111.8507 71.318115
10.463933 1111.8507 71.318115
15.695801 1111.8507 71.318115
20.927866 1111.8507 71.318115
26.159735 1111.8507 71.318115
31.391602 1111.8507 71.318115
36.623669 1111.8507 71.318115
41.855534 1111.8507 71.318115
47.087601 1111.8507 71.318115
52.319469 1111.8507 71.318115
57.551338 1111.8507 71.318115
62.783401 1111.8507 71.318115
68.015266 1111.8507 71.318115
73.247337 1111.8507 71.318115
79.163002 1102.1952 95.464844
84.44046 1102.1952 95.464844
89.718109 1102.1952 95.464844
94.99556 1102.1952 95.464844
100.27322 1102.1952 95.464844
104.63894 1111.8507 71.318115
109.8708 1111.8507 71.318115
115.10287 1111.8507 71.318115
120.33474 1111.8507 71.318115
125.5668 1111.8507 71.318115
131.93834 1102.1952 95.464844
136.03053 1111.8507 71.318115
141.2626 1111.8507 71.318115
147.7709 1102.1952 95.464844
153.04855 1102.1952 95.464844
158.326 1102.1952 95.464844
163.60345 1102.1952 95.464844
168.8811 1102.1952 95.464844
174.15857 1102.1952 95.464844
179.43622 1102.1952 95.464844
186.37057 1092.1685 120.54028
189.99112 1102.1952 95.464844
195.26877 1102.1952 95.464844
200.54623 1102.1952 95.464844
205.8239 1102.1952 95.464844
211.10133 1102.1952 95.464844
216.37878 1102.1952 95.464844
221.65645 1102.1952 95.464844
226.93391 1102.1952 95.464844
232.21156 1102.1952 95.464844
237.48901 1102.1952 95.464844
242.76645 1102.1952 95.464844
250.2691 1092.1685 120.54028
255.59389 1092.1685 120.54028
263.23856 1082.1416 145.61621
273.52002 1061.3453 197.62451
281.58353 1050.5757 224.55786
287.10489 1050.5757 224.55786
-107.44427 1077.1964 143.51709
-101.17258 1087.267 118.45972
-95.847679 1087.267 118.45972
-91.327667 1077.1964 143.51709
-85.955437 1077.1964 143.51709
-80.583206 1077.1964 143.51709
-75.210968 1077.1964 143.51709
-69.838737 1077.1964 143.51709
-64.466599 1077.1964 143.51709
-59.094368 1077.1964 143.51709
-53.722134 1077.1964 143.51709
-47.92384 1087.267 118.45972
-42.598946 1087.267 118.45972
-37.274155 1087.267 118.45972
-31.949263 1087.267 118.45972
-26.159735 1107.0347 69.273682
-20.927767 1107.0347 69.273682
-15.695801 1107.0347 69.273682
-10.463933 1107.0347 69.273682
-5.2319665 1107.0347 69.273682
0 1107.0347 69.273682
5.2318668 1107.0347 69.273682
10.463933 1107.0347 69.273682
15.695801 1107.0347 69.273682
20.927866 1107.0347 69.273682
26.159735 1107.0347 69.273682
31.391602 1107.0347 69.273682
36.623669 1107.0347 69.273682
41.855534 1107.0347 69.273682
47.087601 1107.0347 69.273682
52.319469 1107.0347 69.273682
57.551338 1107.0347 69.273682
62.783401 1107.0347 69.273682
68.015266 1107.0347 69.273682
73.247337 1107.0347 69.273682
79.163002 1097.3373 93.402832
84.44046 1097.3373 93.402832
89.718109 1097.3373 93.402832
94.99556 1097.3373 93.402832
100.27322 1097.3373 93.402832
104.63894 1107.0347 69.273682
109.8708 1107.0347 69.273682
115.10287 1107.0347 69.273682
120.33474 1107.0347 69.273682
125.5668 1107.0347 69.273682
131.93834 1097.3373 93.402832
136.03053 1107.0347 69.273682
141.2626 1107.0347 69.273682
147.7709 1097.3373 93.402832
153.04855 1097.3373 93.402832
158.326 1097.3373 93.402832
163.60345 1097.3373 93.402832
168.8811 1097.3373 93.402832
174.15857 1097.3373 93.402832
179.43622 1097.3373 93.402832
186.37057 1087.267 118.45972
189.99112 1097.3373 93.402832
195.26877 1097.3373 93.402832
200.54623 1097.3373 93.402832
205.8239 1097.3373 93.402832
211.10133 1097.3373 93.402832
216.37878 1097.3373 93.402832
221.65645 1097.3373 93.402832
226.93391 1097.3373 93.402832
232.21156 1097.3373 93.402832
237.48901 1097.3373 93.402832
244.94411 1087.267 118.45972
250.2691 1087.267 118.45972
257.86621 1077.1964 143.51709
265.6441 1066.7532 169.5022
273.52002 1056.3098 195.48706
278.99033 1056.3098 195.48706
284.46085 1056.3098 195.48706
298.10873 1023.4877 277.15503
-101.17258 1082.3654 116.37915
-95.847679 1082.3654 116.37915
-91.327667 1072.2513 141.41797
-85.955437 1072.2513 141.41797
-81.319603 1061.7628 167.38403
-75.210968 1072.2513 141.41797
-69.838737 1072.2513 141.41797
-64.466599 1072.2513 141.41797
-59.634396 1061.7628 167.38403
-53.722134 1072.2513 141.41797
-48.349903 1072.2513 141.41797
-42.598946 1082.3654 116.37915
-37.274155 1082.3654 116.37915
-31.949263 1082.3654 116.37915
-26.159735 1102.2188 67.229492
-20.927767 1102.2188 67.229492
-15.695801 1102.2188 67.229492
-10.463933 1102.2188 67.229492
-5.2319665 1102.2188 67.229492
0 1102.2188 67.229492
5.2318668 1102.2188 67.229492
10.463933 1102.2188 67.229492
15.695801 1102.2188 67.229492
20.927866 1102.2188 67.229492
26.159735 1102.2188 67.229492
31.391602 1102.2188 67.229492
36.623669 1102.2188 67.229492
41.855534 1102.2188 67.229492
47.087601 1102.2188 67.229492
52.319469 1102.2188 67.229492
57.551338 1102.2188 67.229492
62.783401 1102.2188 67.229492
68.015266 1102.2188 67.229492
73.247337 1102.2188 67.229492
79.163002 1092.4792 91.34082
84.44046 1092.4792 91.34082
89.718109 1092.4792 91.34082
94.99556 1092.4792 91.34082
100.27322 1092.4792 91.34082
105.55067 1092.4792 91.34082
109.8708 1102.2188 67.229492
115.10287 1102.2188 67.229492
121.38322 1092.4792 91.34082
126.66088 1092.4792 91.34082
131.93834 1092.4792 91.34082
137.21579 1092.4792 91.34082
142.49345 1092.4792 91.34082
147.7709 1092.4792 91.34082
153.04855 1092.4792 91.34082
158.326 1092.4792 91.34082
163.60345 1092.4792 91.34082
168.8811 1092.4792 91.34082
174.15857 1092.4792 91.34082
179.43622 1092.4792 91.34082
186.37057 1082.3654 116.37915
189.99112 1092.4792 91.34082
195.26877 1092.4792 91.34082
200.54623 1092.4792 91.34082
205.8239 1092.4792 91.34082
211.10133 1092.4792 91.34082
216.37878 1092.4792 91.34082
221.65645 1092.4792 91.34082
226.93391 1092.4792 91.34082
234.29451 1082.3654 116.37915
239.61931 1082.3654 116.37915
244.94411 1082.3654 116.37915
250.2691 1082.3654 116.37915
257.86621 1072.2513 141.41797
265.6441 1061.7628 167.38403
271.06534 1061.7628 167.38403
278.99033 1051.2743 193.34961
292.4841 1018.3102 274.95728
298.10873 1018.3102 274.95728
-102.07204 1067.3062 139.31885
-96.699806 1067.3062 139.31885
-91.327667 1067.3062 139.31885
-86.740929 1056.7725 165.26562
-81.319603 1056.7725 165.26562
-75.898277 1056.7725 165.26562
-69.838737 1067.3062 139.31885
-64.466599 1067.3062 139.31885
-59.634396 1056.7725 165.26562
-53.722134 1067.3062 139.31885
-48.349903 1067.3062 139.31885
-42.598946 1077.4637 114.29858
-37.274155 1077.4637 114.29858
-31.949263 1077.4637 114.29858
-26.387667 1087.6213 89.278564
-20.927767 1097.4027 65.185303
-15.695801 1097.4027 65.185303
-10.463933 1097.4027 65.185303
-5.2319665 1097.4027 65.185303
0 1097.4027 65.185303
5.2318668 1097.4027 65.185303
10.463933 1097.4027 65.185303
15.695801 1097.4027 65.185303
20.927866 1097.4027 65.185303
26.159735 1097.4027 65.185303
31.391602 1097.4027 65.185303
36.623669 1097.4027 65.185303
41.855534 1097.4027 65.185303
47.087601 1097.4027 65.185303
52.319469 1097.4027 65.185303
57.551338 1097.4027 65.185303
62.783401 1097.4027 65.185303
68.015266 1097.4027 65.185303
73.247337 1097.4027 65.185303
79.163002 1087.6213 89.278564
84.44046 1087.6213 89.278564
89.718109 1087.6213 89.278564
94.99556 1087.6213 89.278564
100.27322 1087.6213 89.278564
105.55067 1087.6213 89.278564
110.82812 1087.6213 89.278564
116.10578 1087.6213 89.278564
121.38322 1087.6213 89.278564
126.66088 1087.6213 89.278564
131.93834 1087.6213 89.278564
137.21579 1087.6213 89.278564
141.2626 1097.4027 65.185303
146.49446 1097.4027 65.185303
153.04855 1087.6213 89.278564
158.326 1087.6213 89.278564
163.60345 1087.6213 89.278564
168.8811 1087.6213 89.278564
174.15857 1087.6213 89.278564
179.43622 1087.6213 89.278564
184.71367 1087.6213 89.278564
189.99112 1087.6213 89.278564
195.26877 1087.6213 89.278564
200.54623 1087.6213 89.278564
205.8239 1087.6213 89.278564
211.10133 1087.6213 89.278564
216.37878 1087.6213 89.278564
221.65645 1087.6213 89.278564
226.93391 1087.6213 89.278564
232.21156 1087.6213 89.278564
237.48901 1087.6213 89.278564
244.94411 1077.4637 114.29858
252.49408 1067.3062 139.31885
257.86621 1067.3062 139.31885
265.6441 1056.7725 165.26562
271.06534 1056.7725 165.26562
278.99033 1046.2388 191.21216
292.4841 1013.1326 272.75952
298.10873 1013.1326 272.75952
-102.07204 1062.3611 137.21973
-96.699806 1062.3611 137.21973
-91.327667 1062.3611 137.21973
-86.740929 1051.7821 163.14746
-81.319603 1051.7821 163.14746
-75.898277 1051.7821 163.14746
-69.838737 1062.3611 137.21973
-64.466599 1062.3611 137.21973
-59.634396 1051.7821 163.14746
-53.722134 1062.3611 137.21973
-48.349903 1062.3611 137.21973
-42.977669 1062.3611 137.21973
-37.274155 1072.5623 112.21802
-31.949263 1072.5623 112.21802
-26.387667 1082.7633 87.216553
-20.927767 1092.5867 63.140869
-15.695801 1092.5867 63.140869
-10.463933 1092.5867 63.140869
-5.2319665 1092.5867 63.140869
0 1092.5867 63.140869
5.2318668 1092.5867 63.140869
10.463933 1092.5867 63.140869
15.695801 1092.5867 63.140869
20.927866 1092.5867 63.140869
26.159735 1092.5867 63.140869
31.391602 1092.5867 63.140869
36.623669 1092.5867 63.140869
41.855534 1092.5867 63.140869
47.087601 1092.5867 63.140869
52.319469 1092.5867 63.140869
57.551338 1092.5867 63.140869
62.783401 1092.5867 63.140869
68.015266 1092.5867 63.140869
73.247337 1092.5867 63.140869
78.479202 1092.5867 63.140869
83.711067 1092.5867 63.140869
89.718109 1082.7633 87.216553
94.99556 1082.7633 87.216553
100.27322 1082.7633 87.216553
105.55067 1082.7633 87.216553
110.82812 1082.7633 87.216553
116.10578 1082.7633 87.216553
121.38322 1082.7633 87.216553
126.66088 1082.7633 87.216553
131.93834 1082.7633 87.216553
137.21579 1082.7633 87.216553
141.2626 1092.5867 63.140869
146.49446 1092.5867 63.140869
153.04855 1082.7633 87.216553
158.326 1082.7633 87.216553
163.60345 1082.7633 87.216553
168.8811 1082.7633 87.216553
174.15857 1082.7633 87.216553
179.43622 1082.7633 87.216553
184.71367 1082.7633 87.216553
189.99112 1082.7633 87.216553
195.26877 1082.7633 87.216553
200.54623 1082.7633 87.216553
205.8239 1082.7633 87.216553
211.10133 1082.7633 87.216553
216.37878 1082.7633 87.216553
221.65645 1082.7633 87.216553
226.93391 1082.7633 87.216553
232.21156 1082.7633 87.216553
237.48901 1082.7633 87.216553
244.94411 1072.5623 112.21802
252.49408 1062.3611 137.21973
257.86621 1062.3611 137.21973
265.6441 1051.7821 163.14746
273.52002 1041.2032 189.07471
278.99033 1041.2032 189.07471
292.4841 1007.9551 270.56177
298.10873 1007.9551 270.56177
309.50903 984.90808 327.04663
-102.07204 1057.4158 135.12061
-96.699806 1057.4158 135.12061
-91.327667 1057.4158 135.12061
-85.955437 1057.4158 135.12061
-80.583206 1057.4158 135.12061
-75.898277 1046.7917 161.02905
-70.476952 1046.7917 161.02905
-65.055725 1046.7917 161.02905
-59.634396 1046.7917 161.02905
-53.722134 1057.4158 135.12061
-48.349903 1057.4158 135.12061
-42.977669 1057.4158 135.12061
-37.605534 1057.4158 135.12061
-32.233299 1057.4158 135.12061
-26.387667 1077.9053 85.154297
-20.927767 1087.7705 61.09668
-15.695801 1087.7705 61.09668
-10.463933 1087.7705 61.09668
-5.2319665 1087.7705 61.09668
0 1087.7705 61.09668
5.2318668 1087.7705 61.09668
10.463933 1087.7705 61.09668
15.695801 1087.7705 61.09668
20.927866 1087.7705 61.09668
26.159735 1087.7705 61.09668
31.391602 1087.7705 61.09668
36.623669 1087.7705 61.09668
41.855534 1087.7705 61.09668
47.087601 1087.7705 61.09668
52.319469 1087.7705 61.09668
57.551338 1087.7705 61.09668
62.783401 1087.7705 61.09668
68.015266 1087.7705 61.09668
73.247337 1087.7705 61.09668
78.479202 1087.7705 61.09668
83.711067 1087.7705 61.09668
88.943138 1087.7705 61.09668
94.99556 1077.9053 85.154297
100.27322 1077.9053 85.154297
105.55067 1077.9053 85.154297
110.82812 1077.9053 85.154297
116.10578 1077.9053 85.154297
121.38322 1077.9053 85.154297
126.66088 1077.9053 85.154297
131.93834 1077.9053 85.154297
137.21579 1077.9053 85.154297
141.2626 1087.7705 61.09668
146.49446 1087.7705 61.09668
153.04855 1077.9053 85.154297
158.326 1077.9053 85.154297
163.60345 1077.9053 85.154297
168.8811 1077.9053 85.154297
174.15857 1077.9053 85.154297
179.43622 1077.9053 85.154297
184.71367 1077.9053 85.154297
189.99112 1077.9053 85.154297
195.26877 1077.9053 85.154297
200.54623 1077.9053 85.154297
205.8239 1077.9053 85.154297
211.10133 1077.9053 85.154297
216.37878 1077.9053 85.154297
221.65645 1077.9053 85.154297
226.93391 1077.9053 85.154297
232.21156 1077.9053 85.154297
237.48901 1077.9053 85.154297
244.94411 1067.6605 110.13745
252.49408 1057.4158 135.12061
257.86621 1057.4158 135.12061
265.6441 1046.7917 161.02905
273.52002 1036.1676 186.93726
278.99033 1036.1676 186.93726
287.10489 1025.1639 213.77124
300.89655 991.39441 296.1228
309.50903 979.63196 324.80713
315.24057 979.63196 324.80713
-101.17258 1062.759 108.05688
-95.847679 1062.759 108.05688
-91.327667 1052.4707 133.02148
-85.955437 1052.4707 133.02148
-80.583206 1052.4707 133.02148
-75.898277 1041.8014 158.91089
-70.476952 1041.8014 158.91089
-65.055725 1041.8014 158.91089
-59.634396 1041.8014 158.91089
-54.21307 1041.8014 158.91089
-48.79174 1041.8014 158.91089
-43.370415 1041.8014 158.91089
-37.605534 1052.4707 133.02148
-32.233299 1052.4707 133.02148
-26.387667 1073.0472 83.092285
-20.927767 1082.9545 59.052246
-15.695801 1082.9545 59.052246
-10.463933 1082.9545 59.052246
-5.2319665 1082.9545 59.052246
0 1082.9545 59.052246
5.2318668 1082.9545 59.052246
10.463933 1082.9545 59.052246
15.559041 1092.8617 35.012451
20.74552 1092.8617 35.012451
26.159735 1082.9545 59.052246
31.391602 1082.9545 59.052246
36.623669 1082.9545 59.052246
41.855534 1082.9545 59.052246
47.087601 1082.9545 59.052246
52.319469 1082.9545 59.052246
57.551338 1082.9545 59.052246
62.783401 1082.9545 59.052246
68.015266 1082.9545 59.052246
73.247337 1082.9545 59.052246
78.479202 1082.9545 59.052246
83.711067 1082.9545 59.052246
88.943138 1082.9545 59.052246
94.175003 1082.9545 59.052246
100.27322 1073.0472 83.092285
105.55067 1073.0472 83.092285
110.82812 1073.0472 83.092285
116.10578 1073.0472 83.092285
121.38322 1073.0472 83.092285
126.66088 1073.0472 83.092285
131.93834 1073.0472 83.092285
137.21579 1073.0472 83.092285
142.49345 1073.0472 83.092285
147.7709 1073.0472 83.092285
153.04855 1073.0472 83.092285
158.326 1073.0472 83.092285
163.60345 1073.0472 83.092285
168.8811 1073.0472 83.092285
174.15857 1073.0472 83.092285
179.43622 1073.0472 83.092285
184.71367 1073.0472 83.092285
189.99112 1073.0472 83.092285
195.26877 1073.0472 83.092285
200.54623 1073.0472 83.092285
205.8239 1073.0472 83.092285
211.10133 1073.0472 83.092285
216.37878 1073.0472 83.092285
221.65645 1073.0472 83.092285
226.93391 1073.0472 83.092285
232.21156 1073.0472 83.092285
237.48901 1073.0472 83.092285
244.94411 1062.759 108.05688
250.2691 1062.759 108.05688
257.86621 1052.4707 133.02148
265.6441 1041.8014 158.91089
271.06534 1041.8014 158.91089
278.99033 1031.1321 184.7998
287.10489 1020.0817 211.61377
300.89655 986.16846 293.90454
306.57394 986.16846 293.90454
312.25116 986.16846 293.90454
320.97214 974.35596 322.56763
-101.17258 1057.8574 105.97632
-95.847679 1057.8574 105.97632
-91.327667 1047.5255 130.92236
-85.955437 1047.5255 130.92236
-80.583206 1047.5255 130.92236
-75.898277 1036.811 156.79248
-70.476952 1036.811 156.79248
-65.055725 1036.811 156.79248
-59.634396 1036.811 156.79248
-54.21307 1036.811 156.79248
-48.79174 1036.811 156.79248
-43.370415 1036.811 156.79248
-37.605534 1047.5255 130.92236
-32.233299 1047.5255 130.92236
-26.387667 1068.1892 81.030273
-21.110115 1068.1892 81.030273
-15.695801 1078.1384 57.008057
-10.463933 1078.1384 57.008057
-5.2319665 1078.1384 57.008057
0 1078.1384 57.008057
5.2318668 1078.1384 57.008057
10.463933 1078.1384 57.008057
15.559041 1088.0876 32.98584
20.74552 1088.0876 32.98584
26.159735 1078.1384 57.008057
31.391602 1078.1384 57.008057
36.623669 1078.1384 57.008057
41.855534 1078.1384 57.008057
47.087601 1078.1384 57.008057
52.319469 1078.1384 57.008057
57.551338 1078.1384 57.008057
62.783401 1078.1384 57.008057
68.015266 1078.1384 57.008057
73.247337 1078.1384 57.008057
78.479202 1078.1384 57.008057
83.711067 1078.1384 57.008057
88.943138 1078.1384 57.008057
94.175003 1078.1384 57.008057
100.27322 1068.1892 81.030273
105.55067 1068.1892 81.030273
110.82812 1068.1892 81.030273
116.10578 1068.1892 81.030273
121.38322 1068.1892 81.030273
126.66088 1068.1892 81.030273
131.93834 1068.1892 81.030273
137.21579 1068.1892 81.030273
142.49345 1068.1892 81.030273
147.7709 1068.1892 81.030273
153.04855 1068.1892 81.030273
158.326 1068.1892 81.030273
163.60345 1068.1892 81.030273
168.8811 1068.1892 81.030273
174.15857 1068.1892 81.030273
181.04578 1057.8574 105.97632
186.37057 1057.8574 105.97632
191.69536 1057.8574 105.97632
197.02036 1057.8574 105.97632
200.54623 1068.1892 81.030273
205.8239 1068.1892 81.030273
211.10133 1068.1892 81.030273
216.37878 1068.1892 81.030273
221.65645 1068.1892 81.030273
226.93391 1068.1892 81.030273
232.21156 1068.1892 81.030273
237.48901 1068.1892 81.030273
242.76645 1068.1892 81.030273
250.2691 1057.8574 105.97632
257.86621 1047.5255 130.92236
265.6441 1036.811 156.79248
271.06534 1036.811 156.79248
278.99033 1026.0966 182.66235
289.7489 1003.9021 236.25049
300.89655 980.9425 291.68628
306.57394 980.9425 291.68628
312.25116 980.9425 291.68628
317.92834 980.9425 291.68628
326.70392 969.07996 320.32812
-106.49747 1052.9559 103.89551
-101.17258 1052.9559 103.89551
-95.847679 1052.9559 103.89551
-91.327667 1042.5803 128.82324
-85.955437 1042.5803 128.82324
-80.583206 1042.5803 128.82324
-75.210968 1042.5803 128.82324
-70.476952 1031.8207 154.67432
-65.055725 1031.8207 154.67432
-59.634396 1031.8207 154.67432
-54.21307 1031.8207 154.67432
-48.79174 1031.8207 154.67432
-43.370415 1031.8207 154.67432
-37.949188 1031.8207 154.67432
-32.233299 1042.5803 128.82324
-26.387667 1063.3313 78.968018
-21.110115 1063.3313 78.968018
-15.83256 1063.3313 78.968018
-10.463933 1073.3225 54.963867
-5.2319665 1073.3225 54.963867
0 1073.3225 54.963867
5.2318668 1073.3225 54.963867
10.463933 1073.3225 54.963867
15.695801 1073.3225 54.963867
20.927866 1073.3225 54.963867
26.159735 1073.3225 54.963867
31.391602 1073.3225 54.963867
36.623669 1073.3225 54.963867
41.855534 1073.3225 54.963867
47.087601 1073.3225 54.963867
52.319469 1073.3225 54.963867
57.551338 1073.3225 54.963867
62.783401 1073.3225 54.963867
68.015266 1073.3225 54.963867
73.247337 1073.3225 54.963867
78.479202 1073.3225 54.963867
83.711067 1073.3225 54.963867
88.943138 1073.3225 54.963867
94.175003 1073.3225 54.963867
99.407066 1073.3225 54.963867
104.63894 1073.3225 54.963867
110.82812 1063.3313 78.968018
116.10578 1063.3313 78.968018
121.38322 1063.3313 78.968018
126.66088 1063.3313 78.968018
131.93834 1063.3313 78.968018
137.21579 1063.3313 78.968018
142.49345 1063.3313 78.968018
147.7709 1063.3313 78.968018
153.04855 1063.3313 78.968018
158.326 1063.3313 78.968018
163.60345 1063.3313 78.968018
168.8811 1063.3313 78.968018
174.15857 1063.3313 78.968018
181.04578 1052.9559 103.89551
186.37057 1052.9559 103.89551
191.69536 1052.9559 103.89551
197.02036 1052.9559 103.89551
200.54623 1063.3313 78.968018
205.8239 1063.3313 78.968018
211.10133 1063.3313 78.968018
216.37878 1063.3313 78.968018
221.65645 1063.3313 78.968018
226.93391 1063.3313 78.968018
232.21156 1063.3313 78.968018
237.48901 1063.3313 78.968018
242.76645 1063.3313 78.968018
250.2691 1052.9559 103.89551
257.86621 1042.5803 128.82324
265.6441 1031.8207 154.67432
273.52002 1021.061 180.5249
281.58353 1009.917 207.29932
292.4841 987.24475 261.77075
300.89655 975.71655 289.46802
306.57394 975.71655 289.46802
312.25116 975.71655 289.46802
317.92834 975.71655 289.46802
323.60577 975.71655 289.46802
329.28299 975.71655 289.46802
-102.07204 1037.6353 126.72437
-96.699806 1037.6353 126.72437
-91.327667 1037.6353 126.72437
-85.955437 1037.6353 126.72437
-80.583206 1037.6353 126.72437
-75.210968 1037.6353 126.72437
-70.476952 1026.8303 152.55591
-65.055725 1026.8303 152.55591
-59.634396 1026.8303 152.55591
-54.704002 1016.0255 178.38745
-49.233582 1016.0255 178.38745
-43.763157 1016.0255 178.38745
-37.949188 1026.8303 152.55591
-32.233299 1037.6353 126.72437
-26.624367 1048.0543 101.81494
-21.110115 1058.4733 76.906006
-15.83256 1058.4733 76.906006
-10.463933 1068.5065 52.919434
-5.2319665 1068.5065 52.919434
0 1068.5065 52.919434
5.2318668 1068.5065 52.919434
10.463933 1068.5065 52.919434
15.695801 1068.5065 52.919434
20.927866 1068.5065 52.919434
26.159735 1068.5065 52.919434
31.391602 1068.5065 52.919434
36.623669 1068.5065 52.919434
41.855534 1068.5065 52.919434
47.087601 1068.5065 52.919434
52.319469 1068.5065 52.919434
57.551338 1068.5065 52.919434
62.783401 1068.5065 52.919434
68.015266 1068.5065 52.919434
73.247337 1068.5065 52.919434
78.479202 1068.5065 52.919434
83.711067 1068.5065 52.919434
88.943138 1068.5065 52.919434
94.175003 1068.5065 52.919434
99.407066 1068.5065 52.919434
104.63894 1068.5065 52.919434
110.82812 1058.4733 76.906006
116.10578 1058.4733 76.906006
121.38322 1058.4733 76.906006
126.66088 1058.4733 76.906006
131.93834 1058.4733 76.906006
137.21579 1058.4733 76.906006
142.49345 1058.4733 76.906006
147.7709 1058.4733 76.906006
153.04855 1058.4733 76.906006
158.326 1058.4733 76.906006
163.60345 1058.4733 76.906006
168.8811 1058.4733 76.906006
175.72078 1048.0543 101.81494
181.04578 1048.0543 101.81494
186.37057 1048.0543 101.81494
191.69536 1048.0543 101.81494
197.02036 1048.0543 101.81494
200.54623 1058.4733 76.906006
205.8239 1058.4733 76.906006
211.10133 1058.4733 76.906006
216.37878 1058.4733 76.906006
221.65645 1058.4733 76.906006
226.93391 1058.4733 76.906006
232.21156 1058.4733 76.906006
237.48901 1058.4733 76.906006
244.94411 1048.0543 101.81494
252.49408 1037.6353 126.72437
260.22269 1026.8303 152.55591
268.04968 1016.0255 178.38745
273.52002 1016.0255 178.38745
281.58353 1004.8346 205.14185
292.4841 982.06726 259.573
300.89655 970.49048 287.24951
306.57394 970.49048 287.24951
312.25116 970.49048 287.24951
317.92834 970.49048 287.24951
323.60577 970.49048 287.24951
329.28299 970.49048 287.24951
-106.49747 1043.1527 99.734375
-101.17258 1043.1527 99.734375
-96.699806 1032.6901 124.62524
-91.327667 1032.6901 124.62524
-85.955437 1032.6901 124.62524
-80.583206 1032.6901 124.62524
-75.210968 1032.6901 124.62524
-70.476952 1021.8401 150.43774
-65.055725 1021.8401 150.43774
-60.174423 1010.99 176.25
-54.704002 1010.99 176.25
-49.233582 1010.99 176.25
-43.763157 1010.99 176.25
-37.949188 1021.8401 150.43774
-32.527863 1021.8401 150.43774
-26.624367 1043.1527 99.734375
-21.110115 1053.6152 74.843994
-15.83256 1053.6152 74.843994
-10.555108 1053.6152 74.843994
-5.2319665 1063.6904 50.875244
0 1063.6904 50.875244
5.2318668 1063.6904 50.875244
10.463933 1063.6904 50.875244
15.695801 1063.6904 50.875244
20.927866 1063.6904 50.875244
26.159735 1063.6904 50.875244
31.391602 1063.6904 50.875244
36.623669 1063.6904 50.875244
41.855534 1063.6904 50.875244
47.087601 1063.6904 50.875244
52.319469 1063.6904 50.875244
57.551338 1063.6904 50.875244
62.783401 1063.6904 50.875244
68.015266 1063.6904 50.875244
73.247337 1063.6904 50.875244
78.479202 1063.6904 50.875244
83.711067 1063.6904 50.875244
88.943138 1063.6904 50.875244
94.175003 1063.6904 50.875244
100.27322 1053.6152 74.843994
104.63894 1063.6904 50.875244
109.8708 1063.6904 50.875244
116.10578 1053.6152 74.843994
121.38322 1053.6152 74.843994
126.66088 1053.6152 74.843994
131.93834 1053.6152 74.843994
137.21579 1053.6152 74.843994
142.49345 1053.6152 74.843994
147.7709 1053.6152 74.843994
153.04855 1053.6152 74.843994
158.326 1053.6152 74.843994
163.60345 1053.6152 74.843994
168.8811 1053.6152 74.843994
174.15857 1053.6152 74.843994
181.04578 1043.1527 99.734375
186.37057 1043.1527 99.734375
191.69536 1043.1527 99.734375
197.02036 1043.1527 99.734375
200.54623 1053.6152 74.843994
205.8239 1053.6152 74.843994
211.10133 1053.6152 74.843994
216.37878 1053.6152 74.843994
221.65645 1053.6152 74.843994
226.93391 1053.6152 74.843994
232.21156 1053.6152 74.843994
239.61931 1043.1527 99.734375
247.12175 1032.6901 124.62524
254.80147 1021.8401 150.43774
262.57916 1010.99 176.25
270.54117 999.75232 202.98462
276.06235 999.75232 202.98462
284.17667 988.51477 229.71899
292.4841 976.88965 257.37524
300.89655 965.26453 285.03125
306.57394 965.26453 285.03125
312.25116 965.26453 285.03125
317.92834 965.26453 285.03125
323.60577 965.26453 285.03125
329.28299 965.26453 285.03125
-106.49747 1038.2512 97.653809
-101.17258 1038.2512 97.653809
-96.699806 1027.745 122.52612
-91.327667 1027.745 122.52612
-85.955437 1027.745 122.52612
-80.583206 1027.745 122.52612
-75.210968 1027.745 122.52612
-70.476952 1016.8497 148.31934
-65.644844 1005.9545 174.11255
-60.174423 1005.9545 174.11255
-54.704002 1005.9545 174.11255
-49.233582 1005.9545 174.11255
-43.763157 1005.9545 174.11255
-37.949188 1016.8497 148.31934
-32.527863 1016.8497 148.31934
-26.861067 1027.745 122.52612
-21.299473 1038.2512 97.653809
-15.83256 1048.7573 72.781738
-10.555108 1048.7573 72.781738
-5.277554 1048.7573 72.781738
0 1048.7573 72.781738
