ply
format ascii 1.0
comment PCL generated
element vertex 1594
property float x
property float y
property float z
element camera 0
property float view_px
property float view_py
property float view_pz
property float x_axisx
property float x_axisy
property float x_axisz
property float y_axisx
property float y_axisy
property float y_axisz
property float z_axisx
property float z_axisy
property float z_axisz
property float focal
property float scalex
property float scaley
property float centerx
property float centery
property int viewportx
property int viewporty
property float k1
property float k2
end_header
130.57771 458.34485 69.856689
136.25513 458.34485 69.856689
141.93234 458.34485 69.856689
147.60954 458.34485 69.856689
153.28697 458.34485 69.856689
158.96417 458.34485 69.856689
164.6416 458.34485 69.856689
170.3188 458.34485 69.856689
177.68095 441.47913 96.374756
183.41275 441.47913 96.374756
189.1443 441.47913 96.374756
194.87608 441.47913 96.374756
202.51001 424.61328 122.89282
208.29593 424.61328 122.89282
214.08206 424.61328 122.89282
219.86795 424.61328 122.89282
-81.814018 401.28015 148.83838
-75.217957 419.28735 120.63208
-69.432045 419.28735 120.63208
-64.282486 401.28015 148.83838
-58.438602 401.28015 148.83838
-52.594719 401.28015 148.83838
-46.750835 401.28015 148.83838
-40.907066 401.28015 148.83838
-35.063183 401.28015 148.83838
-29.219301 401.28015 148.83838
-23.375418 401.28015 148.83838
-17.699856 383.81885 176.18994
-11.799978 383.81885 176.18994
-5.8999891 383.81885 176.18994
0 383.81885 176.18994
5.8998771 383.81885 176.18994
11.799978 383.81885 176.18994
17.699856 383.81885 176.18994
23.599957 383.81885 176.18994
29.797901 365.26587 205.25122
35.399712 383.81885 176.18994
41.299816 383.81885 176.18994
47.199688 383.81885 176.18994
53.099792 383.81885 176.18994
62.450146 453.1189 67.638428
68.127563 453.1189 67.638428
73.120972 469.48901 41.996338
78.745796 469.48901 41.996338
85.159401 453.1189 67.638428
89.99501 469.48901 41.996338
95.619835 469.48901 41.996338
102.19124 453.1189 67.638428
107.86867 453.1189 67.638428
113.54587 453.1189 67.638428
119.22308 453.1189 67.638428
124.90051 453.1189 67.638428
129.3679 469.48901 41.996338
134.99274 469.48901 41.996338
141.93234 453.1189 67.638428
147.60954 453.1189 67.638428
153.28697 453.1189 67.638428
158.96417 453.1189 67.638428
164.6416 453.1189 67.638428
170.3188 453.1189 67.638428
177.68095 436.20312 94.135254
183.41275 436.20312 94.135254
189.1443 436.20312 94.135254
194.87608 436.20312 94.135254
202.51001 419.28735 120.63208
208.29593 419.28735 120.63208
214.08206 419.28735 120.63208
217.80254 436.20312 94.135254
223.53432 436.20312 94.135254
-81.814018 395.90088 146.55493
-75.970139 395.90088 146.55493
-70.126366 395.90088 146.55493
-64.282486 395.90088 146.55493
-58.438602 395.90088 146.55493
-52.594719 395.90088 146.55493
-46.750835 395.90088 146.55493
-40.907066 395.90088 146.55493
-35.063183 395.90088 146.55493
-29.219301 395.90088 146.55493
-23.375418 395.90088 146.55493
-17.699856 378.38782 173.88452
-11.799978 378.38782 173.88452
-5.8999891 378.38782 173.88452
0 378.38782 173.88452
5.8998771 378.38782 173.88452
11.919207 359.78003 202.92261
17.699856 378.38782 173.88452
23.599957 378.38782 173.88452
29.797901 359.78003 202.92261
35.399712 378.38782 173.88452
41.299816 378.38782 173.88452
47.199688 378.38782 173.88452
68.127563 447.89282 65.420166
73.120972 464.3114 39.798584
78.745796 464.3114 39.798584
85.159401 447.89282 65.420166
90.836609 447.89282 65.420166
96.514038 447.89282 65.420166
102.19124 447.89282 65.420166
107.86867 447.89282 65.420166
113.54587 447.89282 65.420166
119.22308 447.89282 65.420166
124.90051 447.89282 65.420166
129.3679 464.3114 39.798584
134.99274 464.3114 39.798584
141.93234 447.89282 65.420166
147.60954 447.89282 65.420166
153.28697 447.89282 65.420166
158.96417 447.89282 65.420166
164.6416 447.89282 65.420166
170.3188 447.89282 65.420166
177.68095 430.927 91.895752
183.41275 430.927 91.895752
189.1443 430.927 91.895752
194.87608 430.927 91.895752
200.60764 430.927 91.895752
206.33919 430.927 91.895752
212.07098 430.927 91.895752
217.80254 430.927 91.895752
223.53432 430.927 91.895752
-75.970139 390.52161 144.27173
-70.126366 390.52161 144.27173
-64.282486 390.52161 144.27173
-58.438602 390.52161 144.27173
-52.594719 390.52161 144.27173
-46.750835 390.52161 144.27173
-40.907066 390.52161 144.27173
-35.063183 390.52161 144.27173
-29.219301 390.52161 144.27173
-23.375418 390.52161 144.27173
-17.699856 372.95703 171.57935
-11.799978 372.95703 171.57935
-5.8999891 372.95703 171.57935
0 354.29431 200.59399
5.9594893 354.29431 200.59399
11.919207 354.29431 200.59399
17.699856 372.95703 171.57935
23.599957 372.95703 171.57935
29.797901 354.29431 200.59399
35.399712 372.95703 171.57935
41.299816 372.95703 171.57935
47.199688 372.95703 171.57935
53.099792 372.95703 171.57935
68.127563 442.66699 63.201904
73.804771 442.66699 63.201904
79.482201 442.66699 63.201904
85.159401 442.66699 63.201904
90.836609 442.66699 63.201904
96.514038 442.66699 63.201904
102.19124 442.66699 63.201904
107.86867 442.66699 63.201904
113.54587 442.66699 63.201904
119.22308 442.66699 63.201904
124.90051 442.66699 63.201904
130.57771 442.66699 63.201904
136.25513 442.66699 63.201904
141.93234 442.66699 63.201904
147.60954 442.66699 63.201904
153.28697 442.66699 63.201904
158.96417 442.66699 63.201904
164.6416 442.66699 63.201904
170.3188 442.66699 63.201904
177.68095 425.65112 89.65625
183.41275 425.65112 89.65625
189.1443 425.65112 89.65625
194.87608 425.65112 89.65625
200.60764 425.65112 89.65625
206.33919 425.65112 89.65625
212.07098 425.65112 89.65625
217.80254 425.65112 89.65625
223.53432 425.65112 89.65625
-75.970139 385.14221 141.98828
-70.126366 385.14221 141.98828
-64.282486 385.14221 141.98828
-58.438602 385.14221 141.98828
-52.594719 385.14221 141.98828
-46.750835 385.14221 141.98828
-40.907066 385.14221 141.98828
-35.063183 385.14221 141.98828
-29.219301 385.14221 141.98828
-23.375418 385.14221 141.98828
-17.699856 367.52588 169.27393
-11.919207 348.80847 198.26538
-5.9596033 348.80847 198.26538
0 348.80847 198.26538
5.9594893 348.80847 198.26538
11.919207 348.80847 198.26538
17.878695 348.80847 198.26538
23.838413 348.80847 198.26538
29.797901 348.80847 198.26538
35.399712 367.52588 169.27393
41.299816 367.52588 169.27393
47.199688 367.52588 169.27393
53.099792 367.52588 169.27393
85.159401 437.44092 60.983398
90.836609 437.44092 60.983398
96.514038 437.44092 60.983398
102.19124 437.44092 60.983398
107.86867 437.44092 60.983398
113.54587 437.44092 60.983398
119.22308 437.44092 60.983398
124.90051 437.44092 60.983398
130.57771 437.44092 60.983398
136.25513 437.44092 60.983398
141.93234 437.44092 60.983398
147.60954 437.44092 60.983398
153.28697 437.44092 60.983398
158.96417 437.44092 60.983398
164.6416 437.44092 60.983398
170.3188 437.44092 60.983398
175.99602 437.44092 60.983398
183.41275 420.375 87.416504
189.1443 420.375 87.416504
194.87608 420.375 87.416504
200.60764 420.375 87.416504
206.33919 420.375 87.416504
212.07098 420.375 87.416504
217.80254 420.375 87.416504
223.53432 420.375 87.416504
-75.970139 379.76294 139.70508
-70.126366 379.76294 139.70508
-64.282486 379.76294 139.70508
-58.438602 379.76294 139.70508
-52.594719 379.76294 139.70508
-46.750835 379.76294 139.70508
-40.907066 379.76294 139.70508
-35.063183 379.76294 139.70508
-29.219301 379.76294 139.70508
-23.375418 379.76294 139.70508
-17.699856 362.09497 166.96875
-11.919207 343.32275 195.93677
-5.9596033 343.32275 195.93677
0 343.32275 195.93677
5.9594893 343.32275 195.93677
11.919207 343.32275 195.93677
17.878695 343.32275 195.93677
23.838413 343.32275 195.93677
29.797901 343.32275 195.93677
35.757389 343.32275 195.93677
41.717106 343.32275 195.93677
47.676598 343.32275 195.93677
85.159401 432.21509 58.765137
90.836609 432.21509 58.765137
96.514038 432.21509 58.765137
102.19124 432.21509 58.765137
107.86867 432.21509 58.765137
113.54587 432.21509 58.765137
119.22308 432.21509 58.765137
124.90051 432.21509 58.765137
130.57771 432.21509 58.765137
136.25513 432.21509 58.765137
141.93234 432.21509 58.765137
147.60954 432.21509 58.765137
153.28697 432.21509 58.765137
158.96417 432.21509 58.765137
164.6416 432.21509 58.765137
170.3188 432.21509 58.765137
175.99602 432.21509 58.765137
183.41275 415.09912 85.177246
189.1443 415.09912 85.177246
194.87608 415.09912 85.177246
200.60764 415.09912 85.177246
206.33919 415.09912 85.177246
212.07098 415.09912 85.177246
217.80254 415.09912 85.177246
221.41454 432.21509 58.765137
227.09174 432.21509 58.765137
232.76895 432.21509 58.765137
-70.126366 374.38354 137.42163
-64.282486 374.38354 137.42163
-58.438602 374.38354 137.42163
-52.594719 374.38354 137.42163
-46.750835 374.38354 137.42163
-40.907066 374.38354 137.42163
-35.399826 356.66406 164.66333
-29.499834 356.66406 164.66333
-23.599844 356.66406 164.66333
-17.878695 337.83691 193.60815
-11.919207 337.83691 193.60815
-5.9596033 337.83691 193.60815
0 337.83691 193.60815
5.9594893 337.83691 193.60815
11.919207 337.83691 193.60815
17.878695 337.83691 193.60815
23.838413 337.83691 193.60815
30.095968 319.00952 222.55273
36.115067 319.00952 222.55273
42.134399 319.00952 222.55273
48.153503 319.00952 222.55273
90.836609 426.98901 56.546875
96.514038 426.98901 56.546875
102.19124 426.98901 56.546875
107.86867 426.98901 56.546875
113.54587 426.98901 56.546875
119.22308 426.98901 56.546875
124.90051 426.98901 56.546875
130.57771 426.98901 56.546875
136.25513 426.98901 56.546875
141.93234 426.98901 56.546875
147.60954 426.98901 56.546875
153.28697 426.98901 56.546875
158.96417 426.98901 56.546875
164.6416 426.98901 56.546875
170.3188 426.98901 56.546875
175.99602 426.98901 56.546875
183.41275 409.823 82.9375
189.1443 409.823 82.9375
194.87608 409.823 82.9375
200.60764 409.823 82.9375
206.33919 409.823 82.9375
212.07098 409.823 82.9375
217.80254 409.823 82.9375
221.41454 426.98901 56.546875
227.09174 426.98901 56.546875
232.76895 426.98901 56.546875
-70.126366 369.00439 135.13818
-64.282486 369.00439 135.13818
-58.438602 369.00439 135.13818
-52.594719 369.00439 135.13818
-46.750835 369.00439 135.13818
-41.299816 351.23315 162.35815
-35.399826 351.23315 162.35815
-29.499834 351.23315 162.35815
-23.599844 351.23315 162.35815
-17.878695 332.35107 191.27954
-11.919207 332.35107 191.27954
-5.9596033 332.35107 191.27954
0 332.35107 191.27954
5.9594893 332.35107 191.27954
12.038433 313.46899 220.20093
17.878695 332.35107 191.27954
23.838413 332.35107 191.27954
30.095968 313.46899 220.20093
36.115067 313.46899 220.20093
42.134399 313.46899 220.20093
48.644436 294.03174 249.97266
89.99501 438.42371 28.810059
95.619835 438.42371 28.810059
101.24444 438.42371 28.810059
107.86867 421.76318 54.328613
113.54587 421.76318 54.328613
119.22308 421.76318 54.328613
124.90051 421.76318 54.328613
130.57771 421.76318 54.328613
136.25513 421.76318 54.328613
141.93234 421.76318 54.328613
147.60954 421.76318 54.328613
153.28697 421.76318 54.328613
158.96417 421.76318 54.328613
164.6416 421.76318 54.328613
170.3188 421.76318 54.328613
175.99602 421.76318 54.328613
183.41275 404.54712 80.697998
189.1443 404.54712 80.697998
194.87608 404.54712 80.697998
200.60764 404.54712 80.697998
206.33919 404.54712 80.697998
212.07098 404.54712 80.697998
217.80254 404.54712 80.697998
221.41454 421.76318 54.328613
227.09174 421.76318 54.328613
232.76895 421.76318 54.328613
-64.282486 363.625 132.85474
-58.438602 363.625 132.85474
-52.594719 363.625 132.85474
-46.750835 363.625 132.85474
-41.299816 345.80212 160.05273
-35.399826 345.80212 160.05273
-29.499834 345.80212 160.05273
-23.599844 345.80212 160.05273
-17.878695 326.86523 188.95093
-11.919207 326.86523 188.95093
-5.9596033 326.86523 188.95093
0 307.92822 217.84888
5.9594893 326.86523 188.95093
11.919207 326.86523 188.95093
18.057533 307.92822 217.84888
24.076866 307.92822 217.84888
30.402802 288.43433 247.59668
36.483269 288.43433 247.59668
42.563965 288.43433 247.59668
48.644436 288.43433 247.59668
89.99501 433.24609 26.612305
95.619835 433.24609 26.612305
101.24444 433.24609 26.612305
107.86867 416.53711 52.110352
113.54587 416.53711 52.110352
119.22308 416.53711 52.110352
124.90051 416.53711 52.110352
130.57771 416.53711 52.110352
136.25513 416.53711 52.110352
141.93234 416.53711 52.110352
147.60954 416.53711 52.110352
153.28697 416.53711 52.110352
158.96417 416.53711 52.110352
164.6416 416.53711 52.110352
170.3188 416.53711 52.110352
175.99602 416.53711 52.110352
183.41275 399.271 78.458496
189.1443 399.271 78.458496
194.87608 399.271 78.458496
200.60764 399.271 78.458496
206.33919 399.271 78.458496
212.07098 399.271 78.458496
217.80254 399.271 78.458496
223.53432 399.271 78.458496
229.26587 399.271 78.458496
234.99742 399.271 78.458496
-64.282486 358.24585 130.57153
-58.438602 358.24585 130.57153
-52.594719 358.24585 130.57153
-46.750835 358.24585 130.57153
-41.299816 340.37134 157.74756
-35.399826 340.37134 157.74756
-29.499834 340.37134 157.74756
-23.599844 340.37134 157.74756
-17.878695 321.37939 186.62256
-11.919207 321.37939 186.62256
-5.9596033 321.37939 186.62256
0 321.37939 186.62256
5.9594893 321.37939 186.62256
11.919207 321.37939 186.62256
18.057533 302.38757 215.49707
24.076866 302.38757 215.49707
30.402802 282.83728 245.22095
36.483269 282.83728 245.22095
42.563965 282.83728 245.22095
89.99501 428.0686 24.414551
95.619835 428.0686 24.414551
101.24444 428.0686 24.414551
107.86867 411.31116 49.89209
113.54587 411.31116 49.89209
119.22308 411.31116 49.89209
126.09628 393.99512 76.218994
130.57771 411.31116 49.89209
136.25513 411.31116 49.89209
141.93234 411.31116 49.89209
147.60954 411.31116 49.89209
153.28697 411.31116 49.89209
158.96417 411.31116 49.89209
164.6416 411.31116 49.89209
170.3188 411.31116 49.89209
175.99602 411.31116 49.89209
183.41275 393.99512 76.218994
189.1443 393.99512 76.218994
194.87608 393.99512 76.218994
200.60764 393.99512 76.218994
206.33919 393.99512 76.218994
212.07098 393.99512 76.218994
217.80254 393.99512 76.218994
223.53432 393.99512 76.218994
229.26587 393.99512 76.218994
234.99742 393.99512 76.218994
-63.646023 371.35291 100.28516
-57.860001 371.35291 100.28516
-52.073982 371.35291 100.28516
-46.750835 352.86646 128.28809
-41.299816 334.94019 155.44214
-35.399826 334.94019 155.44214
-29.499834 334.94019 155.44214
-23.599844 334.94019 155.44214
-17.878695 315.89355 184.29395
-11.919207 315.89355 184.29395
-5.9596033 315.89355 184.29395
0 315.89355 184.29395
5.9594893 315.89355 184.29395
11.919207 315.89355 184.29395
18.057533 296.8468 213.14526
24.076866 296.8468 213.14526
30.402802 277.23999 242.84497
36.483269 277.23999 242.84497
42.993538 257.6333 272.54517
89.99501 422.89111 22.216797
95.619835 422.89111 22.216797
101.24444 422.89111 22.216797
106.86926 422.89111 22.216797
113.54587 406.08521 47.673828
119.22308 406.08521 47.673828
126.09628 388.71899 73.979492
130.57771 406.08521 47.673828
136.25513 406.08521 47.673828
143.29117 388.71899 73.979492
147.60954 406.08521 47.673828
153.28697 406.08521 47.673828
158.96417 406.08521 47.673828
164.6416 406.08521 47.673828
170.3188 406.08521 47.673828
175.99602 406.08521 47.673828
183.41275 388.71899 73.979492
189.1443 388.71899 73.979492
194.87608 388.71899 73.979492
200.60764 388.71899 73.979492
206.33919 388.71899 73.979492
212.07098 388.71899 73.979492
217.80254 388.71899 73.979492
223.53432 388.71899 73.979492
229.26587 388.71899 73.979492
237.22592 371.35291 100.28516
243.01205 371.35291 100.28516
-63.646023 366.02686 98.024414
-57.860001 366.02686 98.024414
-52.073982 366.02686 98.024414
-46.750835 347.48706 126.00464
-41.299816 329.50928 153.13696
-35.399826 329.50928 153.13696
-29.499834 329.50928 153.13696
-23.599844 329.50928 153.13696
-17.878695 310.40771 181.96533
-11.919207 310.40771 181.96533
-5.9596033 310.40771 181.96533
0 310.40771 181.96533
5.9594893 310.40771 181.96533
11.919207 310.40771 181.96533
18.057533 291.30615 210.79321
24.076866 291.30615 210.79321
30.402802 271.64282 240.46924
36.483269 271.64282 240.46924
42.563965 271.64282 240.46924
95.619835 417.71338 20.019043
101.24444 417.71338 20.019043
106.86926 417.71338 20.019043
113.54587 400.85913 45.455322
119.22308 400.85913 45.455322
126.09628 383.44287 71.739746
131.82784 383.44287 71.739746
137.55962 383.44287 71.739746
143.29117 383.44287 71.739746
149.02272 383.44287 71.739746
154.75452 383.44287 71.739746
160.48607 383.44287 71.739746
166.21785 383.44287 71.739746
170.3188 400.85913 45.455322
175.99602 400.85913 45.455322
183.41275 383.44287 71.739746
189.1443 383.44287 71.739746
194.87608 383.44287 71.739746
200.60764 383.44287 71.739746
206.33919 383.44287 71.739746
212.07098 383.44287 71.739746
217.80254 383.44287 71.739746
223.53432 383.44287 71.739746
229.26587 383.44287 71.739746
234.99742 383.44287 71.739746
243.01205 366.02686 98.024414
251.28595 347.48706 126.00464
257.12994 347.48706 126.00464
-63.646023 360.70093 95.763672
-57.860001 360.70093 95.763672
-52.073982 360.70093 95.763672
-46.750835 342.10791 123.72119
-40.907066 342.10791 123.72119
-35.399826 324.07837 150.83154
-29.499834 324.07837 150.83154
-23.599844 324.07837 150.83154
-17.878695 304.92188 179.63672
-11.919207 304.92188 179.63672
-5.9596033 304.92188 179.63672
0 285.7655 208.44141
5.9594893 304.92188 179.63672
11.919207 304.92188 179.63672
18.057533 285.7655 208.44141
24.076866 285.7655 208.44141
30.095968 285.7655 208.44141
36.483269 266.04565 238.09326
42.563965 266.04565 238.09326
107.86867 395.6333 43.237061
113.54587 395.6333 43.237061
119.22308 395.6333 43.237061
126.09628 378.16699 69.500488
131.82784 378.16699 69.500488
137.55962 378.16699 69.500488
143.29117 378.16699 69.500488
149.02272 378.16699 69.500488
154.75452 378.16699 69.500488
160.48607 378.16699 69.500488
166.21785 378.16699 69.500488
171.9494 378.16699 69.500488
177.68095 378.16699 69.500488
183.41275 378.16699 69.500488
189.1443 378.16699 69.500488
194.87608 378.16699 69.500488
200.60764 378.16699 69.500488
206.33919 378.16699 69.500488
212.07098 378.16699 69.500488
217.80254 378.16699 69.500488
223.53432 378.16699 69.500488
229.26587 378.16699 69.500488
234.99742 378.16699 69.500488
243.01205 360.70093 95.763672
248.79796 360.70093 95.763672
257.12994 342.10791 123.72119
262.97372 342.10791 123.72119
-57.860001 355.37476 93.502686
-52.073982 355.37476 93.502686
-46.750835 336.72852 121.43799
-40.907066 336.72852 121.43799
-35.399826 318.64734 148.52637
-29.499834 318.64734 148.52637
-23.599844 318.64734 148.52637
-17.878695 299.43604 177.30811
-11.919207 299.43604 177.30811
-5.9596033 299.43604 177.30811
0 280.22461 206.0896
5.9594893 299.43604 177.30811
11.919207 299.43604 177.30811
18.057533 280.22461 206.0896
24.076866 280.22461 206.0896
30.095968 280.22461 206.0896
36.483269 260.44836 235.71753
42.563965 260.44836 235.71753
113.54587 390.40723 41.018799
119.22308 390.40723 41.018799
126.09628 372.89099 67.260742
131.82784 372.89099 67.260742
137.55962 372.89099 67.260742
143.29117 372.89099 67.260742
149.02272 372.89099 67.260742
154.75452 372.89099 67.260742
160.48607 372.89099 67.260742
166.21785 372.89099 67.260742
171.9494 372.89099 67.260742
177.68095 372.89099 67.260742
183.41275 372.89099 67.260742
189.1443 372.89099 67.260742
194.87608 372.89099 67.260742
200.60764 372.89099 67.260742
206.33919 372.89099 67.260742
212.07098 372.89099 67.260742
217.80254 372.89099 67.260742
223.53432 372.89099 67.260742
229.26587 372.89099 67.260742
234.99742 372.89099 67.260742
240.72922 372.89099 67.260742
248.79796 355.37476 93.502686
257.12994 336.72852 121.43799
262.97372 336.72852 121.43799
-58.438602 331.34924 119.15454
-52.594719 331.34924 119.15454
-46.750835 331.34924 119.15454
-40.907066 331.34924 119.15454
-35.399826 313.21655 146.22095
-29.499834 313.21655 146.22095
-23.599844 313.21655 146.22095
-17.878695 293.95032 174.97949
-11.919207 293.95032 174.97949
-5.9596033 293.95032 174.97949
0 274.68408 203.73779
6.0191016 274.68408 203.73779
12.038433 274.68408 203.73779
18.057533 274.68408 203.73779
24.076866 274.68408 203.73779
30.095968 274.68408 203.73779
36.115067 274.68408 203.73779
42.134399 274.68408 203.73779
48.153503 274.68408 203.73779
131.82784 367.61499 65.02124
137.55962 367.61499 65.02124
143.29117 367.61499 65.02124
149.02272 367.61499 65.02124
154.75452 367.61499 65.02124
160.48607 367.61499 65.02124
166.21785 367.61499 65.02124
171.9494 367.61499 65.02124
177.68095 367.61499 65.02124
183.41275 367.61499 65.02124
189.1443 367.61499 65.02124
194.87608 367.61499 65.02124
200.60764 367.61499 65.02124
206.33919 367.61499 65.02124
212.07098 367.61499 65.02124
217.80254 367.61499 65.02124
223.53432 367.61499 65.02124
229.26587 367.61499 65.02124
234.99742 367.61499 65.02124
240.72922 367.61499 65.02124
248.79796 350.04883 91.241943
254.58409 350.04883 91.241943
262.97372 331.34924 119.15454
-58.438602 325.96997 116.87109
-52.594719 325.96997 116.87109
-46.750835 325.96997 116.87109
-40.907066 325.96997 116.87109
-35.399826 307.78552 143.91577
-29.499834 307.78552 143.91577
-23.599844 307.78552 143.91577
-17.878695 288.46436 172.65088
-11.919207 288.46436 172.65088
-5.9596033 288.46436 172.65088
0 269.14331 201.38574
6.0191016 269.14331 201.38574
12.038433 269.14331 201.38574
18.057533 269.14331 201.38574
24.076866 269.14331 201.38574
30.095968 269.14331 201.38574
36.115067 269.14331 201.38574
42.134399 269.14331 201.38574
48.153503 269.14331 201.38574
137.55962 362.33899 62.781738
143.29117 362.33899 62.781738
149.02272 362.33899 62.781738
154.75452 362.33899 62.781738
160.48607 362.33899 62.781738
166.21785 362.33899 62.781738
171.9494 362.33899 62.781738
177.68095 362.33899 62.781738
183.41275 362.33899 62.781738
189.1443 362.33899 62.781738
194.87608 362.33899 62.781738
200.60764 362.33899 62.781738
206.33919 362.33899 62.781738
212.07098 362.33899 62.781738
217.80254 362.33899 62.781738
223.53432 362.33899 62.781738
229.26587 362.33899 62.781738
234.99742 362.33899 62.781738
240.72922 362.33899 62.781738
248.79796 344.72266 88.981201
254.58409 344.72266 88.981201
262.97372 325.96997 116.87109
-58.438602 320.59058 114.58789
-52.594719 320.59058 114.58789
-46.750835 320.59058 114.58789
-40.907066 320.59058 114.58789
-35.399826 302.35461 141.61035
-29.499834 302.35461 141.61035
-23.599844 302.35461 141.61035
-17.878695 282.97864 170.32227
-11.919207 282.97864 170.32227
-6.0192165 263.60266 199.03394
0 263.60266 199.03394
6.0191016 263.60266 199.03394
12.038433 263.60266 199.03394
18.057533 263.60266 199.03394
24.076866 263.60266 199.03394
30.095968 263.60266 199.03394
36.115067 263.60266 199.03394
41.717106 282.97864 170.32227
47.676598 282.97864 170.32227
137.55962 357.06299 60.542236
143.29117 357.06299 60.542236
149.02272 357.06299 60.542236
154.75452 357.06299 60.542236
160.48607 357.06299 60.542236
166.21785 357.06299 60.542236
171.9494 357.06299 60.542236
177.68095 357.06299 60.542236
183.41275 357.06299 60.542236
189.1443 357.06299 60.542236
194.87608 357.06299 60.542236
200.60764 357.06299 60.542236
206.33919 357.06299 60.542236
212.07098 357.06299 60.542236
217.80254 357.06299 60.542236
223.53432 357.06299 60.542236
229.26587 357.06299 60.542236
234.99742 357.06299 60.542236
240.72922 357.06299 60.542236
248.79796 339.39673 86.720459
252.19257 357.06299 60.542236
257.9241 357.06299 60.542236
263.65567 357.06299 60.542236
-58.438602 315.2113 112.30444
-52.594719 315.2113 112.30444
-46.750835 315.2113 112.30444
-40.907066 315.2113 112.30444
-35.399826 296.92358 139.30518
-29.499834 296.92358 139.30518
-23.599844 296.92358 139.30518
-17.878695 277.4928 167.99365
-11.919207 277.4928 167.99365
-5.9596033 277.4928 167.99365
0 277.4928 167.99365
6.0191016 258.06189 196.68188
12.038433 258.06189 196.68188
18.057533 258.06189 196.68188
24.076866 258.06189 196.68188
30.095968 258.06189 196.68188
36.115067 258.06189 196.68188
41.717106 277.4928 167.99365
47.676598 277.4928 167.99365
137.55962 351.78687 58.302734
143.29117 351.78687 58.302734
149.02272 351.78687 58.302734
154.75452 351.78687 58.302734
160.48607 351.78687 58.302734
166.21785 351.78687 58.302734
171.9494 351.78687 58.302734
177.68095 351.78687 58.302734
183.41275 351.78687 58.302734
189.1443 351.78687 58.302734
194.87608 351.78687 58.302734
200.60764 351.78687 58.302734
206.33919 351.78687 58.302734
212.07098 351.78687 58.302734
217.80254 351.78687 58.302734
223.53432 351.78687 58.302734
229.26587 351.78687 58.302734
234.99742 351.78687 58.302734
240.72922 351.78687 58.302734
248.79796 334.07056 84.459717
252.19257 351.78687 58.302734
257.9241 351.78687 58.302734
263.65567 351.78687 58.302734
-58.438602 309.83203 110.021
-52.594719 309.83203 110.021
-46.750835 309.83203 110.021
-41.299816 291.49268 136.99976
-35.399826 291.49268 136.99976
-29.499834 291.49268 136.99976
-23.599844 291.49268 136.99976
-17.878695 272.00708 165.66504
-11.919207 272.00708 165.66504
-5.9596033 272.00708 165.66504
0 272.00708 165.66504
5.9594893 272.00708 165.66504
11.919207 272.00708 165.66504
17.878695 272.00708 165.66504
24.076866 252.52124 194.33008
29.797901 272.00708 165.66504
35.757389 272.00708 165.66504
41.717106 272.00708 165.66504
47.676598 272.00708 165.66504
137.55962 346.51099 56.063232
143.29117 346.51099 56.063232
149.02272 346.51099 56.063232
154.75452 346.51099 56.063232
160.48607 346.51099 56.063232
166.21785 346.51099 56.063232
171.9494 346.51099 56.063232
177.68095 346.51099 56.063232
183.41275 346.51099 56.063232
189.1443 346.51099 56.063232
194.87608 346.51099 56.063232
200.60764 346.51099 56.063232
206.33919 346.51099 56.063232
212.07098 346.51099 56.063232
217.80254 346.51099 56.063232
223.53432 346.51099 56.063232
229.26587 346.51099 56.063232
234.99742 346.51099 56.063232
243.01205 328.74463 82.198975
248.79796 328.74463 82.198975
252.19257 346.51099 56.063232
257.9241 346.51099 56.063232
263.65567 346.51099 56.063232
-58.438602 304.45264 107.73755
-52.594719 304.45264 107.73755
-46.750835 304.45264 107.73755
-40.907066 304.45264 107.73755
-35.063183 304.45264 107.73755
-29.499834 286.06177 134.69458
-23.599844 286.06177 134.69458
-17.878695 266.52112 163.33643
-11.919207 266.52112 163.33643
-5.9596033 266.52112 163.33643
0 266.52112 163.33643
5.9594893 266.52112 163.33643
11.919207 266.52112 163.33643
17.878695 266.52112 163.33643
24.076866 246.98047 191.97827
29.797901 266.52112 163.33643
35.757389 266.52112 163.33643
41.717106 266.52112 163.33643
47.676598 266.52112 163.33643
144.65001 323.41846 79.938232
149.02272 341.23499 53.82373
154.75452 341.23499 53.82373
160.48607 341.23499 53.82373
166.21785 341.23499 53.82373
171.9494 341.23499 53.82373
177.68095 341.23499 53.82373
183.41275 341.23499 53.82373
189.1443 341.23499 53.82373
194.87608 341.23499 53.82373
200.60764 341.23499 53.82373
206.33919 341.23499 53.82373
212.07098 341.23499 53.82373
217.80254 341.23499 53.82373
223.53432 341.23499 53.82373
229.26587 341.23499 53.82373
234.99742 341.23499 53.82373
243.01205 323.41846 79.938232
248.79796 323.41846 79.938232
252.19257 341.23499 53.82373
257.9241 341.23499 53.82373
268.81747 304.45264 107.73755
-52.594719 299.07349 105.45435
-46.750835 299.07349 105.45435
-40.907066 299.07349 105.45435
-35.063183 299.07349 105.45435
-29.499834 280.63086 132.38916
-23.599844 280.63086 132.38916
-17.878695 261.0354 161.00781
-11.919207 261.0354 161.00781
-5.9596033 261.0354 161.00781
0 261.0354 161.00781
5.9594893 261.0354 161.00781
11.919207 261.0354 161.00781
17.878695 261.0354 161.00781
24.322334 221.26831 219.08643
30.402802 221.26831 219.08643
36.483269 221.26831 219.08643
42.993538 201.09644 248.54688
49.135365 201.09644 248.54688
144.65001 318.09253 77.67749
149.02272 335.95898 51.583984
154.75452 335.95898 51.583984
160.48607 335.95898 51.583984
166.21785 335.95898 51.583984
171.9494 335.95898 51.583984
177.68095 335.95898 51.583984
183.41275 335.95898 51.583984
189.1443 335.95898 51.583984
194.87608 335.95898 51.583984
200.60764 335.95898 51.583984
206.33919 335.95898 51.583984
212.07098 335.95898 51.583984
217.80254 335.95898 51.583984
223.53432 335.95898 51.583984
229.26587 335.95898 51.583984
234.99742 335.95898 51.583984
240.72922 335.95898 51.583984
248.79796 318.09253 77.67749
254.58409 318.09253 77.67749
260.37 318.09253 77.67749
266.15591 318.09253 77.67749
271.94205 318.09253 77.67749
-47.199688 275.19983 130.08398
-41.299816 275.19983 130.08398
-35.399826 275.19983 130.08398
-29.499834 275.19983 130.08398
-23.599844 275.19983 130.08398
-17.878695 255.54944 158.6792
-11.919207 255.54944 158.6792
-5.9596033 255.54944 158.6792
0 255.54944 158.6792
5.9594893 255.54944 158.6792
11.919207 255.54944 158.6792
17.878695 255.54944 158.6792
24.322334 215.6709 216.71045
30.402802 215.6709 216.71045
36.483269 215.6709 216.71045
42.993538 195.44287 246.14697
49.135365 195.44287 246.14697
144.65001 312.76648 75.416748
149.02272 330.68286 49.344482
154.75452 330.68286 49.344482
160.48607 330.68286 49.344482
166.21785 330.68286 49.344482
171.9494 330.68286 49.344482
177.68095 330.68286 49.344482
183.41275 330.68286 49.344482
189.1443 330.68286 49.344482
194.87608 330.68286 49.344482
200.60764 330.68286 49.344482
206.33919 330.68286 49.344482
212.07098 330.68286 49.344482
217.80254 330.68286 49.344482
223.53432 330.68286 49.344482
229.26587 330.68286 49.344482
234.99742 330.68286 49.344482
240.72922 330.68286 49.344482
248.79796 312.76648 75.416748
254.58409 312.76648 75.416748
260.37 312.76648 75.416748
266.15591 312.76648 75.416748
271.94205 312.76648 75.416748
-47.199688 269.76904 127.77856
-41.299816 269.76904 127.77856
-35.399826 269.76904 127.77856
-29.499834 269.76904 127.77856
-23.599844 269.76904 127.77856
-17.878695 250.06372 156.35083
-11.919207 250.06372 156.35083
-5.9596033 250.06372 156.35083
0 250.06372 156.35083
5.9594893 250.06372 156.35083
11.919207 250.06372 156.35083
17.878695 250.06372 156.35083
23.838413 250.06372 156.35083
30.402802 210.07397 214.33472
36.483269 210.07397 214.33472
42.993538 189.78918 243.74707
144.65001 307.44043 73.156006
150.43591 307.44043 73.156006
156.22206 307.44043 73.156006
160.48607 325.40698 47.10498
166.21785 325.40698 47.10498
171.9494 325.40698 47.10498
177.68095 325.40698 47.10498
183.41275 325.40698 47.10498
189.1443 325.40698 47.10498
194.87608 325.40698 47.10498
200.60764 325.40698 47.10498
206.33919 325.40698 47.10498
212.07098 325.40698 47.10498
217.80254 325.40698 47.10498
223.53432 325.40698 47.10498
229.26587 325.40698 47.10498
234.99742 325.40698 47.10498
243.01205 307.44043 73.156006
248.79796 307.44043 73.156006
257.12994 288.31494 100.88745
262.97372 288.31494 100.88745
268.81747 288.31494 100.88745
274.66147 288.31494 100.88745
-47.199688 264.33789 125.47339
-41.299816 264.33789 125.47339
-35.399826 264.33789 125.47339
-29.499834 264.33789 125.47339
-23.599844 264.33789 125.47339
-17.878695 244.57788 154.02197
-11.919207 244.57788 154.02197
-5.9596033 244.57788 154.02197
0 244.57788 154.02197
5.9594893 244.57788 154.02197
11.919207 244.57788 154.02197
17.878695 244.57788 154.02197
23.838413 244.57788 154.02197
30.402802 204.47656 211.95898
36.851467 184.1355 241.34717
42.993538 184.1355 241.34717
143.29117 320.13086 44.865479
149.02272 320.13086 44.865479
154.75452 320.13086 44.865479
160.48607 320.13086 44.865479
166.21785 320.13086 44.865479
171.9494 320.13086 44.865479
177.68095 320.13086 44.865479
183.41275 320.13086 44.865479
189.1443 320.13086 44.865479
194.87608 320.13086 44.865479
200.60764 320.13086 44.865479
206.33919 320.13086 44.865479
212.07098 320.13086 44.865479
217.80254 320.13086 44.865479
223.53432 320.13086 44.865479
229.26587 320.13086 44.865479
234.99742 320.13086 44.865479
240.72922 320.13086 44.865479
248.79796 302.1145 70.89502
254.58409 302.1145 70.89502
260.37 302.1145 70.89502
268.81747 282.93555 98.604004
274.66147 282.93555 98.604004
-47.676598 239.09204 151.6936
-41.299816 258.9071 123.16797
-35.399826 258.9071 123.16797
-29.499834 258.9071 123.16797
-23.599844 258.9071 123.16797
-17.878695 239.09204 151.6936
-11.919207 239.09204 151.6936
-5.9596033 239.09204 151.6936
0 239.09204 151.6936
5.9594893 239.09204 151.6936
11.919207 239.09204 151.6936
17.878695 239.09204 151.6936
23.838413 239.09204 151.6936
30.402802 198.87952 209.58301
36.851467 178.48193 238.94751
42.993538 178.48193 238.94751
49.640327 157.50122 269.15063
143.29117 314.85498 42.625977
149.02272 314.85498 42.625977
154.75452 314.85498 42.625977
160.48607 314.85498 42.625977
166.21785 314.85498 42.625977
171.9494 314.85498 42.625977
177.68095 314.85498 42.625977
183.41275 314.85498 42.625977
189.1443 314.85498 42.625977
194.87608 314.85498 42.625977
200.60764 314.85498 42.625977
206.33919 314.85498 42.625977
212.07098 314.85498 42.625977
217.80254 314.85498 42.625977
223.53432 314.85498 42.625977
229.26587 314.85498 42.625977
234.99742 314.85498 42.625977
240.72922 314.85498 42.625977
248.79796 296.78857 68.634277
254.58409 296.78857 68.634277
260.37 296.78857 68.634277
268.81747 277.5564 96.320801
274.66147 277.5564 96.320801
-47.199688 253.47607 120.86279
-41.299816 253.47607 120.86279
-35.399826 253.47607 120.86279
-29.499834 253.47607 120.86279
-23.599844 253.47607 120.86279
-17.878695 233.6062 149.36499
-11.919207 233.6062 149.36499
-6.0192165 213.73633 177.86694
0 233.6062 149.36499
5.9594893 233.6062 149.36499
11.919207 233.6062 149.36499
17.878695 233.6062 149.36499
23.838413 233.6062 149.36499
30.402802 193.28223 207.20703
36.483269 193.28223 207.20703
42.993538 172.82812 236.54761
49.640327 151.78955 266.72607
149.02272 309.57886 40.386475
154.75452 309.57886 40.386475
160.48607 309.57886 40.386475
166.21785 309.57886 40.386475
171.9494 309.57886 40.386475
177.68095 309.57886 40.386475
183.41275 309.57886 40.386475
189.1443 309.57886 40.386475
194.87608 309.57886 40.386475
200.60764 309.57886 40.386475
206.33919 309.57886 40.386475
212.07098 309.57886 40.386475
217.80254 309.57886 40.386475
223.53432 309.57886 40.386475
229.26587 309.57886 40.386475
234.99742 309.57886 40.386475
240.72922 309.57886 40.386475
248.79796 291.4624 66.373535
254.58409 291.4624 66.373535
260.37 291.4624 66.373535
268.81747 272.177 94.037354
274.66147 272.177 94.037354
280.50525 272.177 94.037354
-47.199688 248.04504 118.55737
-41.299816 248.04504 118.55737
-35.757504 228.12036 147.03638
-29.499834 248.04504 118.55737
-23.599844 248.04504 118.55737
-17.878695 228.12036 147.03638
-11.919207 228.12036 147.03638
-6.0192165 208.19556 175.51514
0 208.19556 175.51514
6.0191016 208.19556 175.51514
12.038433 208.19556 175.51514
18.057533 208.19556 175.51514
24.076866 208.19556 175.51514
30.402802 187.68506 204.8313
36.483269 187.68506 204.8313
42.563965 187.68506 204.8313
49.135365 167.17432 234.14771
154.75452 304.30286 38.146973
160.48607 304.30286 38.146973
166.21785 304.30286 38.146973
171.9494 304.30286 38.146973
177.68095 304.30286 38.146973
183.41275 304.30286 38.146973
189.1443 304.30286 38.146973
194.87608 304.30286 38.146973
200.60764 304.30286 38.146973
206.33919 304.30286 38.146973
212.07098 304.30286 38.146973
217.80254 304.30286 38.146973
223.53432 304.30286 38.146973
229.26587 304.30286 38.146973
234.99742 304.30286 38.146973
240.72922 304.30286 38.146973
248.79796 286.13623 64.112793
254.58409 286.13623 64.112793
260.37 286.13623 64.112793
268.81747 266.79761 91.753906
274.66147 266.79761 91.753906
280.50525 266.79761 91.753906
-47.676598 222.63452 144.70776
-41.717106 222.63452 144.70776
-35.757504 222.63452 144.70776
-29.499834 242.61426 116.2522
-23.599844 242.61426 116.2522
-18.057533 202.65503 173.16309
-12.038433 202.65503 173.16309
-6.0192165 202.65503 173.16309
0 202.65503 173.16309
6.0191016 202.65503 173.16309
12.038433 202.65503 173.16309
18.057533 202.65503 173.16309
24.076866 202.65503 173.16309
30.402802 182.08789 202.45532
36.483269 182.08789 202.45532
42.563965 182.08789 202.45532
49.135365 161.52075 231.7478
160.48607 299.02686 35.907227
166.21785 299.02686 35.907227
171.9494 299.02686 35.907227
177.68095 299.02686 35.907227
183.41275 299.02686 35.907227
189.1443 299.02686 35.907227
194.87608 299.02686 35.907227
200.60764 299.02686 35.907227
206.33919 299.02686 35.907227
212.07098 299.02686 35.907227
217.80254 299.02686 35.907227
223.53432 299.02686 35.907227
229.26587 299.02686 35.907227
234.99742 299.02686 35.907227
240.72922 299.02686 35.907227
248.79796 280.8103 61.852051
254.58409 280.8103 61.852051
260.37 280.8103 61.852051
268.81747 261.41833 89.470703
274.66147 261.41833 89.470703
280.50525 261.41833 89.470703
-47.676598 217.14868 142.37915
-41.717106 217.14868 142.37915
-35.757504 217.14868 142.37915
-29.499834 237.18311 113.94678
-23.599844 237.18311 113.94678
-18.057533 197.11426 170.81128
-12.038433 197.11426 170.81128
-6.0192165 197.11426 170.81128
0 197.11426 170.81128
6.0191016 197.11426 170.81128
12.038433 197.11426 170.81128
18.057533 197.11426 170.81128
24.076866 197.11426 170.81128
30.095968 197.11426 170.81128
36.483269 176.4906 200.07959
42.563965 176.4906 200.07959
49.135365 155.86694 229.3479
158.96417 312.01758 7.7443848
164.6416 312.01758 7.7443848
171.9494 293.75073 33.667725
177.68095 293.75073 33.667725
183.41275 293.75073 33.667725
189.1443 293.75073 33.667725
194.87608 293.75073 33.667725
200.60764 293.75073 33.667725
206.33919 293.75073 33.667725
212.07098 293.75073 33.667725
217.80254 293.75073 33.667725
223.53432 293.75073 33.667725
229.26587 293.75073 33.667725
234.99742 293.75073 33.667725
243.01205 275.48413 59.591309
248.79796 275.48413 59.591309
254.58409 275.48413 59.591309
260.37 275.48413 59.591309
268.81747 256.03894 87.187256
271.94205 275.48413 59.591309
275.11899 293.75073 33.667725
280.8508 293.75073 33.667725
-41.717106 211.66296 140.05054
-35.757504 211.66296 140.05054
-29.797901 211.66296 140.05054
-23.838299 211.66296 140.05054
-18.057533 191.57361 168.45947
-12.038433 191.57361 168.45947
-6.0192165 191.57361 168.45947
0 191.57361 168.45947
6.0191016 191.57361 168.45947
12.038433 191.57361 168.45947
18.057533 191.57361 168.45947
24.076866 191.57361 168.45947
30.095968 191.57361 168.45947
36.483269 170.89355 197.70361
42.563965 170.89355 197.70361
48.644436 170.89355 197.70361
158.96417 306.7915 5.526123
164.6416 306.7915 5.526123
171.9494 288.47485 31.428223
177.68095 288.47485 31.428223
183.41275 288.47485 31.428223
189.1443 288.47485 31.428223
194.87608 288.47485 31.428223
200.60764 288.47485 31.428223
206.33919 288.47485 31.428223
212.07098 288.47485 31.428223
217.80254 288.47485 31.428223
223.53432 288.47485 31.428223
229.26587 288.47485 31.428223
237.22592 270.1582 57.330566
243.01205 270.1582 57.330566
248.79796 270.1582 57.330566
254.58409 270.1582 57.330566
260.37 270.1582 57.330566
268.81747 250.65967 84.903809
271.94205 270.1582 57.330566
275.11899 288.47485 31.428223
280.8508 288.47485 31.428223
-41.717106 206.177 137.72192
-35.757504 206.177 137.72192
-29.797901 206.177 137.72192
-23.838299 206.177 137.72192
-18.057533 186.03284 166.10742
-12.038433 186.03284 166.10742
-6.0192165 186.03284 166.10742
0 186.03284 166.10742
6.0191016 186.03284 166.10742
12.161167 165.29639 195.32764
18.241634 165.29639 195.32764
24.322334 165.29639 195.32764
30.402802 165.29639 195.32764
36.483269 165.29639 195.32764
42.993538 144.55981 224.54834
49.135365 144.55981 224.54834
158.96417 301.56555 3.3078613
164.6416 301.56555 3.3078613
171.9494 283.19885 29.188721
177.68095 283.19885 29.188721
183.41275 283.19885 29.188721
189.1443 283.19885 29.188721
194.87608 283.19885 29.188721
200.60764 283.19885 29.188721
206.33919 283.19885 29.188721
212.07098 283.19885 29.188721
219.86795 264.83203 55.069824
225.6541 264.83203 55.069824
231.44 264.83203 55.069824
237.22592 264.83203 55.069824
243.01205 264.83203 55.069824
248.79796 264.83203 55.069824
254.58409 264.83203 55.069824
260.37 264.83203 55.069824
268.81747 245.2804 82.620361
271.94205 264.83203 55.069824
275.11899 283.19885 29.188721
280.8508 283.19885 29.188721
-42.134399 180.49219 163.75562
-36.115185 180.49219 163.75562
-29.797901 200.69141 135.39331
-23.838299 200.69141 135.39331
-18.057533 180.49219 163.75562
-12.038433 180.49219 163.75562
-6.0192165 180.49219 163.75562
0 180.49219 163.75562
6.0191016 180.49219 163.75562
12.161167 159.69922 192.9519
18.241634 159.69922 192.9519
24.322334 159.69922 192.9519
30.709635 138.90601 222.14844
36.851467 138.90601 222.14844
43.435375 117.5188 252.1792
171.9494 277.92285 26.949219
177.68095 277.92285 26.949219
183.41275 277.92285 26.949219
189.1443 277.92285 26.949219
194.87608 277.92285 26.949219
200.60764 277.92285 26.949219
206.33919 277.92285 26.949219
212.07098 277.92285 26.949219
217.80254 277.92285 26.949219
225.6541 259.5061 52.809082
231.44 259.5061 52.809082
237.22592 259.5061 52.809082
243.01205 259.5061 52.809082
248.79796 259.5061 52.809082
257.12994 239.90112 80.337158
262.97372 239.90112 80.337158
268.81747 239.90112 80.337158
274.66147 239.90112 80.337158
280.50525 239.90112 80.337158
-49.135365 133.25244 219.74854
-42.563965 154.10181 190.57593
-36.115185 174.95142 161.40381
-29.797901 195.20544 133.0647
-23.838299 195.20544 133.0647
-18.057533 174.95142 161.40381
-12.038433 174.95142 161.40381
-6.0192165 174.95142 161.40381
0 174.95142 161.40381
6.0191016 174.95142 161.40381
12.161167 154.10181 190.57593
18.241634 154.10181 190.57593
24.322334 154.10181 190.57593
30.709635 133.25244 219.74854
36.851467 133.25244 219.74854
43.435375 111.80713 249.75464
177.68095 272.64673 24.709717
183.41275 272.64673 24.709717
189.1443 272.64673 24.709717
194.87608 272.64673 24.709717
200.60764 272.64673 24.709717
206.33919 272.64673 24.709717
212.07098 272.64673 24.709717
217.80254 272.64673 24.709717
223.53432 272.64673 24.709717
231.44 254.17993 50.548096
239.59818 234.52173 78.053711
245.44217 234.52173 78.053711
251.28595 234.52173 78.053711
257.12994 234.52173 78.053711
262.97372 234.52173 78.053711
268.81747 234.52173 78.053711
274.66147 234.52173 78.053711
280.50525 234.52173 78.053711
-49.135365 127.59863 217.34888
-42.993538 127.59863 217.34888
-36.483383 148.50488 188.2002
-30.095968 169.41089 159.05176
-24.076752 169.41089 159.05176
-18.057533 169.41089 159.05176
-12.038433 169.41089 159.05176
-6.0805836 148.50488 188.2002
0 148.50488 188.2002
6.0804672 148.50488 188.2002
12.161167 148.50488 188.2002
18.241634 148.50488 188.2002
24.322334 148.50488 188.2002
30.709635 127.59863 217.34888
36.851467 127.59863 217.34888
43.435375 106.09521 247.33008
177.68095 267.37085 22.470215
183.41275 267.37085 22.470215
189.1443 267.37085 22.470215
194.87608 267.37085 22.470215
200.60764 267.37085 22.470215
206.33919 267.37085 22.470215
212.07098 267.37085 22.470215
217.80254 267.37085 22.470215
223.53432 267.37085 22.470215
229.26587 267.37085 22.470215
237.22592 248.854 48.287354
245.44217 229.14258 75.770264
251.28595 229.14258 75.770264
257.12994 229.14258 75.770264
262.97372 229.14258 75.770264
268.81747 229.14258 75.770264
274.66147 229.14258 75.770264
280.50525 229.14258 75.770264
-49.135365 121.94507 214.94897
-42.993538 121.94507 214.94897
-36.483383 142.90747 185.82422
-30.402802 142.90747 185.82422
-24.322218 142.90747 185.82422
-18.241634 142.90747 185.82422
-12.161167 142.90747 185.82422
-6.0805836 142.90747 185.82422
0 142.90747 185.82422
6.0804672 142.90747 185.82422
12.161167 142.90747 185.82422
18.241634 142.90747 185.82422
24.322334 142.90747 185.82422
30.709635 121.94507 214.94897
37.230186 100.3833 244.90552
43.435375 100.3833 244.90552
183.41275 262.09473 20.230713
189.1443 262.09473 20.230713
194.87608 262.09473 20.230713
200.60764 262.09473 20.230713
206.33919 262.09473 20.230713
212.07098 262.09473 20.230713
217.80254 262.09473 20.230713
223.53432 262.09473 20.230713
229.26587 262.09473 20.230713
237.22592 243.52795 46.026611
245.44217 223.76318 73.486816
251.28595 223.76318 73.486816
257.12994 223.76318 73.486816
262.97372 223.76318 73.486816
271.39838 204.59741 100.11499
274.66147 223.76318 73.486816
280.50525 223.76318 73.486816
-49.135365 116.2915 212.54907
-42.563965 137.31055 183.44849
-36.483383 137.31055 183.44849
-30.402802 137.31055 183.44849
-24.322218 137.31055 183.44849
-18.241634 137.31055 183.44849
-12.161167 137.31055 183.44849
-6.0805836 137.31055 183.44849
0 137.31055 183.44849
6.0804672 137.31055 183.44849
12.161167 137.31055 183.44849
18.241634 137.31055 183.44849
24.322334 137.31055 183.44849
30.709635 116.2915 212.54907
37.230186 94.671875 242.4812
183.41275 256.81885 17.991211
189.1443 256.81885 17.991211
194.87608 256.81885 17.991211
200.60764 256.81885 17.991211
206.33919 256.81885 17.991211
212.07098 256.81885 17.991211
217.80254 256.81885 17.991211
223.53432 256.81885 17.991211
229.26587 256.81885 17.991211
237.22592 238.2019 43.765869
245.44217 218.38403 71.203613
251.28595 218.38403 71.203613
257.12994 218.38403 71.203613
262.97372 218.38403 71.203613
271.39838 199.16663 97.809814
274.66147 218.38403 71.203613
280.50525 218.38403 71.203613
289.09848 199.16663 97.809814
-55.277321 110.6377 210.14917
-48.644436 131.71313 181.07251
-42.563965 131.71313 181.07251
-36.483383 131.71313 181.07251
-30.402802 131.71313 181.07251
-24.322218 131.71313 181.07251
-18.241634 131.71313 181.07251
-12.161167 131.71313 181.07251
-6.0805836 131.71313 181.07251
0 131.71313 181.07251
6.0804672 131.71313 181.07251
12.161167 131.71313 181.07251
18.241634 131.71313 181.07251
24.322334 131.71313 181.07251
30.709635 110.6377 210.14917
37.230186 88.959961 240.05664
43.889488 66.679932 270.79468
189.1443 251.54272 15.751465
194.87608 251.54272 15.751465
200.60764 251.54272 15.751465
206.33919 251.54272 15.751465
212.07098 251.54272 15.751465
217.80254 251.54272 15.751465
223.53432 251.54272 15.751465
229.26587 251.54272 15.751465
237.22592 232.87585 41.505127
245.44217 213.00464 68.920166
251.28595 213.00464 68.920166
257.12994 213.00464 68.920166
265.4985 193.7356 95.504395
271.39838 193.7356 95.504395
277.29849 193.7356 95.504395
283.19836 193.7356 95.504395
289.09848 193.7356 95.504395
-55.277321 104.98413 207.74951
-48.644436 126.11621 178.69678
-42.563965 126.11621 178.69678
-36.483383 126.11621 178.69678
-30.402802 126.11621 178.69678
-24.322218 126.11621 178.69678
-18.241634 126.11621 178.69678
-12.161167 126.11621 178.69678
-6.0805836 126.11621 178.69678
0 126.11621 178.69678
6.0804672 126.11621 178.69678
12.161167 126.11621 178.69678
18.241634 126.11621 178.69678
24.322334 126.11621 178.69678
30.709635 104.98413 207.74951
37.230186 83.248047 237.63208
43.889488 60.908691 268.34473
187.35065 264.98376 -12.220215
193.02808 264.98376 -12.220215
200.60764 246.26685 13.512207
206.33919 246.26685 13.512207
212.07098 246.26685 13.512207
217.80254 246.26685 13.512207
223.53432 246.26685 13.512207
229.26587 246.26685 13.512207
237.22592 227.5498 39.244385
243.01205 227.5498 39.244385
251.28595 207.62549 66.636963
257.12994 207.62549 66.636963
265.4985 188.30469 93.199219
271.39838 188.30469 93.199219
277.29849 188.30469 93.199219
283.19836 188.30469 93.199219
289.09848 188.30469 93.199219
-55.277321 99.330322 205.34961
-48.644436 120.5188 176.3208
-42.563965 120.5188 176.3208
-36.483383 120.5188 176.3208
-30.402802 120.5188 176.3208
-24.322218 120.5188 176.3208
-18.241634 120.5188 176.3208
-12.161167 120.5188 176.3208
-6.0805836 120.5188 176.3208
0 120.5188 176.3208
6.0804672 120.5188 176.3208
12.161167 120.5188 176.3208
18.241634 120.5188 176.3208
24.322334 120.5188 176.3208
30.709635 99.330322 205.34961
36.851467 99.330322 205.34961
43.435375 77.536377 235.20752
187.35065 259.75781 -14.438477
193.02808 259.75781 -14.438477
198.70528 259.75781 -14.438477
206.33919 240.99072 11.272461
212.07098 240.99072 11.272461
217.80254 240.99072 11.272461
223.53432 240.99072 11.272461
229.26587 240.99072 11.272461
237.22592 222.22375 36.983643
243.01205 222.22375 36.983643
251.28595 202.24597 64.353516
257.12994 202.24597 64.353516
265.4985 182.87378 90.893799
271.39838 182.87378 90.893799
277.29849 182.87378 90.893799
283.19836 182.87378 90.893799
289.09848 182.87378 90.893799
-55.277321 93.676758 202.94971
-48.644436 114.92163 173.94507
-42.563965 114.92163 173.94507
-36.483383 114.92163 173.94507
-30.402802 114.92163 173.94507
-24.322218 114.92163 173.94507
-18.241634 114.92163 173.94507
