ply
format ascii 1.0
comment PCL generated
element vertex 1556
property float x
property float y
property float z
element camera 0
property float view_px
property float view_py
property float view_pz
property float x_axisx
property float x_axisy
property float x_axisz
property float y_axisx
property float y_axisy
property float y_axisz
property float z_axisx
property float z_axisy
property float z_axisz
property float focal
property float scalex
property float scaley
property float centerx
property float centery
property int viewportx
property int viewporty
property float k1
property float k2
end_header
22.085073 669.40051 62.758545
27.352001 683.68054 37.31543
32.822319 683.68054 37.31543
38.292843 683.68054 37.31543
44.16993 669.40051 62.758545
49.691303 669.40051 62.758545
55.212467 669.40051 62.758545
60.733631 669.40051 62.758545
66.255005 669.40051 62.758545
71.776169 669.40051 62.758545
77.297546 669.40051 62.758545
82.818703 669.40051 62.758545
88.339859 669.40051 62.758545
93.861237 669.40051 62.758545
99.382401 669.40051 62.758545
104.90378 669.40051 62.758545
110.42493 669.40051 62.758545
115.9461 669.40051 62.758545
121.46747 669.40051 62.758545
126.98864 669.40051 62.758545
133.73033 655.12061 88.201416
139.30234 655.12061 88.201416
144.87434 655.12061 88.201416
151.86678 640.34839 114.52197
158.96417 625.57605 140.84204
164.6416 625.57605 140.84204
168.7408 640.34839 114.52197
174.36542 640.34839 114.52197
181.67343 625.57605 140.84204
189.1443 610.31128 168.03979
-177.283 706.3103 -13.914795
-171.91087 706.3103 -13.914795
-166.53865 706.3103 -13.914795
-161.16641 706.3103 -13.914795
-155.79417 706.3103 -13.914795
-150.42194 706.3103 -13.914795
-145.04982 706.3103 -13.914795
-139.67758 706.3103 -13.914795
-134.30534 706.3103 -13.914795
-128.93311 706.3103 -13.914795
-123.56087 706.3103 -13.914795
-118.18874 706.3103 -13.914795
-112.81651 706.3103 -13.914795
-107.44427 706.3103 -13.914795
-101.17258 719.64905 -37.584717
-94.99556 732.98755 -61.254395
-89.718109 732.98755 -61.254395
-84.440552 732.98755 -61.254395
-79.163002 732.98755 -61.254395
-73.885452 732.98755 -61.254395
-68.607895 732.98755 -61.254395
-63.330441 732.98755 -61.254395
-58.573627 719.64905 -37.584717
-53.248734 719.64905 -37.584717
-48.349903 706.3103 -13.914795
-42.977669 706.3103 -13.914795
-37.605534 706.3103 -13.914795
-32.527863 692.47766 10.631592
-27.106535 692.47766 10.631592
-21.685207 692.47766 10.631592
-16.41116 678.64502 35.177979
-11.042537 664.31824 60.601318
-5.5212684 664.31824 60.601318
0 664.31824 60.601318
5.521163 664.31824 60.601318
11.042537 664.31824 60.601318
16.563698 664.31824 60.601318
22.085073 664.31824 60.601318
27.606234 664.31824 60.601318
33.127396 664.31824 60.601318
38.648773 664.31824 60.601318
44.16993 664.31824 60.601318
49.691303 664.31824 60.601318
55.212467 664.31824 60.601318
60.733631 664.31824 60.601318
66.255005 664.31824 60.601318
71.776169 664.31824 60.601318
77.297546 664.31824 60.601318
82.818703 664.31824 60.601318
88.339859 664.31824 60.601318
93.861237 664.31824 60.601318
99.382401 664.31824 60.601318
104.90378 664.31824 60.601318
110.42493 664.31824 60.601318
115.9461 664.31824 60.601318
121.46747 664.31824 60.601318
126.98864 664.31824 60.601318
133.73033 649.99158 86.024414
139.30234 649.99158 86.024414
144.87434 649.99158 86.024414
151.86678 635.1709 112.32422
158.96417 620.35022 138.62378
164.6416 620.35022 138.62378
170.3188 620.35022 138.62378
175.99602 620.35022 138.62378
181.67343 620.35022 138.62378
-177.283 701.36511 -16.013916
-171.91087 701.36511 -16.013916
-166.53865 701.36511 -16.013916
-161.16641 701.36511 -16.013916
-155.79417 701.36511 -16.013916
-150.42194 701.36511 -16.013916
-145.04982 701.36511 -16.013916
-139.67758 701.36511 -16.013916
-134.30534 701.36511 -16.013916
-128.93311 701.36511 -16.013916
-123.56087 701.36511 -16.013916
-118.18874 701.36511 -16.013916
-111.82236 714.74731 -39.665283
-106.49747 714.74731 -39.665283
-100.27312 728.12964 -63.31665
-94.99556 728.12964 -63.31665
-89.718109 728.12964 -63.31665
-84.440552 728.12964 -63.31665
-79.163002 728.12964 -63.31665
-73.885452 728.12964 -63.31665
-68.607895 728.12964 -63.31665
-63.330441 728.12964 -63.31665
-58.573627 714.74731 -39.665283
-53.248734 714.74731 -39.665283
-48.349903 701.36511 -16.013916
-42.977669 701.36511 -16.013916
-37.605534 701.36511 -16.013916
-32.527863 687.4873 8.5134277
-27.106535 687.4873 8.5134277
-21.685207 687.4873 8.5134277
-16.41116 673.6095 33.040527
-11.042537 659.23584 58.443848
-5.5212684 659.23584 58.443848
0 659.23584 58.443848
5.521163 659.23584 58.443848
11.042537 659.23584 58.443848
16.563698 659.23584 58.443848
22.085073 659.23584 58.443848
27.860468 644.86243 83.847168
33.127396 659.23584 58.443848
38.648773 659.23584 58.443848
44.16993 659.23584 58.443848
49.691303 659.23584 58.443848
55.212467 659.23584 58.443848
60.733631 659.23584 58.443848
66.255005 659.23584 58.443848
71.776169 659.23584 58.443848
77.297546 659.23584 58.443848
82.818703 659.23584 58.443848
88.339859 659.23584 58.443848
93.861237 659.23584 58.443848
99.382401 659.23584 58.443848
104.90378 659.23584 58.443848
110.42493 659.23584 58.443848
115.9461 659.23584 58.443848
122.58611 644.86243 83.847168
128.15811 644.86243 83.847168
133.73033 644.86243 83.847168
140.61734 629.99329 110.12646
146.24194 629.99329 110.12646
151.86678 629.99329 110.12646
158.96417 615.12415 136.40552
164.6416 615.12415 136.40552
170.3188 615.12415 136.40552
175.99602 615.12415 136.40552
181.67343 615.12415 136.40552
187.35065 615.12415 136.40552
-177.283 696.42004 -18.113037
-171.91087 696.42004 -18.113037
-166.53865 696.42004 -18.113037
-161.16641 696.42004 -18.113037
-155.79417 696.42004 -18.113037
-150.42194 696.42004 -18.113037
-145.04982 696.42004 -18.113037
-139.67758 696.42004 -18.113037
-134.30534 696.42004 -18.113037
-127.79694 709.84595 -41.74585
-122.47205 709.84595 -41.74585
-117.14725 709.84595 -41.74585
-111.82236 709.84595 -41.74585
-106.49747 709.84595 -41.74585
-100.27312 723.27161 -65.378662
-94.99556 723.27161 -65.378662
-89.718109 723.27161 -65.378662
-84.440552 723.27161 -65.378662
-79.163002 723.27161 -65.378662
-73.885452 723.27161 -65.378662
-68.607895 723.27161 -65.378662
-63.330441 723.27161 -65.378662
-58.573627 709.84595 -41.74585
-53.248734 709.84595 -41.74585
-48.349903 696.42004 -18.113037
-42.977669 696.42004 -18.113037
-37.605534 696.42004 -18.113037
-32.527863 682.49707 6.3950195
-27.106535 682.49707 6.3950195
-21.685207 682.49707 6.3950195
-16.41116 668.57397 30.903076
-11.042537 654.15356 56.286621
-5.5212684 654.15356 56.286621
0 654.15356 56.286621
5.5720086 639.73328 81.669922
11.14423 639.73328 81.669922
16.716238 639.73328 81.669922
22.28846 639.73328 81.669922
27.860468 639.73328 81.669922
33.127396 654.15356 56.286621
38.648773 654.15356 56.286621
44.576702 639.73328 81.669922
50.148926 639.73328 81.669922
55.720936 639.73328 81.669922
61.292946 639.73328 81.669922
66.255005 654.15356 56.286621
71.776169 654.15356 56.286621
78.009399 639.73328 81.669922
83.581406 639.73328 81.669922
89.153404 639.73328 81.669922
94.725632 639.73328 81.669922
100.29764 639.73328 81.669922
105.86987 639.73328 81.669922
111.44187 639.73328 81.669922
117.01388 639.73328 81.669922
122.58611 639.73328 81.669922
128.15811 639.73328 81.669922
134.99274 624.8158 107.92871
140.61734 624.8158 107.92871
146.24194 624.8158 107.92871
153.28697 609.89819 134.18726
158.96417 609.89819 134.18726
164.6416 609.89819 134.18726
170.3188 609.89819 134.18726
175.99602 609.89819 134.18726
181.67343 609.89819 134.18726
-173.48186 677.50659 4.2768555
-166.53865 691.47485 -20.212158
-161.16641 691.47485 -20.212158
-155.79417 691.47485 -20.212158
-150.42194 691.47485 -20.212158
-145.04982 691.47485 -20.212158
-139.67758 691.47485 -20.212158
-134.30534 691.47485 -20.212158
-127.79694 704.94421 -43.82666
-122.47205 704.94421 -43.82666
-117.14725 704.94421 -43.82666
-110.82822 718.41357 -67.440674
-105.55067 718.41357 -67.440674
-100.27312 718.41357 -67.440674
-94.99556 718.41357 -67.440674
-89.718109 718.41357 -67.440674
-84.440552 718.41357 -67.440674
-79.163002 718.41357 -67.440674
-73.885452 718.41357 -67.440674
-68.607895 718.41357 -67.440674
-63.898525 704.94421 -43.82666
-58.573627 704.94421 -43.82666
-53.248734 704.94421 -43.82666
-48.349903 691.47485 -20.212158
-42.977669 691.47485 -20.212158
-37.605534 691.47485 -20.212158
-32.527863 677.50659 4.2768555
-27.106535 677.50659 4.2768555
-21.685207 677.50659 4.2768555
-16.41116 663.53833 28.765625
-11.042537 649.07117 54.12915
-5.5212684 649.07117 54.12915
0 649.07117 54.12915
5.5720086 634.60413 79.492676
11.14423 634.60413 79.492676
16.716238 634.60413 79.492676
22.28846 634.60413 79.492676
28.123468 619.63818 105.73096
33.432476 634.60413 79.492676
39.0047 634.60413 79.492676
44.576702 634.60413 79.492676
50.148926 634.60413 79.492676
55.720936 634.60413 79.492676
61.292946 634.60413 79.492676
66.865166 634.60413 79.492676
72.437172 634.60413 79.492676
78.009399 634.60413 79.492676
83.581406 634.60413 79.492676
89.153404 634.60413 79.492676
94.725632 634.60413 79.492676
100.29764 634.60413 79.492676
105.86987 634.60413 79.492676
111.44187 634.60413 79.492676
117.01388 634.60413 79.492676
122.58611 634.60413 79.492676
128.15811 634.60413 79.492676
134.99274 619.63818 105.73096
140.61734 619.63818 105.73096
147.60954 604.67212 131.96899
153.28697 604.67212 131.96899
158.96417 604.67212 131.96899
164.6416 604.67212 131.96899
170.3188 604.67212 131.96899
175.99602 604.67212 131.96899
183.41275 589.20728 159.08154
-171.91087 686.52979 -22.311035
-166.53865 686.52979 -22.311035
-161.16641 686.52979 -22.311035
-155.79417 686.52979 -22.311035
-150.42194 686.52979 -22.311035
-145.04982 686.52979 -22.311035
-139.67758 686.52979 -22.311035
-133.12184 700.04272 -45.907227
-126.66079 713.55566 -69.50293
-121.38322 713.55566 -69.50293
-116.10578 713.55566 -69.50293
-110.82822 713.55566 -69.50293
-105.55067 713.55566 -69.50293
-100.27312 713.55566 -69.50293
-94.99556 713.55566 -69.50293
-89.718109 713.55566 -69.50293
-84.440552 713.55566 -69.50293
-79.163002 713.55566 -69.50293
-73.885452 713.55566 -69.50293
-68.607895 713.55566 -69.50293
-63.330441 713.55566 -69.50293
-58.052891 713.55566 -69.50293
-53.248734 700.04272 -45.907227
-48.349903 686.52979 -22.311035
-42.977669 686.52979 -22.311035
-37.949188 672.51636 2.1586914
-32.527863 672.51636 2.1586914
-27.106535 672.51636 2.1586914
-21.685207 672.51636 2.1586914
-16.41116 658.50293 26.628174
-11.042537 643.98901 51.971924
-5.5212684 643.98901 51.971924
0 643.98901 51.971924
5.5720086 629.4751 77.315674
11.14423 629.4751 77.315674
16.716238 629.4751 77.315674
22.498859 614.46069 103.5332
28.123468 614.46069 103.5332
33.432476 629.4751 77.315674
39.0047 629.4751 77.315674
44.997505 614.46069 103.5332
50.148926 629.4751 77.315674
55.720936 629.4751 77.315674
61.292946 629.4751 77.315674
66.865166 629.4751 77.315674
72.437172 629.4751 77.315674
78.009399 629.4751 77.315674
83.581406 629.4751 77.315674
89.153404 629.4751 77.315674
94.725632 629.4751 77.315674
100.29764 629.4751 77.315674
105.86987 629.4751 77.315674
111.44187 629.4751 77.315674
117.01388 629.4751 77.315674
122.58611 629.4751 77.315674
129.3679 614.46069 103.5332
134.99274 614.46069 103.5332
140.61734 614.46069 103.5332
147.60954 599.44629 129.75073
153.28697 599.44629 129.75073
158.96417 599.44629 129.75073
164.6416 599.44629 129.75073
170.3188 599.44629 129.75073
175.99602 599.44629 129.75073
181.67343 599.44629 129.75073
-166.53865 681.58447 -24.4104
-161.16641 681.58447 -24.4104
-155.79417 681.58447 -24.4104
-150.42194 681.58447 -24.4104
-145.04982 681.58447 -24.4104
-139.67758 681.58447 -24.4104
-133.12184 695.14111 -47.987793
-126.66079 708.69763 -71.564941
-121.38322 708.69763 -71.564941
-116.10578 708.69763 -71.564941
-110.82822 708.69763 -71.564941
-105.55067 708.69763 -71.564941
-100.27312 708.69763 -71.564941
-94.99556 708.69763 -71.564941
-89.718109 708.69763 -71.564941
-84.440552 708.69763 -71.564941
-79.163002 708.69763 -71.564941
-73.885452 708.69763 -71.564941
-68.607895 708.69763 -71.564941
-63.330441 708.69763 -71.564941
-58.052891 708.69763 -71.564941
-53.248734 695.14111 -47.987793
-47.92384 695.14111 -47.987793
-42.977669 681.58447 -24.4104
-37.605534 681.58447 -24.4104
-32.527863 667.52588 0.040283203
-27.106535 667.52588 0.040283203
-21.685207 667.52588 0.040283203
-16.41116 653.46741 24.490723
-11.042537 638.90649 49.814697
-5.5721149 624.34583 75.138428
0 624.34583 75.138428
5.5720086 624.34583 75.138428
11.24943 609.28308 101.33545
16.874039 609.28308 101.33545
22.498859 609.28308 101.33545
28.123468 609.28308 101.33545
33.748077 609.28308 101.33545
39.372898 609.28308 101.33545
44.997505 609.28308 101.33545
50.622326 609.28308 101.33545
56.246937 609.28308 101.33545
61.871544 609.28308 101.33545
66.865166 624.34583 75.138428
72.437172 624.34583 75.138428
78.009399 624.34583 75.138428
83.581406 624.34583 75.138428
89.153404 624.34583 75.138428
94.725632 624.34583 75.138428
100.29764 624.34583 75.138428
105.86987 624.34583 75.138428
111.44187 624.34583 75.138428
117.01388 624.34583 75.138428
122.58611 624.34583 75.138428
129.3679 609.28308 101.33545
134.99274 609.28308 101.33545
141.93234 594.22021 127.53223
147.60954 594.22021 127.53223
153.28697 594.22021 127.53223
158.96417 594.22021 127.53223
164.6416 594.22021 127.53223
170.3188 594.22021 127.53223
175.99602 594.22021 127.53223
181.67343 594.22021 127.53223
-166.53865 676.6394 -26.509277
-161.16641 676.6394 -26.509277
-155.79417 676.6394 -26.509277
-150.42194 676.6394 -26.509277
-143.77162 690.23962 -50.068359
-138.44673 690.23962 -50.068359
-133.12184 690.23962 -50.068359
-126.66079 703.83972 -73.626953
-121.38322 703.83972 -73.626953
-116.10578 703.83972 -73.626953
-110.82822 703.83972 -73.626953
-106.49747 690.23962 -50.068359
-101.17258 690.23962 -50.068359
-94.99556 703.83972 -73.626953
-89.718109 703.83972 -73.626953
-84.440552 703.83972 -73.626953
-79.163002 703.83972 -73.626953
-73.885452 703.83972 -73.626953
-68.607895 703.83972 -73.626953
-63.330441 703.83972 -73.626953
-58.052891 703.83972 -73.626953
-53.248734 690.23962 -50.068359
-47.92384 690.23962 -50.068359
-42.598946 690.23962 -50.068359
-37.274155 690.23962 -50.068359
-32.527863 662.53564 -2.0778809
-27.106535 662.53564 -2.0778809
-21.685207 662.53564 -2.0778809
-16.41116 648.43188 22.353271
-11.042537 633.82422 47.657227
-5.5721149 619.2168 72.961182
0 619.2168 72.961182
5.6246076 604.10559 99.137695
11.24943 604.10559 99.137695
16.874039 604.10559 99.137695
22.709261 588.99438 125.31396
28.123468 604.10559 99.137695
33.748077 604.10559 99.137695
39.372898 604.10559 99.137695
44.997505 604.10559 99.137695
50.622326 604.10559 99.137695
56.246937 604.10559 99.137695
61.871544 604.10559 99.137695
66.865166 619.2168 72.961182
72.437172 619.2168 72.961182
78.009399 619.2168 72.961182
83.581406 619.2168 72.961182
89.153404 619.2168 72.961182
94.725632 619.2168 72.961182
100.29764 619.2168 72.961182
105.86987 619.2168 72.961182
112.49387 604.10559 99.137695
118.11848 604.10559 99.137695
123.7433 604.10559 99.137695
129.3679 604.10559 99.137695
136.25513 588.99438 125.31396
141.93234 588.99438 125.31396
147.60954 588.99438 125.31396
153.28697 588.99438 125.31396
158.96417 588.99438 125.31396
164.6416 588.99438 125.31396
170.3188 588.99438 125.31396
175.99602 588.99438 125.31396
-166.53865 671.69421 -28.608398
-161.16641 671.69421 -28.608398
-155.79417 671.69421 -28.608398
-150.42194 671.69421 -28.608398
-143.77162 685.33801 -52.148926
-138.44673 685.33801 -52.148926
-134.30534 671.69421 -28.608398
-127.79694 685.33801 -52.148926
-122.47205 685.33801 -52.148926
-117.14725 685.33801 -52.148926
-111.82236 685.33801 -52.148926
-106.49747 685.33801 -52.148926
-101.17258 685.33801 -52.148926
-95.847679 685.33801 -52.148926
-89.718109 698.98157 -75.689209
-84.440552 698.98157 -75.689209
-79.163002 698.98157 -75.689209
-73.885452 698.98157 -75.689209
-68.607895 698.98157 -75.689209
-63.330441 698.98157 -75.689209
-58.052891 698.98157 -75.689209
-53.248734 685.33801 -52.148926
-47.92384 685.33801 -52.148926
-42.598946 685.33801 -52.148926
-37.274155 685.33801 -52.148926
-32.233299 671.69421 -28.608398
-27.106535 657.54529 -4.1962891
-21.685207 657.54529 -4.1962891
-16.41116 643.39624 20.21582
-11.042537 628.74194 45.5
-5.5212684 628.74194 45.5
0 614.08765 70.783936
5.6246076 598.92798 96.939941
11.24943 598.92798 96.939941
16.874039 598.92798 96.939941
22.709261 583.76831 123.0957
28.386467 583.76831 123.0957
33.748077 598.92798 96.939941
39.372898 598.92798 96.939941
45.418304 583.76831 123.0957
50.622326 598.92798 96.939941
56.246937 598.92798 96.939941
61.871544 598.92798 96.939941
66.865166 614.08765 70.783936
72.437172 614.08765 70.783936
78.009399 614.08765 70.783936
83.581406 614.08765 70.783936
89.153404 614.08765 70.783936
94.725632 614.08765 70.783936
100.29764 614.08765 70.783936
106.86926 598.92798 96.939941
112.49387 598.92798 96.939941
118.11848 598.92798 96.939941
123.7433 598.92798 96.939941
130.57771 583.76831 123.0957
136.25513 583.76831 123.0957
141.93234 583.76831 123.0957
147.60954 583.76831 123.0957
153.28697 583.76831 123.0957
158.96417 583.76831 123.0957
164.6416 583.76831 123.0957
170.3188 583.76831 123.0957
-166.53865 666.74915 -30.70752
-161.16641 666.74915 -30.70752
-155.79417 666.74915 -30.70752
-150.42194 666.74915 -30.70752
-145.04982 666.74915 -30.70752
-139.67758 666.74915 -30.70752
-134.30534 666.74915 -30.70752
-127.79694 680.43652 -54.229492
-122.47205 680.43652 -54.229492
-117.14725 680.43652 -54.229492
-111.82236 680.43652 -54.229492
-106.49747 680.43652 -54.229492
-101.17258 680.43652 -54.229492
-95.847679 680.43652 -54.229492
-90.522888 680.43652 -54.229492
-84.440552 694.12366 -77.751221
-79.163002 694.12366 -77.751221
-74.54821 680.43652 -54.229492
-69.223312 680.43652 -54.229492
-63.898525 680.43652 -54.229492
-58.573627 680.43652 -54.229492
-53.248734 680.43652 -54.229492
-47.92384 680.43652 -54.229492
-42.598946 680.43652 -54.229492
-37.605534 666.74915 -30.70752
-32.233299 666.74915 -30.70752
-27.106535 652.55505 -6.3144531
-21.685207 652.55505 -6.3144531
-16.41116 638.36084 18.078369
-11.042537 623.65967 43.342773
-5.5212684 623.65967 43.342773
0 608.9585 68.606934
5.6246076 593.75049 94.742188
11.24943 593.75049 94.742188
16.874039 593.75049 94.742188
22.709261 578.54248 120.87744
28.386467 578.54248 120.87744
34.063675 578.54248 120.87744
39.7411 578.54248 120.87744
45.418304 578.54248 120.87744
51.095726 578.54248 120.87744
56.772934 578.54248 120.87744
61.871544 593.75049 94.742188
67.496368 593.75049 94.742188
73.120972 593.75049 94.742188
78.745796 593.75049 94.742188
83.581406 608.9585 68.606934
89.153404 608.9585 68.606934
95.619835 593.75049 94.742188
101.24444 593.75049 94.742188
107.86867 578.54248 120.87744
113.54587 578.54248 120.87744
118.11848 593.75049 94.742188
123.7433 593.75049 94.742188
130.57771 578.54248 120.87744
136.25513 578.54248 120.87744
141.93234 578.54248 120.87744
147.60954 578.54248 120.87744
153.28697 578.54248 120.87744
158.96417 578.54248 120.87744
164.6416 578.54248 120.87744
171.9494 562.82739 147.88403
-162.63921 647.56458 -8.4328613
-157.21788 647.56458 -8.4328613
-150.42194 661.80396 -32.806641
-145.04982 661.80396 -32.806641
-139.67758 661.80396 -32.806641
-134.30534 661.80396 -32.806641
-127.79694 675.53491 -56.310059
-122.47205 675.53491 -56.310059
-117.14725 675.53491 -56.310059
-111.82236 675.53491 -56.310059
-106.49747 675.53491 -56.310059
-102.07204 661.80396 -32.806641
-95.847679 675.53491 -56.310059
-90.522888 675.53491 -56.310059
-85.197998 675.53491 -56.310059
-79.8731 675.53491 -56.310059
-74.54821 675.53491 -56.310059
-69.223312 675.53491 -56.310059
-63.898525 675.53491 -56.310059
-58.573627 675.53491 -56.310059
-53.248734 675.53491 -56.310059
-47.92384 675.53491 -56.310059
-42.977669 661.80396 -32.806641
-37.605534 661.80396 -32.806641
-32.527863 647.56458 -8.4328613
-27.106535 647.56458 -8.4328613
-21.685207 647.56458 -8.4328613
-16.41116 633.3252 15.940918
-11.042537 618.57715 41.185303
-5.5212684 618.57715 41.185303
0 603.82935 66.429688
5.5720086 603.82935 66.429688
11.24943 588.57288 92.544434
16.874039 588.57288 92.544434
22.709261 573.31641 118.65918
28.386467 573.31641 118.65918
34.063675 573.31641 118.65918
39.7411 573.31641 118.65918
45.418304 573.31641 118.65918
51.095726 573.31641 118.65918
56.772934 573.31641 118.65918
61.871544 588.57288 92.544434
67.496368 588.57288 92.544434
73.120972 588.57288 92.544434
78.745796 588.57288 92.544434
83.581406 603.82935 66.429688
89.153404 603.82935 66.429688
95.619835 588.57288 92.544434
102.19124 573.31641 118.65918
107.86867 573.31641 118.65918
113.54587 573.31641 118.65918
119.22308 573.31641 118.65918
124.90051 573.31641 118.65918
130.57771 573.31641 118.65918
136.25513 573.31641 118.65918
141.93234 573.31641 118.65918
147.60954 573.31641 118.65918
154.75452 557.55127 145.64453
160.48607 557.55127 145.64453
166.21785 557.55127 145.64453
-162.63921 642.57434 -10.551025
-157.21788 642.57434 -10.551025
-151.79655 642.57434 -10.551025
-146.37532 642.57434 -10.551025
-140.95399 642.57434 -10.551025
-135.53267 642.57434 -10.551025
-128.93311 656.85889 -34.905762
-123.56087 656.85889 -34.905762
-117.14725 670.6333 -58.390625
-111.82236 670.6333 -58.390625
-106.49747 670.6333 -58.390625
-101.17258 670.6333 -58.390625
-95.847679 670.6333 -58.390625
-91.327667 656.85889 -34.905762
-85.197998 670.6333 -58.390625
-79.8731 670.6333 -58.390625
-74.54821 670.6333 -58.390625
-69.223312 670.6333 -58.390625
-63.898525 670.6333 -58.390625
-58.573627 670.6333 -58.390625
-53.248734 670.6333 -58.390625
-47.92384 670.6333 -58.390625
-42.977669 656.85889 -34.905762
-37.949188 642.57434 -10.551025
-32.527863 642.57434 -10.551025
-27.106535 642.57434 -10.551025
-21.685207 642.57434 -10.551025
-16.41116 628.28979 13.803467
-11.042537 613.495 39.028076
-5.5212684 613.495 39.028076
0 613.495 39.028076
5.5720086 598.7002 64.252441
11.24943 583.39539 90.34668
16.874039 583.39539 90.34668
22.709261 568.09045 116.44092
28.386467 568.09045 116.44092
34.063675 568.09045 116.44092
39.7411 568.09045 116.44092
45.418304 568.09045 116.44092
51.095726 568.09045 116.44092
56.772934 568.09045 116.44092
62.450146 568.09045 116.44092
67.496368 583.39539 90.34668
73.120972 583.39539 90.34668
78.745796 583.39539 90.34668
83.581406 598.7002 64.252441
89.153404 598.7002 64.252441
95.619835 583.39539 90.34668
102.19124 568.09045 116.44092
107.86867 568.09045 116.44092
113.54587 568.09045 116.44092
119.22308 568.09045 116.44092
124.90051 568.09045 116.44092
130.57771 568.09045 116.44092
136.25513 568.09045 116.44092
141.93234 568.09045 116.44092
147.60954 568.09045 116.44092
153.28697 568.09045 116.44092
158.96417 568.09045 116.44092
166.21785 552.27539 143.40503
-157.21788 637.58398 -12.669434
-151.79655 637.58398 -12.669434
-146.37532 637.58398 -12.669434
-140.95399 637.58398 -12.669434
-135.53267 637.58398 -12.669434
-128.93311 651.9137 -37.004883
-123.56087 651.9137 -37.004883
-117.14725 665.73169 -60.471191
-111.82236 665.73169 -60.471191
-106.49747 665.73169 -60.471191
-101.17258 665.73169 -60.471191
-95.847679 665.73169 -60.471191
-90.522888 665.73169 -60.471191
-85.197998 665.73169 -60.471191
-79.8731 665.73169 -60.471191
-74.54821 665.73169 -60.471191
-69.223312 665.73169 -60.471191
-63.898525 665.73169 -60.471191
-58.573627 665.73169 -60.471191
-53.248734 665.73169 -60.471191
-47.92384 665.73169 -60.471191
-42.977669 651.9137 -37.004883
-37.949188 637.58398 -12.669434
-32.527863 637.58398 -12.669434
-27.106535 637.58398 -12.669434
-21.685207 637.58398 -12.669434
-16.41116 623.25415 11.666016
-11.042537 608.4126 36.870605
-5.5212684 608.4126 36.870605
0 608.4126 36.870605
5.5720086 593.57104 62.075195
11.24943 578.21777 88.148926
16.874039 578.21777 88.148926
22.709261 562.86438 114.22266
28.386467 562.86438 114.22266
34.063675 562.86438 114.22266
39.7411 562.86438 114.22266
45.418304 562.86438 114.22266
51.095726 562.86438 114.22266
56.772934 562.86438 114.22266
62.450146 562.86438 114.22266
68.127563 562.86438 114.22266
73.804771 562.86438 114.22266
78.745796 578.21777 88.148926
84.370399 578.21777 88.148926
89.99501 578.21777 88.148926
96.514038 562.86438 114.22266
102.19124 562.86438 114.22266
107.86867 562.86438 114.22266
113.54587 562.86438 114.22266
119.22308 562.86438 114.22266
124.90051 562.86438 114.22266
130.57771 562.86438 114.22266
136.25513 562.86438 114.22266
141.93234 562.86438 114.22266
147.60954 562.86438 114.22266
153.28697 562.86438 114.22266
158.96417 562.86438 114.22266
-158.64159 618.21863 9.5283203
-151.79655 632.59351 -14.787598
-146.37532 632.59351 -14.787598
-140.95399 632.59351 -14.787598
-135.53267 632.59351 -14.787598
-128.93311 646.96851 -39.104004
-123.56087 646.96851 -39.104004
-118.18874 646.96851 -39.104004
-111.82236 660.83008 -62.552002
-106.49747 660.83008 -62.552002
-101.17258 660.83008 -62.552002
-95.847679 660.83008 -62.552002
-90.522888 660.83008 -62.552002
-85.197998 660.83008 -62.552002
-79.8731 660.83008 -62.552002
-74.54821 660.83008 -62.552002
-69.223312 660.83008 -62.552002
-63.898525 660.83008 -62.552002
-58.573627 660.83008 -62.552002
-53.248734 660.83008 -62.552002
-47.92384 660.83008 -62.552002
-42.977669 646.96851 -39.104004
-37.949188 632.59351 -14.787598
-32.527863 632.59351 -14.787598
-27.106535 632.59351 -14.787598
-21.685207 632.59351 -14.787598
-16.41116 618.21863 9.5283203
-11.042537 603.33008 34.713379
-5.5212684 603.33008 34.713379
0 603.33008 34.713379
5.5720086 588.44189 59.897949
11.24943 573.04016 85.951172
16.874039 573.04016 85.951172
22.709261 557.63843 112.00415
28.386467 557.63843 112.00415
34.063675 557.63843 112.00415
39.7411 557.63843 112.00415
45.418304 557.63843 112.00415
51.095726 557.63843 112.00415
56.772934 557.63843 112.00415
62.450146 557.63843 112.00415
68.127563 557.63843 112.00415
73.804771 557.63843 112.00415
79.482201 557.63843 112.00415
85.159401 557.63843 112.00415
90.836609 557.63843 112.00415
96.514038 557.63843 112.00415
102.19124 557.63843 112.00415
107.86867 557.63843 112.00415
113.54587 557.63843 112.00415
119.22308 557.63843 112.00415
124.90051 557.63843 112.00415
130.57771 557.63843 112.00415
136.25513 557.63843 112.00415
141.93234 557.63843 112.00415
147.60954 557.63843 112.00415
153.28697 557.63843 112.00415
158.96417 557.63843 112.00415
-151.79655 627.60327 -16.905762
-146.37532 627.60327 -16.905762
-140.95399 627.60327 -16.905762
-135.53267 627.60327 -16.905762
-128.93311 642.02344 -41.203125
-123.56087 642.02344 -41.203125
-118.18874 642.02344 -41.203125
-112.81651 642.02344 -41.203125
-107.44427 642.02344 -41.203125
-102.07204 642.02344 -41.203125
-96.699806 642.02344 -41.203125
-90.522888 655.92859 -64.632568
-85.197998 655.92859 -64.632568
-79.8731 655.92859 -64.632568
-75.210968 642.02344 -41.203125
-69.838737 642.02344 -41.203125
-64.466599 642.02344 -41.203125
-59.094368 642.02344 -41.203125
-53.722134 642.02344 -41.203125
-48.349903 642.02344 -41.203125
-42.977669 642.02344 -41.203125
-37.949188 627.60327 -16.905762
-32.527863 627.60327 -16.905762
-27.106535 627.60327 -16.905762
-21.685207 627.60327 -16.905762
-16.41116 613.18311 7.3911133
-10.940842 613.18311 7.3911133
-5.5212684 598.24792 32.556152
0 598.24792 32.556152
5.5720086 583.31274 57.720947
11.24943 567.86267 83.753662
17.031837 552.41248 109.78613
22.709261 552.41248 109.78613
28.386467 552.41248 109.78613
34.063675 552.41248 109.78613
39.7411 552.41248 109.78613
45.418304 552.41248 109.78613
51.095726 552.41248 109.78613
56.772934 552.41248 109.78613
62.450146 552.41248 109.78613
68.127563 552.41248 109.78613
73.804771 552.41248 109.78613
79.482201 552.41248 109.78613
85.159401 552.41248 109.78613
90.836609 552.41248 109.78613
96.514038 552.41248 109.78613
102.19124 552.41248 109.78613
107.86867 552.41248 109.78613
113.54587 552.41248 109.78613
119.22308 552.41248 109.78613
124.90051 552.41248 109.78613
130.57771 552.41248 109.78613
136.25513 552.41248 109.78613
141.93234 552.41248 109.78613
147.60954 552.41248 109.78613
153.28697 552.41248 109.78613
158.96417 552.41248 109.78613
-146.37532 622.61292 -19.02417
-139.67758 637.07812 -43.302246
-134.30534 637.07812 -43.302246
-128.93311 637.07812 -43.302246
-123.56087 637.07812 -43.302246
-118.18874 637.07812 -43.302246
-112.81651 637.07812 -43.302246
-107.44427 637.07812 -43.302246
-102.07204 637.07812 -43.302246
-96.699806 637.07812 -43.302246
-91.327667 637.07812 -43.302246
-85.955437 637.07812 -43.302246
-80.583206 637.07812 -43.302246
-75.210968 637.07812 -43.302246
-69.838737 637.07812 -43.302246
-64.466599 637.07812 -43.302246
-59.094368 637.07812 -43.302246
-53.722134 637.07812 -43.302246
-48.349903 637.07812 -43.302246
-42.977669 637.07812 -43.302246
-37.949188 622.61292 -19.02417
-32.527863 622.61292 -19.02417
-27.106535 622.61292 -19.02417
-21.685207 622.61292 -19.02417
-16.41116 608.14758 5.253418
-10.940842 608.14758 5.253418
-5.5212684 593.16553 30.398682
0 593.16553 30.398682
5.5720086 578.18359 55.543701
11.24943 562.68506 81.555664
17.031837 547.1864 107.56763
22.709261 547.1864 107.56763
28.386467 547.1864 107.56763
34.063675 547.1864 107.56763
39.7411 547.1864 107.56763
45.418304 547.1864 107.56763
51.095726 547.1864 107.56763
56.772934 547.1864 107.56763
62.450146 547.1864 107.56763
68.127563 547.1864 107.56763
73.804771 547.1864 107.56763
79.482201 547.1864 107.56763
85.159401 547.1864 107.56763
90.836609 547.1864 107.56763
96.514038 547.1864 107.56763
102.19124 547.1864 107.56763
107.86867 547.1864 107.56763
113.54587 547.1864 107.56763
119.22308 547.1864 107.56763
124.90051 547.1864 107.56763
130.57771 547.1864 107.56763
136.25513 547.1864 107.56763
141.93234 547.1864 107.56763
147.60954 547.1864 107.56763
-139.67758 632.13306 -45.401123
-134.30534 632.13306 -45.401123
-128.93311 632.13306 -45.401123
-123.56087 632.13306 -45.401123
-119.26879 617.62256 -21.142334
-112.81651 632.13306 -45.401123
-107.44427 632.13306 -45.401123
-102.07204 632.13306 -45.401123
-96.699806 632.13306 -45.401123
-91.327667 632.13306 -45.401123
-85.955437 632.13306 -45.401123
-80.583206 632.13306 -45.401123
-75.898277 617.62256 -21.142334
-69.838737 632.13306 -45.401123
-64.466599 632.13306 -45.401123
-59.094368 632.13306 -45.401123
-53.722134 632.13306 -45.401123
-48.349903 632.13306 -45.401123
-43.370415 617.62256 -21.142334
-37.949188 617.62256 -21.142334
-32.527863 617.62256 -21.142334
-27.106535 617.62256 -21.142334
-21.685207 617.62256 -21.142334
-16.41116 603.11206 3.1162109
-11.042537 588.08325 28.241455
-5.5212684 588.08325 28.241455
0 588.08325 28.241455
5.5720086 573.05444 53.366455
11.24943 557.50757 79.358154
16.874039 557.50757 79.358154
22.709261 541.96045 105.34937
28.386467 541.96045 105.34937
34.063675 541.96045 105.34937
39.7411 541.96045 105.34937
45.418304 541.96045 105.34937
51.095726 541.96045 105.34937
56.772934 541.96045 105.34937
62.450146 541.96045 105.34937
68.127563 541.96045 105.34937
73.804771 541.96045 105.34937
79.482201 541.96045 105.34937
85.159401 541.96045 105.34937
90.836609 541.96045 105.34937
96.514038 541.96045 105.34937
102.19124 541.96045 105.34937
108.90137 525.89526 132.20728
114.63293 525.89526 132.20728
119.22308 541.96045 105.34937
124.90051 541.96045 105.34937
130.57771 541.96045 105.34937
137.55962 525.89526 132.20728
143.29117 525.89526 132.20728
149.02272 525.89526 132.20728
-140.95399 612.6322 -23.260742
-135.53267 612.6322 -23.260742
-128.93311 627.18787 -47.500244
-123.56087 627.18787 -47.500244
-119.26879 612.6322 -23.260742
-112.81651 627.18787 -47.500244
-107.44427 627.18787 -47.500244
-103.00481 612.6322 -23.260742
-97.583481 612.6322 -23.260742
-92.162254 612.6322 -23.260742
-85.955437 627.18787 -47.500244
-80.583206 627.18787 -47.500244
-75.210968 627.18787 -47.500244
-69.838737 627.18787 -47.500244
-64.466599 627.18787 -47.500244
-59.094368 627.18787 -47.500244
-53.722134 627.18787 -47.500244
-48.349903 627.18787 -47.500244
-43.370415 612.6322 -23.260742
-37.949188 612.6322 -23.260742
-32.527863 612.6322 -23.260742
-27.106535 612.6322 -23.260742
-21.685207 612.6322 -23.260742
-16.41116 598.07654 0.97851562
-11.042537 583.00085 26.083984
-5.5212684 583.00085 26.083984
0 583.00085 26.083984
5.5720086 567.92529 51.189209
11.24943 552.32983 77.1604
16.874039 552.32983 77.1604
22.709261 536.7345 103.1311
28.386467 536.7345 103.1311
34.063675 536.7345 103.1311
39.7411 536.7345 103.1311
45.85313 520.61926 129.96777
51.584908 520.61926 129.96777
57.316467 520.61926 129.96777
63.048027 520.61926 129.96777
68.779808 520.61926 129.96777
73.804771 536.7345 103.1311
79.482201 536.7345 103.1311
85.159401 536.7345 103.1311
90.836609 536.7345 103.1311
96.514038 536.7345 103.1311
102.19124 536.7345 103.1311
108.90137 520.61926 129.96777
114.63293 520.61926 129.96777
120.36449 520.61926 129.96777
126.09628 520.61926 129.96777
131.82784 520.61926 129.96777
137.55962 520.61926 129.96777
143.29117 520.61926 129.96777
149.02272 520.61926 129.96777
-140.95399 607.64185 -25.378906
-134.30534 622.2428 -49.599365
-128.93311 622.2428 -49.599365
-123.56087 622.2428 -49.599365
-119.26879 607.64185 -25.378906
-113.84747 607.64185 -25.378906
-108.42614 607.64185 -25.378906
-103.00481 607.64185 -25.378906
-97.583481 607.64185 -25.378906
-92.162254 607.64185 -25.378906
-85.955437 622.2428 -49.599365
-80.583206 622.2428 -49.599365
-75.210968 622.2428 -49.599365
-69.838737 622.2428 -49.599365
-64.466599 622.2428 -49.599365
-59.094368 622.2428 -49.599365
-53.722134 622.2428 -49.599365
-48.349903 622.2428 -49.599365
-43.370415 607.64185 -25.378906
-37.949188 607.64185 -25.378906
-32.527863 607.64185 -25.378906
-27.106535 607.64185 -25.378906
-21.685207 607.64185 -25.378906
-16.41116 593.04102 -1.1586914
-11.042537 577.91858 23.926758
-5.5212684 577.91858 23.926758
0 577.91858 23.926758
5.5720086 562.79626 49.012207
11.24943 547.15234 74.962646
17.031837 531.50854 100.91284
22.709261 531.50854 100.91284
28.386467 531.50854 100.91284
34.063675 531.50854 100.91284
40.121571 515.34326 127.72827
45.85313 515.34326 127.72827
51.584908 515.34326 127.72827
57.316467 515.34326 127.72827
63.048027 515.34326 127.72827
68.779808 515.34326 127.72827
74.51136 515.34326 127.72827
80.243141 515.34326 127.72827
85.974701 515.34326 127.72827
91.706261 515.34326 127.72827
97.438042 515.34326 127.72827
103.16959 515.34326 127.72827
108.90137 515.34326 127.72827
114.63293 515.34326 127.72827
120.36449 515.34326 127.72827
126.09628 515.34326 127.72827
131.82784 515.34326 127.72827
138.86409 499.17798 154.5437
144.65001 499.17798 154.5437
151.94028 481.96973 183.08911
-140.95399 602.65149 -27.497314
-134.30534 617.29761 -51.698486
-128.93311 617.29761 -51.698486
-123.56087 617.29761 -51.698486
-119.26879 602.65149 -27.497314
-113.84747 602.65149 -27.497314
-108.42614 602.65149 -27.497314
-103.00481 602.65149 -27.497314
-97.583481 602.65149 -27.497314
-92.162254 602.65149 -27.497314
-86.740929 602.65149 -27.497314
-81.319603 602.65149 -27.497314
-75.210968 617.29761 -51.698486
-69.838737 617.29761 -51.698486
-64.466599 617.29761 -51.698486
-59.094368 617.29761 -51.698486
-53.722134 617.29761 -51.698486
-48.349903 617.29761 -51.698486
-42.977669 617.29761 -51.698486
-37.949188 602.65149 -27.497314
-32.527863 602.65149 -27.497314
-27.106535 602.65149 -27.497314
-21.685207 602.65149 -27.497314
-16.41116 588.00549 -3.2963867
-11.042537 572.83618 21.769531
-5.5212684 572.83618 21.769531
0 572.83618 21.769531
5.5720086 557.66699 46.834961
11.24943 541.97485 72.764893
17.031837 526.28259 98.69458
22.926674 510.06714 125.48877
28.658234 510.06714 125.48877
34.389793 510.06714 125.48877
40.502045 493.85181 152.28271
46.28796 493.85181 152.28271
51.584908 510.06714 125.48877
57.316467 510.06714 125.48877
63.048027 510.06714 125.48877
68.779808 510.06714 125.48877
74.51136 510.06714 125.48877
80.243141 510.06714 125.48877
85.974701 510.06714 125.48877
91.706261 510.06714 125.48877
97.438042 510.06714 125.48877
103.16959 510.06714 125.48877
108.90137 510.06714 125.48877
114.63293 510.06714 125.48877
120.36449 510.06714 125.48877
126.09628 510.06714 125.48877
131.82784 510.06714 125.48877
138.86409 493.85181 152.28271
146.09651 476.59033 180.80566
151.94028 476.59033 180.80566
-135.53267 597.66125 -29.615479
-130.11134 597.66125 -29.615479
-124.69002 597.66125 -29.615479
-119.26879 597.66125 -29.615479
-113.84747 597.66125 -29.615479
-108.42614 597.66125 -29.615479
-103.00481 597.66125 -29.615479
-97.583481 597.66125 -29.615479
-92.162254 597.66125 -29.615479
-86.740929 597.66125 -29.615479
-81.319603 597.66125 -29.615479
-75.210968 612.35254 -53.797607
-69.838737 612.35254 -53.797607
-64.466599 612.35254 -53.797607
-59.094368 612.35254 -53.797607
-53.722134 612.35254 -53.797607
-48.349903 612.35254 -53.797607
-42.977669 612.35254 -53.797607
-37.949188 597.66125 -29.615479
-32.527863 597.66125 -29.615479
-27.106535 597.66125 -29.615479
-21.685207 597.66125 -29.615479
-16.41116 582.96997 -5.4335938
-11.042537 567.75391 19.612061
-5.5212684 567.75391 19.612061
0 567.75391 19.612061
5.5720086 552.53796 44.657715
11.24943 536.79736 70.567139
17.194897 504.79126 123.24927
22.926674 504.79126 123.24927
28.93 488.52588 150.02222
34.715912 488.52588 150.02222
40.502045 488.52588 150.02222
46.28796 488.52588 150.02222
51.584908 504.79126 123.24927
57.316467 504.79126 123.24927
63.048027 504.79126 123.24927
68.779808 504.79126 123.24927
74.51136 504.79126 123.24927
80.243141 504.79126 123.24927
85.974701 504.79126 123.24927
91.706261 504.79126 123.24927
97.438042 504.79126 123.24927
103.16959 504.79126 123.24927
109.93409 488.52588 150.02222
115.72 488.52588 150.02222
121.50592 488.52588 150.02222
127.29205 488.52588 150.02222
133.07796 488.52588 150.02222
140.25273 471.21118 178.52246
146.09651 471.21118 178.52246
153.39905 454.42114 206.15894
-135.53267 592.6709 -31.733887
-130.11134 592.6709 -31.733887
-124.69002 592.6709 -31.733887
-119.26879 592.6709 -31.733887
-113.84747 592.6709 -31.733887
-108.42614 592.6709 -31.733887
-103.00481 592.6709 -31.733887
-97.583481 592.6709 -31.733887
-92.162254 592.6709 -31.733887
-86.740929 592.6709 -31.733887
-81.319603 592.6709 -31.733887
-75.898277 592.6709 -31.733887
-70.476952 592.6709 -31.733887
-65.055725 592.6709 -31.733887
-59.094368 607.40735 -55.896729
-53.722134 607.40735 -55.896729
-48.349903 607.40735 -55.896729
-42.977669 607.40735 -55.896729
-37.949188 592.6709 -31.733887
-32.527863 592.6709 -31.733887
-27.106535 592.6709 -31.733887
-21.685207 592.6709 -31.733887
-16.41116 577.93433 -7.5712891
-11.042537 562.67151 17.454834
-5.5212684 562.67151 17.454834
0 562.67151 17.454834
5.5720086 547.40881 42.480469
11.24943 531.61963 68.369385
17.194897 499.51514 121.00952
22.926674 499.51514 121.00952
28.93 483.19971 147.76123
34.715912 483.19971 147.76123
40.502045 483.19971 147.76123
46.28796 483.19971 147.76123
52.074093 483.19971 147.76123
57.860001 483.19971 147.76123
63.048027 499.51514 121.00952
68.779808 499.51514 121.00952
75.217957 483.19971 147.76123
81.004089 483.19971 147.76123
86.790001 483.19971 147.76123
91.706261 499.51514 121.00952
97.438042 499.51514 121.00952
104.14796 483.19971 147.76123
109.93409 483.19971 147.76123
115.72 483.19971 147.76123
122.72098 465.83179 176.23901
128.56497 465.83179 176.23901
134.40874 465.83179 176.23901
140.25273 465.83179 176.23901
147.49918 448.99011 203.85352
153.39905 448.99011 203.85352
-135.53267 587.68054 -33.852051
-130.11134 587.68054 -33.852051
-124.69002 587.68054 -33.852051
-119.26879 587.68054 -33.852051
-114.87842 572.89893 -9.7084961
-109.408 572.89893 -9.7084961
-103.00481 587.68054 -33.852051
-97.583481 587.68054 -33.852051
-92.162254 587.68054 -33.852051
-86.740929 587.68054 -33.852051
-81.319603 587.68054 -33.852051
-75.898277 587.68054 -33.852051
-70.476952 587.68054 -33.852051
-65.055725 587.68054 -33.852051
-59.634396 587.68054 -33.852051
-54.21307 587.68054 -33.852051
-48.79174 587.68054 -33.852051
-43.370415 587.68054 -33.852051
-37.949188 587.68054 -33.852051
-32.527863 587.68054 -33.852051
-27.106535 587.68054 -33.852051
-21.685207 587.68054 -33.852051
-16.41116 572.89893 -9.7084961
-11.042537 557.58923 15.297363
-5.5212684 557.58923 15.297363
0 557.58923 15.297363
5.5720086 542.27979 40.303223
11.24943 526.44214 66.171631
17.194897 494.23926 118.77002
23.144089 477.87378 145.50049
29.219301 460.45251 173.95557
35.063072 460.45251 173.95557
40.907066 460.45251 173.95557
46.28796 477.87378 145.50049
52.074093 477.87378 145.50049
57.860001 477.87378 145.50049
63.645912 477.87378 145.50049
69.432045 477.87378 145.50049
75.217957 477.87378 145.50049
81.004089 477.87378 145.50049
86.790001 477.87378 145.50049
92.57592 477.87378 145.50049
98.362045 477.87378 145.50049
104.14796 477.87378 145.50049
111.03343 460.45251 173.95557
116.8772 460.45251 173.95557
122.72098 460.45251 173.95557
128.56497 460.45251 173.95557
134.40874 460.45251 173.95557
141.5993 443.55933 201.54834
147.49918 443.55933 201.54834
153.39905 443.55933 201.54834
-136.76001 567.8634 -11.846191
-131.28958 567.8634 -11.846191
-125.81916 567.8634 -11.846191
-120.34885 567.8634 -11.846191
-114.87842 567.8634 -11.846191
-109.408 567.8634 -11.846191
-103.00481 582.69019 -35.970215
-97.583481 582.69019 -35.970215
-92.162254 582.69019 -35.970215
-86.740929 582.69019 -35.970215
-81.319603 582.69019 -35.970215
-75.898277 582.69019 -35.970215
-70.476952 582.69019 -35.970215
-65.055725 582.69019 -35.970215
-59.634396 582.69019 -35.970215
-54.21307 582.69019 -35.970215
-48.79174 582.69019 -35.970215
-43.370415 582.69019 -35.970215
-37.949188 582.69019 -35.970215
-32.527863 582.69019 -35.970215
-27.106535 582.69019 -35.970215
-21.685207 582.69019 -35.970215
-16.41116 567.8634 -11.846191
-11.042537 552.50684 13.140137
-5.5212684 552.50684 13.140137
0 552.50684 13.140137
5.5720086 537.15051 38.126221
11.24943 521.26465 63.973877
17.194897 488.96313 116.53052
23.144089 472.54773 143.23975
29.219301 455.07312 171.67212
35.063072 455.07312 171.67212
40.907066 455.07312 171.67212
46.750835 455.07312 171.67212
52.59483 455.07312 171.67212
57.860001 472.54773 143.23975
63.645912 472.54773 143.23975
69.432045 472.54773 143.23975
75.217957 472.54773 143.23975
81.004089 472.54773 143.23975
86.790001 472.54773 143.23975
92.57592 472.54773 143.23975
98.362045 472.54773 143.23975
105.18944 455.07312 171.67212
111.03343 455.07312 171.67212
116.8772 455.07312 171.67212
123.89921 438.1283 199.24292
129.79932 438.1283 199.24292
135.69919 438.1283 199.24292
141.5993 438.1283 199.24292
147.49918 438.1283 199.24292
153.39905 438.1283 199.24292
-131.28958 562.82788 -13.983398
-125.81916 562.82788 -13.983398
-120.34885 562.82788 -13.983398
-114.87842 562.82788 -13.983398
-109.408 562.82788 -13.983398
-103.00481 577.69995 -38.088623
-97.583481 577.69995 -38.088623
-92.162254 577.69995 -38.088623
-86.740929 577.69995 -38.088623
-81.319603 577.69995 -38.088623
-75.898277 577.69995 -38.088623
-70.476952 577.69995 -38.088623
-65.055725 577.69995 -38.088623
-59.634396 577.69995 -38.088623
-54.21307 577.69995 -38.088623
-48.79174 577.69995 -38.088623
-43.370415 577.69995 -38.088623
-37.949188 577.69995 -38.088623
-32.527863 577.69995 -38.088623
-27.106535 577.69995 -38.088623
-21.685207 577.69995 -38.088623
-16.41116 562.82788 -13.983398
-11.042537 547.42456 10.98291
-5.5212684 547.42456 10.98291
0 547.42456 10.98291
5.6246076 516.08716 61.776123
11.24943 516.08716 61.776123
17.531536 449.69397 169.38892
23.37553 449.69397 169.38892
29.219301 449.69397 169.38892
35.399712 432.69739 196.93774
41.299816 432.69739 196.93774
46.750835 449.69397 169.38892
52.59483 449.69397 169.38892
58.438602 449.69397 169.38892
64.282372 449.69397 169.38892
70.126366 449.69397 169.38892
75.970139 449.69397 169.38892
81.004089 467.22168 140.979
86.790001 467.22168 140.979
93.501671 449.69397 169.38892
99.345665 449.69397 169.38892
105.18944 449.69397 169.38892
112.09946 432.69739 196.93774
117.99934 432.69739 196.93774
123.89921 432.69739 196.93774
129.79932 432.69739 196.93774
135.69919 432.69739 196.93774
141.5993 432.69739 196.93774
147.49918 432.69739 196.93774
153.39905 432.69739 196.93774
-131.28958 557.79236 -16.121094
-125.81916 557.79236 -16.121094
-120.34885 557.79236 -16.121094
-114.87842 557.79236 -16.121094
-108.42614 572.70947 -40.206787
-103.00481 572.70947 -40.206787
-97.583481 572.70947 -40.206787
-92.162254 572.70947 -40.206787
-86.740929 572.70947 -40.206787
-81.319603 572.70947 -40.206787
-75.898277 572.70947 -40.206787
-70.476952 572.70947 -40.206787
-65.055725 572.70947 -40.206787
-59.634396 572.70947 -40.206787
-54.21307 572.70947 -40.206787
-48.79174 572.70947 -40.206787
-43.370415 572.70947 -40.206787
-37.949188 572.70947 -40.206787
-32.527863 572.70947 -40.206787
-27.106535 572.70947 -40.206787
-21.685207 572.70947 -40.206787
-16.41116 557.79236 -16.121094
-11.042537 542.34229 8.8254395
-5.5212684 542.34229 8.8254395
0 542.34229 8.8254395
5.6246076 510.90942 59.578369
11.24943 510.90942 59.578369
17.031837 494.92676 85.384766
23.37553 444.31458 167.10547
29.219301 444.31458 167.10547
35.063072 444.31458 167.10547
40.907066 444.31458 167.10547
46.750835 444.31458 167.10547
52.59483 444.31458 167.10547
58.438602 444.31458 167.10547
64.282372 444.31458 167.10547
70.126366 444.31458 167.10547
75.970139 444.31458 167.10547
81.814133 444.31458 167.10547
87.657906 444.31458 167.10547
93.501671 444.31458 167.10547
100.29948 427.26636 194.63232
106.19936 427.26636 194.63232
112.09946 427.26636 194.63232
117.99934 427.26636 194.63232
123.89921 427.26636 194.63232
131.11081 409.15259 223.87988
137.0703 409.15259 223.87988
143.03001 409.15259 223.87988
148.9895 409.15259 223.87988
154.94899 409.15259 223.87988
-125.81916 552.75684 -18.258301
-120.34885 552.75684 -18.258301
-113.84747 567.71924 -42.325195
-108.42614 567.71924 -42.325195
-103.00481 567.71924 -42.325195
-97.583481 567.71924 -42.325195
-92.162254 567.71924 -42.325195
-86.740929 567.71924 -42.325195
-81.319603 567.71924 -42.325195
-75.898277 567.71924 -42.325195
-70.476952 567.71924 -42.325195
-65.055725 567.71924 -42.325195
-59.634396 567.71924 -42.325195
-54.21307 567.71924 -42.325195
-48.79174 567.71924 -42.325195
-43.370415 567.71924 -42.325195
-37.949188 567.71924 -42.325195
-32.527863 567.71924 -42.325195
-27.106535 567.71924 -42.325195
-21.685207 567.71924 -42.325195
-16.563698 537.25989 6.6682129
-11.042537 537.25989 6.6682129
-5.5212684 537.25989 6.6682129
0 537.25989 6.6682129
5.5720086 521.76318 31.594482
11.24943 505.73193 57.380615
17.031837 489.70081 83.166504
22.709261 489.70081 83.166504
29.219301 438.9353 164.82202
35.063072 438.9353 164.82202
40.907066 438.9353 164.82202
46.750835 438.9353 164.82202
52.59483 438.9353 164.82202
58.438602 438.9353 164.82202
64.282372 438.9353 164.82202
70.799652 421.83545 192.32715
76.699524 421.83545 192.32715
82.599632 421.83545 192.32715
88.499504 421.83545 192.32715
94.399376 421.83545 192.32715
100.29948 421.83545 192.32715
106.19936 421.83545 192.32715
112.09946 421.83545 192.32715
119.1916 403.66675 221.55127
125.1511 403.66675 221.55127
131.11081 403.66675 221.55127
137.0703 403.66675 221.55127
143.03001 403.66675 221.55127
148.9895 403.66675 221.55127
154.94899 403.66675 221.55127
-125.81916 547.72119 -20.395996
-120.34885 547.72119 -20.395996
-113.84747 562.72888 -44.443359
-108.42614 562.72888 -44.443359
-103.00481 562.72888 -44.443359
-97.583481 562.72888 -44.443359
-92.162254 562.72888 -44.443359
-86.740929 562.72888 -44.443359
-81.319603 562.72888 -44.443359
-75.898277 562.72888 -44.443359
-70.476952 562.72888 -44.443359
-65.055725 562.72888 -44.443359
-59.634396 562.72888 -44.443359
-54.21307 562.72888 -44.443359
-48.79174 562.72888 -44.443359
-43.370415 562.72888 -44.443359
-37.949188 562.72888 -44.443359
-32.527863 562.72888 -44.443359
-27.106535 562.72888 -44.443359
-21.881578 547.72119 -20.395996
-16.563698 532.17749 4.5107422
-11.042537 532.17749 4.5107422
-5.5212684 532.17749 4.5107422
0 516.63391 29.41748
5.5720086 516.63391 29.41748
11.24943 500.55432 55.182861
16.874039 500.55432 55.182861
