ply
format ascii 1.0
comment PCL generated
element vertex 1557
property float x
property float y
property float z
element camera 0
property float view_px
property float view_py
property float view_pz
property float x_axisx
property float x_axisy
property float x_axisz
property float y_axisx
property float y_axisy
property float y_axisz
property float z_axisx
property float z_axisy
property float z_axisz
property float focal
property float scalex
property float scaley
property float centerx
property float centery
property int viewportx
property int viewporty
property float k1
property float k2
end_header
-447.06842 858.28369 273.29785
-441.33685 858.28369 273.29785
-435.60516 858.28369 273.29785
-429.8735 858.28369 273.29785
-420.11972 871.1969 245.10205
-414.44241 871.1969 245.10205
-408.76517 871.1969 245.10205
-403.08786 871.1969 245.10205
-397.41055 871.1969 245.10205
-391.73325 871.1969 245.10205
-386.05594 871.1969 245.10205
-380.37869 871.1969 245.10205
-374.70139 871.1969 245.10205
-369.02408 871.1969 245.10205
-366.82538 858.28369 273.29785
-361.09372 858.28369 273.29785
-355.36215 858.28369 273.29785
-349.63046 858.28369 273.29785
-343.8988 858.28369 273.29785
-338.16714 858.28369 273.29785
-332.43549 858.28369 273.29785
-326.70392 858.28369 273.29785
-320.97223 858.28369 273.29785
-315.24057 858.28369 273.29785
-309.50891 858.28369 273.29785
-303.77722 858.28369 273.29785
-298.04568 858.28369 273.29785
-292.314 858.28369 273.29785
-286.58234 858.28369 273.29785
-280.85068 858.28369 273.29785
-275.11899 858.28369 273.29785
-269.38745 858.28369 273.29785
-266.15604 845.37061 301.49365
-260.37 845.37061 301.49365
-254.584 845.37061 301.49365
-135.53267 932.01392 112.30884
-130.11134 932.01392 112.30884
-124.69002 932.01392 112.30884
-119.26879 932.01392 112.30884
-111.82236 954.92444 62.283691
-106.49747 954.92444 62.283691
-101.17258 954.92444 62.283691
-95.847679 954.92444 62.283691
-91.327667 943.67737 86.841553
-85.197998 954.92444 62.283691
-79.8731 954.92444 62.283691
-74.54821 954.92444 62.283691
-69.223312 954.92444 62.283691
-63.330441 966.17126 37.726074
-57.551434 977.00171 14.078125
-52.319469 977.00171 14.078125
-46.677223 987.83215 -9.5700684
-41.490841 987.83215 -9.5700684
-36.304562 987.83215 -9.5700684
-31.118181 987.83215 -9.5700684
-25.712635 998.24597 -32.308838
-20.570087 998.24597 -32.308838
-15.559041 987.83215 -9.5700684
-10.37276 987.83215 -9.5700684
-5.1863799 987.83215 -9.5700684
0 987.83215 -9.5700684
5.2318668 977.00171 14.078125
10.37276 987.83215 -9.5700684
15.559041 987.83215 -9.5700684
20.74552 987.83215 -9.5700684
25.931801 987.83215 -9.5700684
31.118082 987.83215 -9.5700684
36.304562 987.83215 -9.5700684
41.855534 977.00171 14.078125
46.677322 987.83215 -9.5700684
51.863602 987.83215 -9.5700684
57.551338 977.00171 14.078125
62.783401 977.00171 14.078125
68.015266 977.00171 14.078125
73.247337 977.00171 14.078125
79.163002 966.17126 37.726074
84.44046 966.17126 37.726074
89.718109 966.17126 37.726074
94.99556 966.17126 37.726074
99.407066 977.00171 14.078125
104.63894 977.00171 14.078125
109.8708 977.00171 14.078125
114.09996 987.83215 -9.5700684
118.27808 998.24597 -32.308838
122.36873 1008.6599 -55.047363
127.46734 1008.6599 -55.047363
132.56595 1008.6599 -55.047363
137.66476 1008.6599 -55.047363
140.3578 1029.071 -99.61499
145.3707 1029.071 -99.61499
150.38341 1029.071 -99.61499
156.70059 1019.0737 -77.786133
161.75557 1019.0737 -77.786133
166.81035 1019.0737 -77.786133
170.4346 1029.071 -99.61499
175.44731 1029.071 -99.61499
180.46001 1029.071 -99.61499
185.4729 1029.071 -99.61499
190.48561 1029.071 -99.61499
193.85738 1039.0684 -121.44409
198.828 1039.0684 -121.44409
203.79865 1039.0684 -121.44409
208.76944 1039.0684 -121.44409
213.74007 1039.0684 -121.44409
218.71088 1039.0684 -121.44409
-514.95398 840.04456 299.23291
-509.168 840.04456 299.23291
-503.38205 840.04456 299.23291
-492.92163 853.00781 271.05835
-487.18997 853.00781 271.05835
-481.45834 853.00781 271.05835
-475.72665 853.00781 271.05835
-469.99509 853.00781 271.05835
-464.2634 853.00781 271.05835
-458.53174 853.00781 271.05835
-452.80011 853.00781 271.05835
-447.06842 853.00781 271.05835
-441.33685 853.00781 271.05835
-435.60516 853.00781 271.05835
-429.8735 853.00781 271.05835
-424.14188 853.00781 271.05835
-418.41019 853.00781 271.05835
-408.76517 865.97107 242.88379
-403.08786 865.97107 242.88379
-397.41055 865.97107 242.88379
-391.73325 865.97107 242.88379
-386.05594 865.97107 242.88379
-380.37869 865.97107 242.88379
-374.70139 865.97107 242.88379
-369.02408 865.97107 242.88379
-366.82538 853.00781 271.05835
-361.09372 853.00781 271.05835
-355.36215 853.00781 271.05835
-349.63046 853.00781 271.05835
-343.8988 853.00781 271.05835
-338.16714 853.00781 271.05835
-335.58798 840.04456 299.23291
-326.70392 853.00781 271.05835
-320.97223 853.00781 271.05835
-315.24057 853.00781 271.05835
-309.50891 853.00781 271.05835
-303.77722 853.00781 271.05835
-298.04568 853.00781 271.05835
-292.314 853.00781 271.05835
-286.58234 853.00781 271.05835
-280.85068 853.00781 271.05835
-275.11899 853.00781 271.05835
-269.38745 853.00781 271.05835
-266.15604 840.04456 299.23291
-260.37 840.04456 299.23291
-254.584 840.04456 299.23291
-130.11134 927.02356 110.19043
-124.69002 927.02356 110.19043
-119.26879 927.02356 110.19043
-112.81651 938.7323 84.742432
-107.44427 938.7323 84.742432
-102.07204 938.7323 84.742432
-96.699806 938.7323 84.742432
-91.327667 938.7323 84.742432
-85.197998 950.02295 60.203125
-79.8731 950.02295 60.203125
-74.54821 950.02295 60.203125
-69.223312 950.02295 60.203125
-63.330441 961.31335 35.664062
-57.551434 972.18579 12.033691
-52.319469 972.18579 12.033691
-47.087502 972.18579 12.033691
-41.855534 972.18579 12.033691
-36.304562 983.05811 -11.596436
-31.118181 983.05811 -11.596436
-25.712635 993.51233 -34.318115
-20.570087 993.51233 -34.318115
-15.427542 993.51233 -34.318115
-10.285093 993.51233 -34.318115
-5.1863799 983.05811 -11.596436
0 983.05811 -11.596436
5.1862807 983.05811 -11.596436
10.37276 983.05811 -11.596436
15.559041 983.05811 -11.596436
20.74552 983.05811 -11.596436
25.931801 983.05811 -11.596436
31.118082 983.05811 -11.596436
36.304562 983.05811 -11.596436
41.855534 972.18579 12.033691
46.677322 983.05811 -11.596436
51.863602 983.05811 -11.596436
57.551338 972.18579 12.033691
62.783401 972.18579 12.033691
68.015266 972.18579 12.033691
73.247337 972.18579 12.033691
79.163002 961.31335 35.664062
84.44046 961.31335 35.664062
89.718109 961.31335 35.664062
94.99556 961.31335 35.664062
99.407066 972.18579 12.033691
104.63894 972.18579 12.033691
109.8708 972.18579 12.033691
114.09996 983.05811 -11.596436
119.28625 983.05811 -11.596436
124.47272 983.05811 -11.596436
129.65901 983.05811 -11.596436
134.84529 983.05811 -11.596436
141.53606 1014.4208 -79.76123
146.59102 1014.4208 -79.76123
151.64581 1014.4208 -79.76123
156.70059 1014.4208 -79.76123
161.75557 1014.4208 -79.76123
166.81035 1014.4208 -79.76123
171.86531 1014.4208 -79.76123
175.44731 1024.4568 -101.57373
180.46001 1024.4568 -101.57373
185.4729 1024.4568 -101.57373
190.48561 1024.4568 -101.57373
193.85738 1034.4928 -123.38623
198.828 1034.4928 -123.38623
203.79865 1034.4928 -123.38623
208.76944 1034.4928 -123.38623
215.54951 1024.4568 -101.57373
220.56241 1024.4568 -101.57373
225.5751 1024.4568 -101.57373
-532.31207 834.71851 296.97217
-526.52606 834.71851 296.97217
-520.73999 834.71851 296.97217
-514.95398 834.71851 296.97217
-509.168 834.71851 296.97217
-503.38205 834.71851 296.97217
-492.92163 847.73169 268.81885
-487.18997 847.73169 268.81885
-481.45834 847.73169 268.81885
-475.72665 847.73169 268.81885
-469.99509 847.73169 268.81885
-464.2634 847.73169 268.81885
-458.53174 847.73169 268.81885
-452.80011 847.73169 268.81885
-447.06842 847.73169 268.81885
-441.33685 847.73169 268.81885
-435.60516 847.73169 268.81885
-429.8735 847.73169 268.81885
-424.14188 847.73169 268.81885
-418.41019 847.73169 268.81885
-408.76517 860.745 240.66528
-403.08786 860.745 240.66528
-397.41055 860.745 240.66528
-391.73325 860.745 240.66528
-386.05594 860.745 240.66528
-380.37869 860.745 240.66528
-374.70139 860.745 240.66528
-369.02408 860.745 240.66528
-366.82538 847.73169 268.81885
-361.09372 847.73169 268.81885
-355.36215 847.73169 268.81885
-349.63046 847.73169 268.81885
-343.8988 847.73169 268.81885
-338.16714 847.73169 268.81885
-335.58798 834.71851 296.97217
-326.70392 847.73169 268.81885
-320.97223 847.73169 268.81885
-315.24057 847.73169 268.81885
-309.50891 847.73169 268.81885
-303.77722 847.73169 268.81885
-298.04568 847.73169 268.81885
-292.314 847.73169 268.81885
-286.58234 847.73169 268.81885
-280.85068 847.73169 268.81885
-275.11899 847.73169 268.81885
-269.38745 847.73169 268.81885
-130.11134 922.0332 108.07227
-124.69002 922.0332 108.07227
-119.26879 922.0332 108.07227
-112.81651 933.78711 82.643311
-107.44427 933.78711 82.643311
-102.07204 933.78711 82.643311
-96.699806 933.78711 82.643311
-91.327667 933.78711 82.643311
-85.197998 945.12122 58.122559
-79.8731 945.12122 58.122559
-74.54821 945.12122 58.122559
-69.223312 945.12122 58.122559
-63.330441 956.45532 33.602051
-58.052891 956.45532 33.602051
-52.319469 967.36975 9.989502
-47.087502 967.36975 9.989502
-41.855534 967.36975 9.989502
-36.304562 978.28394 -13.623047
-31.118181 978.28394 -13.623047
-25.931801 978.28394 -13.623047
-20.570087 988.77856 -36.327393
-15.427542 988.77856 -36.327393
-10.285093 988.77856 -36.327393
-5.1863799 978.28394 -13.623047
0 978.28394 -13.623047
5.1862807 978.28394 -13.623047
10.37276 978.28394 -13.623047
15.559041 978.28394 -13.623047
20.74552 978.28394 -13.623047
25.931801 978.28394 -13.623047
30.855083 988.77856 -36.327393
35.997726 988.77856 -36.327393
41.490841 978.28394 -13.623047
46.282822 988.77856 -36.327393
51.42527 988.77856 -36.327393
57.049881 978.28394 -13.623047
62.783401 967.36975 9.989502
68.015266 967.36975 9.989502
73.885544 956.45532 33.602051
79.163002 956.45532 33.602051
84.44046 956.45532 33.602051
89.718109 956.45532 33.602051
94.99556 956.45532 33.602051
100.27322 956.45532 33.602051
104.63894 967.36975 9.989502
109.8708 967.36975 9.989502
114.09996 978.28394 -13.623047
119.28625 978.28394 -13.623047
124.47272 978.28394 -13.623047
129.65901 978.28394 -13.623047
147.86218 999.27319 -59.031738
152.9608 999.27319 -59.031738
156.70059 1009.7677 -81.736328
161.75557 1009.7677 -81.736328
166.81035 1009.7677 -81.736328
171.86531 1009.7677 -81.736328
175.44731 1019.8424 -103.53223
180.46001 1019.8424 -103.53223
185.4729 1019.8424 -103.53223
190.48561 1019.8424 -103.53223
195.4985 1019.8424 -103.53223
200.5112 1019.8424 -103.53223
205.52391 1019.8424 -103.53223
210.5368 1019.8424 -103.53223
215.54951 1019.8424 -103.53223
220.56241 1019.8424 -103.53223
227.4687 1009.7677 -81.736328
232.5235 1009.7677 -81.736328
-532.31207 829.39258 294.71143
-526.52606 829.39258 294.71143
-520.73999 829.39258 294.71143
-514.95398 829.39258 294.71143
-509.168 829.39258 294.71143
-503.38205 829.39258 294.71143
-492.92163 842.45581 266.57935
-487.18997 842.45581 266.57935
-481.45834 842.45581 266.57935
-475.72665 842.45581 266.57935
-469.99509 842.45581 266.57935
-464.2634 842.45581 266.57935
-458.53174 842.45581 266.57935
-452.80011 842.45581 266.57935
-447.06842 842.45581 266.57935
-441.33685 842.45581 266.57935
-435.60516 842.45581 266.57935
-429.8735 842.45581 266.57935
-424.14188 842.45581 266.57935
-418.41019 842.45581 266.57935
-412.67862 842.45581 266.57935
-403.08786 855.51904 238.44702
-397.41055 855.51904 238.44702
-391.73325 855.51904 238.44702
-386.05594 855.51904 238.44702
-380.37869 855.51904 238.44702
-374.70139 855.51904 238.44702
-372.55704 842.45581 266.57935
-366.82538 842.45581 266.57935
-361.09372 842.45581 266.57935
-358.73206 829.39258 294.71143
-352.94604 829.39258 294.71143
-347.16 829.39258 294.71143
-341.37399 829.39258 294.71143
-338.94382 815.48645 324.65845
-333.1001 815.48645 324.65845
-327.2562 815.48645 324.65845
-315.24057 842.45581 266.57935
-309.50891 842.45581 266.57935
-303.77722 842.45581 266.57935
-298.04568 842.45581 266.57935
-292.314 842.45581 266.57935
-130.11134 917.04297 105.9541
-124.69002 917.04297 105.9541
-119.26879 917.04297 105.9541
-112.81651 928.84204 80.544189
-107.44427 928.84204 80.544189
-102.07204 928.84204 80.544189
-96.699806 928.84204 80.544189
-91.327667 928.84204 80.544189
-85.197998 940.21973 56.041992
-79.8731 940.21973 56.041992
-74.54821 940.21973 56.041992
-69.223312 940.21973 56.041992
-63.898525 940.21973 56.041992
-58.052891 951.59741 31.539795
-52.319469 962.55371 7.9453125
-47.087502 962.55371 7.9453125
-41.855534 962.55371 7.9453125
-36.623669 962.55371 7.9453125
-31.391701 962.55371 7.9453125
-25.931801 973.51001 -15.649414
-20.74542 973.51001 -15.649414
-15.559041 973.51001 -15.649414
-10.37276 973.51001 -15.649414
-5.1863799 973.51001 -15.649414
0 973.51001 -15.649414
5.1862807 973.51001 -15.649414
10.37276 973.51001 -15.649414
15.559041 973.51001 -15.649414
20.74552 973.51001 -15.649414
25.931801 973.51001 -15.649414
30.855083 984.04492 -38.33667
35.997726 984.04492 -38.33667
41.490841 973.51001 -15.649414
46.282822 984.04492 -38.33667
51.42527 984.04492 -38.33667
57.049881 973.51001 -15.649414
62.783401 962.55371 7.9453125
68.015266 962.55371 7.9453125
73.885544 951.59741 31.539795
79.163002 951.59741 31.539795
84.44046 951.59741 31.539795
89.718109 951.59741 31.539795
94.99556 951.59741 31.539795
100.27322 951.59741 31.539795
105.55067 951.59741 31.539795
110.82812 951.59741 31.539795
115.10287 962.55371 7.9453125
120.33474 962.55371 7.9453125
125.5668 962.55371 7.9453125
130.79868 962.55371 7.9453125
152.9608 994.57983 -61.023926
156.70059 1005.1147 -83.711182
161.75557 1005.1147 -83.711182
166.81035 1005.1147 -83.711182
171.86531 1005.1147 -83.711182
175.44731 1015.2281 -105.49097
180.46001 1015.2281 -105.49097
185.4729 1015.2281 -105.49097
190.48561 1015.2281 -105.49097
195.4985 1015.2281 -105.49097
202.19441 1005.1147 -83.711182
207.24919 1005.1147 -83.711182
212.30417 1005.1147 -83.711182
217.35895 1005.1147 -83.711182
222.41393 1005.1147 -83.711182
227.4687 1005.1147 -83.711182
232.5235 1005.1147 -83.711182
-538.09796 824.06641 292.45068
-532.31207 824.06641 292.45068
-526.52606 824.06641 292.45068
-520.73999 824.06641 292.45068
-514.95398 824.06641 292.45068
-509.168 824.06641 292.45068
-503.38205 824.06641 292.45068
-497.59604 824.06641 292.45068
-491.81003 824.06641 292.45068
-486.02399 824.06641 292.45068
-475.72665 837.17969 264.3396
-469.99509 837.17969 264.3396
-464.2634 837.17969 264.3396
-458.53174 837.17969 264.3396
-452.80011 837.17969 264.3396
-447.06842 837.17969 264.3396
-441.33685 837.17969 264.3396
-435.60516 837.17969 264.3396
-429.8735 837.17969 264.3396
-424.14188 837.17969 264.3396
-418.41019 837.17969 264.3396
-412.67862 837.17969 264.3396
-403.08786 850.29309 236.22876
-397.41055 850.29309 236.22876
-391.73325 850.29309 236.22876
-386.05594 850.29309 236.22876
-380.37869 850.29309 236.22876
-374.70139 850.29309 236.22876
-372.55704 837.17969 264.3396
-366.82538 837.17969 264.3396
-361.09372 837.17969 264.3396
-358.73206 824.06641 292.45068
-352.94604 824.06641 292.45068
-347.16 824.06641 292.45068
-344.78775 810.10706 322.37524
-338.94382 810.10706 322.37524
-130.11134 912.05249 103.83569
-124.69002 912.05249 103.83569
-119.26879 912.05249 103.83569
-112.81651 923.89673 78.445068
-107.44427 923.89673 78.445068
-102.07204 923.89673 78.445068
-96.699806 923.89673 78.445068
-91.327667 923.89673 78.445068
-85.955437 923.89673 78.445068
-80.583206 923.89673 78.445068
-74.54821 935.31812 53.961426
-69.223312 935.31812 53.961426
-63.898525 935.31812 53.961426
-58.052891 946.73938 29.477783
-52.319469 957.73767 5.9008789
-47.087502 957.73767 5.9008789
-41.855534 957.73767 5.9008789
-36.623669 957.73767 5.9008789
-31.391701 957.73767 5.9008789
-25.931801 968.73584 -17.676025
-20.74542 968.73584 -17.676025
-15.559041 968.73584 -17.676025
-10.37276 968.73584 -17.676025
-5.1863799 968.73584 -17.676025
0 968.73584 -17.676025
5.2318668 957.73767 5.9008789
10.37276 968.73584 -17.676025
15.559041 968.73584 -17.676025
20.74552 968.73584 -17.676025
25.931801 968.73584 -17.676025
31.391602 957.73767 5.9008789
36.304562 968.73584 -17.676025
41.490841 968.73584 -17.676025
46.677322 968.73584 -17.676025
51.863602 968.73584 -17.676025
57.551338 957.73767 5.9008789
63.330441 946.73938 29.477783
68.607895 946.73938 29.477783
74.548309 935.31812 53.961426
79.8731 935.31812 53.961426
84.44046 946.73938 29.477783
89.718109 946.73938 29.477783
94.99556 946.73938 29.477783
100.27322 946.73938 29.477783
105.55067 946.73938 29.477783
110.82812 946.73938 29.477783
116.10578 946.73938 29.477783
121.38322 946.73938 29.477783
126.66088 946.73938 29.477783
131.93834 946.73938 29.477783
156.70059 1000.4617 -85.686523
161.75557 1000.4617 -85.686523
166.81035 1000.4617 -85.686523
170.4346 1010.6139 -107.44971
175.44731 1010.6139 -107.44971
180.46001 1010.6139 -107.44971
187.02988 1000.4617 -85.686523
190.48561 1010.6139 -107.44971
195.4985 1010.6139 -107.44971
202.19441 1000.4617 -85.686523
207.24919 1000.4617 -85.686523
212.30417 1000.4617 -85.686523
217.35895 1000.4617 -85.686523
222.41393 1000.4617 -85.686523
227.4687 1000.4617 -85.686523
232.5235 1000.4617 -85.686523
-538.09796 818.74048 290.18994
-532.31207 818.74048 290.18994
-526.52606 818.74048 290.18994
-525.94745 804.72778 320.0918
-520.10352 804.72778 320.0918
-514.25964 804.72778 320.0918
-503.38205 818.74048 290.18994
-497.59604 818.74048 290.18994
-491.81003 818.74048 290.18994
-486.02399 818.74048 290.18994
-475.72665 831.90381 262.1001
-469.99509 831.90381 262.1001
-464.2634 831.90381 262.1001
-458.53174 831.90381 262.1001
-452.80011 831.90381 262.1001
-447.06842 831.90381 262.1001
-441.33685 831.90381 262.1001
-435.60516 831.90381 262.1001
-429.8735 831.90381 262.1001
-424.14188 831.90381 262.1001
-418.41019 831.90381 262.1001
-412.67862 831.90381 262.1001
-406.94693 831.90381 262.1001
-397.41055 845.06714 234.0105
-391.73325 845.06714 234.0105
-386.05594 845.06714 234.0105
-380.37869 845.06714 234.0105
-374.70139 845.06714 234.0105
-369.02408 845.06714 234.0105
-366.82538 831.90381 262.1001
-361.09372 831.90381 262.1001
-355.36215 831.90381 262.1001
-352.94604 818.74048 290.18994
-347.16 818.74048 290.18994
-344.78775 804.72778 320.0918
-338.94382 804.72778 320.0918
-130.11134 907.06226 101.71753
-124.69002 907.06226 101.71753
-119.26879 907.06226 101.71753
-113.84747 907.06226 101.71753
-108.42614 907.06226 101.71753
-103.00481 907.06226 101.71753
-97.583481 907.06226 101.71753
-92.162254 907.06226 101.71753
-85.955437 918.95166 76.346191
-80.583206 918.95166 76.346191
-74.54821 930.41663 51.880859
-69.223312 930.41663 51.880859
-63.898525 930.41663 51.880859
-58.573627 930.41663 51.880859
-52.775333 941.88147 27.415771
-47.49778 941.88147 27.415771
-41.855534 952.92175 3.8566895
-36.623669 952.92175 3.8566895
-31.391701 952.92175 3.8566895
-25.931801 963.96191 -19.702393
-20.74542 963.96191 -19.702393
-15.559041 963.96191 -19.702393
-10.37276 963.96191 -19.702393
-5.1863799 963.96191 -19.702393
0 963.96191 -19.702393
5.2318668 952.92175 3.8566895
10.37276 963.96191 -19.702393
15.559041 963.96191 -19.702393
20.74552 963.96191 -19.702393
25.931801 963.96191 -19.702393
31.391602 952.92175 3.8566895
36.623669 952.92175 3.8566895
41.855534 952.92175 3.8566895
47.087601 952.92175 3.8566895
52.319469 952.92175 3.8566895
58.052788 941.88147 27.415771
63.330441 941.88147 27.415771
68.607895 941.88147 27.415771
74.548309 930.41663 51.880859
79.8731 930.41663 51.880859
85.197891 930.41663 51.880859
89.718109 941.88147 27.415771
94.99556 941.88147 27.415771
100.27322 941.88147 27.415771
105.55067 941.88147 27.415771
110.82812 941.88147 27.415771
116.10578 941.88147 27.415771
121.38322 941.88147 27.415771
126.66088 941.88147 27.415771
131.93834 941.88147 27.415771
161.75557 995.80872 -87.661377
166.81035 995.80872 -87.661377
170.4346 1005.9996 -109.4082
175.44731 1005.9996 -109.4082
180.46001 1005.9996 -109.4082
187.02988 995.80872 -87.661377
192.08464 995.80872 -87.661377
197.13962 995.80872 -87.661377
202.19441 995.80872 -87.661377
207.24919 995.80872 -87.661377
212.30417 995.80872 -87.661377
217.35895 995.80872 -87.661377
222.41393 995.80872 -87.661377
227.4687 995.80872 -87.661377
232.5235 995.80872 -87.661377
237.57848 995.80872 -87.661377
-543.88397 813.41431 287.92896
-538.09796 813.41431 287.92896
-532.31207 813.41431 287.92896
-526.52606 813.41431 287.92896
-520.73999 813.41431 287.92896
-520.10352 799.34839 317.80835
-514.25964 799.34839 317.80835
-508.41589 799.34839 317.80835
-497.59604 813.41431 287.92896
-491.81003 813.41431 287.92896
-486.02399 813.41431 287.92896
-475.72665 826.62769 259.8606
-469.99509 826.62769 259.8606
-468.66605 813.41431 287.92896
-458.53174 826.62769 259.8606
-452.80011 826.62769 259.8606
-451.30798 813.41431 287.92896
-445.52206 813.41431 287.92896
-439.73605 813.41431 287.92896
-433.95001 813.41431 287.92896
-428.16397 813.41431 287.92896
-418.41019 826.62769 259.8606
-412.67862 826.62769 259.8606
-406.94693 826.62769 259.8606
-397.41055 839.84106 231.79224
-391.73325 839.84106 231.79224
-386.05594 839.84106 231.79224
-380.37869 839.84106 231.79224
-374.70139 839.84106 231.79224
-369.02408 839.84106 231.79224
-366.82538 826.62769 259.8606
-361.09372 826.62769 259.8606
-355.36215 826.62769 259.8606
-352.94604 813.41431 287.92896
-347.16 813.41431 287.92896
-125.81916 890.13721 124.95117
-120.34885 890.13721 124.95117
-114.87842 890.13721 124.95117
-108.42614 902.0719 99.599121
-103.00481 902.0719 99.599121
-97.583481 902.0719 99.599121
-92.162254 902.0719 99.599121
-86.740929 902.0719 99.599121
-80.583206 914.00647 74.24707
-75.210968 914.00647 74.24707
-69.838737 914.00647 74.24707
-64.466599 914.00647 74.24707
-58.573627 925.51501 49.800049
-52.775333 937.02332 25.353516
-47.49778 937.02332 25.353516
-42.22023 937.02332 25.353516
-36.942772 937.02332 25.353516
-31.391701 948.10559 1.8122559
-25.931801 959.18774 -21.729004
-20.74542 959.18774 -21.729004
-15.559041 959.18774 -21.729004
-10.37276 959.18774 -21.729004
-5.1863799 959.18774 -21.729004
0 959.18774 -21.729004
5.2318668 948.10559 1.8122559
10.463933 948.10559 1.8122559
15.695801 948.10559 1.8122559
20.927866 948.10559 1.8122559
26.159735 948.10559 1.8122559
31.391602 948.10559 1.8122559
36.623669 948.10559 1.8122559
41.855534 948.10559 1.8122559
47.087601 948.10559 1.8122559
52.775333 937.02332 25.353516
58.052788 937.02332 25.353516
63.330441 937.02332 25.353516
68.607895 937.02332 25.353516
74.548309 925.51501 49.800049
79.8731 925.51501 49.800049
85.197891 925.51501 49.800049
90.522888 925.51501 49.800049
94.99556 937.02332 25.353516
100.27322 937.02332 25.353516
106.49747 925.51501 49.800049
111.82227 925.51501 49.800049
117.14725 925.51501 49.800049
122.47205 925.51501 49.800049
127.79705 925.51501 49.800049
133.12184 925.51501 49.800049
161.75557 991.15564 -89.636475
166.81035 991.15564 -89.636475
170.4346 1001.3853 -111.36694
175.44731 1001.3853 -111.36694
180.46001 1001.3853 -111.36694
187.02988 991.15564 -89.636475
192.08464 991.15564 -89.636475
197.13962 991.15564 -89.636475
202.19441 991.15564 -89.636475
207.24919 991.15564 -89.636475
212.30417 991.15564 -89.636475
217.35895 991.15564 -89.636475
222.41393 991.15564 -89.636475
227.4687 991.15564 -89.636475
232.5235 991.15564 -89.636475
-543.88397 808.08838 285.66821
-538.09796 808.08838 285.66821
-532.31207 808.08838 285.66821
-526.52606 808.08838 285.66821
-520.73999 808.08838 285.66821
-520.10352 793.96924 315.52515
-514.25964 793.96924 315.52515
-508.41589 793.96924 315.52515
-497.59604 808.08838 285.66821
-491.81003 808.08838 285.66821
-486.02399 808.08838 285.66821
-480.23798 808.08838 285.66821
-474.45206 808.08838 285.66821
-468.66605 808.08838 285.66821
-462.88 808.08838 285.66821
-457.09399 808.08838 285.66821
-451.30798 808.08838 285.66821
-445.52206 808.08838 285.66821
-439.73605 808.08838 285.66821
-433.95001 808.08838 285.66821
-428.16397 808.08838 285.66821
-422.37799 808.08838 285.66821
-416.59204 808.08838 285.66821
-406.94693 821.35181 257.62109
-397.41055 834.61523 229.57397
-391.73325 834.61523 229.57397
-386.05594 834.61523 229.57397
-380.37869 834.61523 229.57397
-374.70139 834.61523 229.57397
-369.02408 834.61523 229.57397
-366.82538 821.35181 257.62109
-361.09372 821.35181 257.62109
-355.36215 821.35181 257.62109
-352.94604 808.08838 285.66821
-347.16 808.08838 285.66821
-126.98864 872.69397 149.05151
-121.46747 872.69397 149.05151
-114.87842 885.10181 122.81372
-109.408 885.10181 122.81372
-103.93758 885.10181 122.81372
-98.467163 885.10181 122.81372
-92.162254 897.08167 97.480957
-86.740929 897.08167 97.480957
-81.319603 897.08167 97.480957
-75.898277 897.08167 97.480957
-69.838737 909.0614 72.147949
-64.466599 909.0614 72.147949
-58.573627 920.61353 47.719482
-53.248734 920.61353 47.719482
-47.49778 932.16541 23.291504
-42.22023 932.16541 23.291504
-36.942772 932.16541 23.291504
-31.66522 932.16541 23.291504
-25.931801 954.4137 -23.755371
-20.74542 954.4137 -23.755371
-15.559041 954.4137 -23.755371
-10.37276 954.4137 -23.755371
-5.1863799 954.4137 -23.755371
0 943.28967 -0.23193359
5.2318668 943.28967 -0.23193359
10.463933 943.28967 -0.23193359
15.695801 943.28967 -0.23193359
20.927866 943.28967 -0.23193359
26.159735 943.28967 -0.23193359
31.391602 943.28967 -0.23193359
36.623669 943.28967 -0.23193359
42.22023 932.16541 23.291504
47.497883 932.16541 23.291504
52.775333 932.16541 23.291504
58.052788 932.16541 23.291504
63.330441 932.16541 23.291504
68.607895 932.16541 23.291504
73.885544 932.16541 23.291504
79.163002 932.16541 23.291504
85.197891 920.61353 47.719482
90.522888 920.61353 47.719482
95.847679 920.61353 47.719482
101.17268 920.61353 47.719482
106.49747 920.61353 47.719482
111.82227 920.61353 47.719482
117.14725 920.61353 47.719482
122.47205 920.61353 47.719482
127.79705 920.61353 47.719482
134.30534 909.0614 72.147949
165.42172 996.77112 -113.32544
169.00388 1007.0396 -135.03931
173.9745 1007.0396 -135.03931
180.46001 996.77112 -113.32544
185.4729 996.77112 -113.32544
190.48561 996.77112 -113.32544
197.13962 986.50269 -91.611572
202.19441 986.50269 -91.611572
207.24919 986.50269 -91.611572
212.30417 986.50269 -91.611572
217.35895 986.50269 -91.611572
222.41393 986.50269 -91.611572
227.4687 986.50269 -91.611572
232.5235 986.50269 -91.611572
-543.88397 802.76221 283.40747
-538.09796 802.76221 283.40747
-532.31207 802.76221 283.40747
-526.52606 802.76221 283.40747
-525.94745 788.58984 313.2417
-520.10352 788.58984 313.2417
-514.25964 788.58984 313.2417
-508.41589 788.58984 313.2417
-502.57199 788.58984 313.2417
-491.81003 802.76221 283.40747
-486.02399 802.76221 283.40747
-480.23798 802.76221 283.40747
-474.45206 802.76221 283.40747
-468.66605 802.76221 283.40747
-458.53174 816.07568 255.38159
-452.80011 816.07568 255.38159
-451.30798 802.76221 283.40747
-445.52206 802.76221 283.40747
-439.73605 802.76221 283.40747
-433.95001 802.76221 283.40747
-428.16397 802.76221 283.40747
-422.37799 802.76221 283.40747
-416.59204 802.76221 283.40747
-410.80606 802.76221 283.40747
-401.21527 816.07568 255.38159
-391.73325 829.38916 227.35571
-386.05594 829.38916 227.35571
-380.37869 829.38916 227.35571
-374.70139 829.38916 227.35571
-126.98864 867.61157 146.89404
-121.46747 867.61157 146.89404
-114.87842 880.06616 120.67627
-109.408 880.06616 120.67627
-103.93758 880.06616 120.67627
-98.467163 880.06616 120.67627
-92.162254 892.09119 95.362549
-86.740929 892.09119 95.362549
-81.319603 892.09119 95.362549
-75.898277 892.09119 95.362549
-70.476952 892.09119 95.362549
-65.055725 892.09119 95.362549
-59.094368 904.11621 70.048828
-53.248734 915.71191 45.638916
-47.92384 915.71191 45.638916
-42.598946 915.71191 45.638916
-36.942772 927.30737 21.229492
-31.66522 927.30737 21.229492
-26.159735 938.47351 -2.276123
-20.74542 949.63965 -25.781738
-15.559041 949.63965 -25.781738
-10.37276 949.63965 -25.781738
-5.1863799 949.63965 -25.781738
0 938.47351 -2.276123
5.2318668 938.47351 -2.276123
10.463933 938.47351 -2.276123
15.695801 938.47351 -2.276123
20.927866 938.47351 -2.276123
26.159735 938.47351 -2.276123
31.391602 938.47351 -2.276123
36.942772 927.30737 21.229492
42.22023 927.30737 21.229492
47.497883 927.30737 21.229492
52.775333 927.30737 21.229492
58.052788 927.30737 21.229492
63.330441 927.30737 21.229492
68.607895 927.30737 21.229492
73.885544 927.30737 21.229492
79.163002 927.30737 21.229492
84.44046 927.30737 21.229492
89.718109 927.30737 21.229492
94.99556 927.30737 21.229492
101.17268 915.71191 45.638916
106.49747 915.71191 45.638916
111.82227 915.71191 45.638916
117.14725 915.71191 45.638916
122.47205 915.71191 45.638916
127.79705 915.71191 45.638916
134.30534 904.11621 70.048828
164.03307 1002.4639 -136.98169
169.00388 1002.4639 -136.98169
173.9745 1002.4639 -136.98169
178.94514 1002.4639 -136.98169
185.4729 992.15674 -115.28418
190.48561 992.15674 -115.28418
197.13962 981.84961 -93.58667
202.19441 981.84961 -93.58667
207.24919 981.84961 -93.58667
212.30417 981.84961 -93.58667
217.35895 981.84961 -93.58667
222.41393 981.84961 -93.58667
227.4687 981.84961 -93.58667
-543.88397 797.43628 281.14673
-538.09796 797.43628 281.14673
-537.63519 783.21057 310.95825
-531.79132 783.21057 310.95825
-525.94745 783.21057 310.95825
-520.10352 783.21057 310.95825
-514.25964 783.21057 310.95825
-513.29718 769.41614 339.86621
-502.57199 783.21057 310.95825
-491.81003 797.43628 281.14673
-486.02399 797.43628 281.14673
-480.23798 797.43628 281.14673
-474.45206 797.43628 281.14673
-468.66605 797.43628 281.14673
-458.53174 810.7998 253.14209
-452.80011 810.7998 253.14209
-451.30798 797.43628 281.14673
-445.52206 797.43628 281.14673
-439.73605 797.43628 281.14673
-433.95001 797.43628 281.14673
-428.16397 797.43628 281.14673
-422.37799 797.43628 281.14673
-416.59204 797.43628 281.14673
-410.80606 797.43628 281.14673
-401.21527 810.7998 253.14209
-395.48364 810.7998 253.14209
-126.98864 862.5293 144.73682
-121.46747 862.5293 144.73682
-115.94621 862.5293 144.73682
-109.408 875.03076 118.53882
-103.93758 875.03076 118.53882
-98.467163 875.03076 118.53882
-92.996849 875.03076 118.53882
-86.740929 887.10095 93.244385
-81.319603 887.10095 93.244385
-75.898277 887.10095 93.244385
-70.476952 887.10095 93.244385
-65.055725 887.10095 93.244385
-59.634396 887.10095 93.244385
-53.722134 899.17114 67.949707
-47.92384 910.8103 43.55835
-42.598946 910.8103 43.55835
-36.942772 922.44946 19.167236
-31.66522 922.44946 19.167236
-26.159735 933.65759 -4.3205566
-20.927767 933.65759 -4.3205566
-15.695801 933.65759 -4.3205566
-10.463933 933.65759 -4.3205566
-5.2319665 933.65759 -4.3205566
0 933.65759 -4.3205566
5.2318668 933.65759 -4.3205566
10.463933 933.65759 -4.3205566
15.695801 933.65759 -4.3205566
20.927866 933.65759 -4.3205566
26.159735 933.65759 -4.3205566
31.665119 922.44946 19.167236
36.942772 922.44946 19.167236
42.22023 922.44946 19.167236
47.497883 922.44946 19.167236
52.775333 922.44946 19.167236
57.551338 933.65759 -4.3205566
62.783401 933.65759 -4.3205566
68.015266 933.65759 -4.3205566
73.247337 933.65759 -4.3205566
78.479202 933.65759 -4.3205566
84.44046 922.44946 19.167236
89.718109 922.44946 19.167236
94.99556 922.44946 19.167236
101.17268 910.8103 43.55835
106.49747 910.8103 43.55835
111.82227 910.8103 43.55835
117.14725 910.8103 43.55835
122.47205 910.8103 43.55835
127.79705 910.8103 43.55835
134.30534 899.17114 67.949707
164.03307 997.88843 -138.92383
169.00388 997.88843 -138.92383
173.9745 997.88843 -138.92383
178.94514 997.88843 -138.92383
185.4729 987.54248 -117.24292
190.48561 987.54248 -117.24292
197.13962 977.19666 -95.561768
202.19441 977.19666 -95.561768
207.24919 977.19666 -95.561768
212.30417 977.19666 -95.561768
217.35895 977.19666 -95.561768
222.41393 977.19666 -95.561768
227.4687 977.19666 -95.561768
-543.88397 792.11023 278.88599
-538.09796 792.11023 278.88599
-537.63519 777.8313 308.6748
-531.79132 777.8313 308.6748
-530.99701 763.98511 337.56104
-525.09705 763.98511 337.56104
-519.19702 763.98511 337.56104
-513.29718 763.98511 337.56104
-502.57199 777.8313 308.6748
-496.72812 777.8313 308.6748
-486.02399 792.11023 278.88599
-480.23798 792.11023 278.88599
-474.45206 792.11023 278.88599
-468.66605 792.11023 278.88599
-458.53174 805.52368 250.90259
-452.80011 805.52368 250.90259
-451.30798 792.11023 278.88599
-445.52206 792.11023 278.88599
-439.73605 792.11023 278.88599
-433.95001 792.11023 278.88599
-428.16397 792.11023 278.88599
-426.60175 777.8313 308.6748
-416.59204 792.11023 278.88599
-410.80606 792.11023 278.88599
-121.46747 857.4469 142.57959
-115.94621 857.4469 142.57959
-110.42493 857.4469 142.57959
-104.90366 857.4469 142.57959
-99.382401 857.4469 142.57959
-92.996849 869.99512 116.40137
-87.526421 869.99512 116.40137
-82.056 869.99512 116.40137
-76.585587 869.99512 116.40137
-71.115158 869.99512 116.40137
-65.644844 869.99512 116.40137
-59.634396 882.1106 91.125977
-53.722134 894.22595 65.850586
-47.92384 905.90869 41.477783
-42.598946 905.90869 41.477783
-36.942772 917.59143 17.105225
-31.66522 917.59143 17.105225
-26.159735 928.84143 -6.3647461
-20.927767 928.84143 -6.3647461
-15.695801 928.84143 -6.3647461
-10.463933 928.84143 -6.3647461
-5.2319665 928.84143 -6.3647461
0 928.84143 -6.3647461
5.2318668 928.84143 -6.3647461
10.555108 917.59143 17.105225
15.83256 917.59143 17.105225
21.110216 917.59143 17.105225
26.387667 917.59143 17.105225
31.665119 917.59143 17.105225
36.942772 917.59143 17.105225
42.22023 917.59143 17.105225
47.497883 917.59143 17.105225
52.319469 928.84143 -6.3647461
57.551338 928.84143 -6.3647461
62.783401 928.84143 -6.3647461
68.015266 928.84143 -6.3647461
73.247337 928.84143 -6.3647461
78.479202 928.84143 -6.3647461
84.44046 917.59143 17.105225
89.718109 917.59143 17.105225
94.99556 917.59143 17.105225
101.17268 905.90869 41.477783
106.49747 905.90869 41.477783
111.82227 905.90869 41.477783
117.14725 905.90869 41.477783
122.47205 905.90869 41.477783
127.79705 905.90869 41.477783
165.42172 982.9281 -119.20142
169.00388 993.31287 -140.86597
173.9745 993.31287 -140.86597
178.94514 993.31287 -140.86597
185.4729 982.9281 -119.20142
190.48561 982.9281 -119.20142
197.13962 972.54358 -97.536865
202.19441 972.54358 -97.536865
207.24919 972.54358 -97.536865
212.30417 972.54358 -97.536865
217.35895 972.54358 -97.536865
222.41393 972.54358 -97.536865
227.4687 972.54358 -97.536865
232.5235 972.54358 -97.536865
-543.88397 786.78418 276.62524
-538.09796 786.78418 276.62524
-532.31207 786.78418 276.62524
-536.89703 758.55432 335.25562
-530.99701 758.55432 335.25562
-514.95398 786.78418 276.62524
-509.168 786.78418 276.62524
-508.41589 772.45203 306.3916
-497.59604 786.78418 276.62524
-491.81003 786.78418 276.62524
-486.02399 786.78418 276.62524
-475.72665 800.2478 248.66309
-469.99509 800.2478 248.66309
-468.66605 786.78418 276.62524
-462.88 786.78418 276.62524
-457.09399 786.78418 276.62524
-451.30798 786.78418 276.62524
-445.52206 786.78418 276.62524
-439.73605 786.78418 276.62524
-433.95001 786.78418 276.62524
-432.44565 772.45203 306.3916
-426.60175 772.45203 306.3916
-420.758 772.45203 306.3916
-122.58611 839.76978 166.58032
-115.94621 852.36462 140.42212
-110.42493 852.36462 140.42212
-104.90366 852.36462 140.42212
-99.382401 852.36462 140.42212
-92.996849 864.95972 114.26392
-87.526421 864.95972 114.26392
-82.056 864.95972 114.26392
-76.585587 864.95972 114.26392
-71.115158 864.95972 114.26392
-65.644844 864.95972 114.26392
-59.634396 877.12024 89.007812
-54.21307 877.12024 89.007812
-48.349903 889.28088 63.751465
-42.598946 901.0072 39.397217
-37.274155 901.0072 39.397217
-31.66522 912.73352 15.043213
-26.159735 924.02551 -8.4089355
-20.927767 924.02551 -8.4089355
-15.695801 924.02551 -8.4089355
-10.463933 924.02551 -8.4089355
-5.2319665 924.02551 -8.4089355
0 924.02551 -8.4089355
5.2318668 924.02551 -8.4089355
10.555108 912.73352 15.043213
15.83256 912.73352 15.043213
21.110216 912.73352 15.043213
26.387667 912.73352 15.043213
31.665119 912.73352 15.043213
36.942772 912.73352 15.043213
42.22023 912.73352 15.043213
47.497883 912.73352 15.043213
52.319469 924.02551 -8.4089355
57.551338 924.02551 -8.4089355
62.783401 924.02551 -8.4089355
68.015266 924.02551 -8.4089355
73.247337 924.02551 -8.4089355
78.479202 924.02551 -8.4089355
84.44046 912.73352 15.043213
89.718109 912.73352 15.043213
94.99556 912.73352 15.043213
101.17268 901.0072 39.397217
106.49747 901.0072 39.397217
111.82227 901.0072 39.397217
117.14725 901.0072 39.397217
122.47205 901.0072 39.397217
161.75557 967.89062 -99.511963
166.81035 967.89062 -99.511963
170.4346 978.31396 -121.16016
175.44731 978.31396 -121.16016
180.46001 978.31396 -121.16016
185.4729 978.31396 -121.16016
190.48561 978.31396 -121.16016
197.13962 967.89062 -99.511963
202.19441 967.89062 -99.511963
207.24919 967.89062 -99.511963
212.30417 967.89062 -99.511963
217.35895 967.89062 -99.511963
222.41393 967.89062 -99.511963
227.4687 967.89062 -99.511963
232.5235 967.89062 -99.511963
-538.09796 781.45813 274.3645
-532.31207 781.45813 274.3645
-536.89703 753.12329 332.95044
-530.99701 753.12329 332.95044
-514.95398 781.45813 274.3645
-504.38489 794.97168 246.42334
-498.65332 794.97168 246.42334
-497.59604 781.45813 274.3645
-491.81003 781.45813 274.3645
-486.02399 781.45813 274.3645
-475.72665 794.97168 246.42334
-469.99509 794.97168 246.42334
-468.66605 781.45813 274.3645
-462.88 781.45813 274.3645
-457.09399 781.45813 274.3645
-451.30798 781.45813 274.3645
-445.52206 781.45813 274.3645
-439.73605 781.45813 274.3645
-438.28952 767.07263 304.10815
-436.5975 753.12329 332.95044
-430.69754 753.12329 332.95044
-121.46747 847.28223 138.26489
-115.94621 847.28223 138.26489
-110.42493 847.28223 138.26489
-104.90366 847.28223 138.26489
-99.382401 847.28223 138.26489
-92.996849 859.92407 112.12622
-87.526421 859.92407 112.12622
-82.056 859.92407 112.12622
-76.585587 859.92407 112.12622
-71.115158 859.92407 112.12622
-65.644844 859.92407 112.12622
-60.174423 859.92407 112.12622
-54.21307 872.12988 86.889404
-48.349903 884.33557 61.652344
-42.598946 896.10559 37.31665
-37.274155 896.10559 37.31665
-31.949263 896.10559 37.31665
-26.159735 919.20947 -10.453369
-20.927767 919.20947 -10.453369
-15.695801 919.20947 -10.453369
-10.463933 919.20947 -10.453369
-5.2319665 919.20947 -10.453369
0 919.20947 -10.453369
5.2318668 919.20947 -10.453369
10.463933 919.20947 -10.453369
15.695801 919.20947 -10.453369
21.110216 907.87549 12.980957
26.387667 907.87549 12.980957
31.665119 907.87549 12.980957
36.942772 907.87549 12.980957
42.22023 907.87549 12.980957
47.087601 919.20947 -10.453369
52.319469 919.20947 -10.453369
57.551338 919.20947 -10.453369
62.783401 919.20947 -10.453369
67.422646 930.54333 -33.887695
72.609123 930.54333 -33.887695
78.479202 919.20947 -10.453369
84.44046 907.87549 12.980957
89.718109 907.87549 12.980957
94.99556 907.87549 12.980957
101.17268 896.10559 37.31665
107.44427 884.33557 61.652344
111.82227 896.10559 37.31665
117.14725 896.10559 37.31665
123.56087 884.33557 61.652344
161.75557 963.23755 -101.48706
165.42172 973.69958 -123.1189
170.4346 973.69958 -123.1189
173.9745 984.16174 -144.75049
178.94514 984.16174 -144.75049
187.02988 963.23755 -101.48706
192.08464 963.23755 -101.48706
197.13962 963.23755 -101.48706
202.19441 963.23755 -101.48706
207.24919 963.23755 -101.48706
212.30417 963.23755 -101.48706
219.24377 952.33948 -78.954102
224.34259 952.33948 -78.954102
229.44121 952.33948 -78.954102
234.53983 952.33948 -78.954102
-542.797 747.69238 330.64502
-536.89703 747.69238 330.64502
-530.99701 747.69238 330.64502
-525.09705 747.69238 330.64502
-504.38489 789.6958 244.18384
-498.65332 789.6958 244.18384
-497.59604 776.1322 272.10376
-491.81003 776.1322 272.10376
-486.02399 776.1322 272.10376
-480.23798 776.1322 272.10376
-474.45206 776.1322 272.10376
-473.35269 761.69348 301.82471
-471.99734 747.69238 330.64502
-466.09735 747.69238 330.64502
-460.19739 747.69238 330.64502
-454.29749 747.69238 330.64502
-121.46747 842.19995 136.10767
-115.94621 842.19995 136.10767
-110.42493 842.19995 136.10767
-103.93758 854.88867 109.98901
-98.467163 854.88867 109.98901
-92.996849 854.88867 109.98901
-87.526421 854.88867 109.98901
-82.056 854.88867 109.98901
-76.585587 854.88867 109.98901
-71.115158 854.88867 109.98901
-65.644844 854.88867 109.98901
-60.174423 854.88867 109.98901
-54.21307 867.13965 84.77124
-48.349903 879.39062 59.553467
-42.598946 891.2041 35.236084
-37.274155 891.2041 35.236084
-31.949263 891.2041 35.236084
-26.159735 914.39343 -12.497559
-20.927767 914.39343 -12.497559
-15.695801 914.39343 -12.497559
-10.463933 914.39343 -12.497559
-5.2319665 914.39343 -12.497559
0 914.39343 -12.497559
5.2318668 914.39343 -12.497559
10.463933 914.39343 -12.497559
15.695801 914.39343 -12.497559
21.110216 903.01746 10.918945
26.387667 903.01746 10.918945
31.665119 903.01746 10.918945
36.942772 903.01746 10.918945
42.22023 903.01746 10.918945
47.087601 914.39343 -12.497559
52.319469 914.39343 -12.497559
57.551338 914.39343 -12.497559
62.783401 914.39343 -12.497559
67.422646 925.76929 -35.914062
72.609123 925.76929 -35.914062
78.479202 914.39343 -12.497559
84.44046 903.01746 10.918945
89.718109 903.01746 10.918945
94.99556 903.01746 10.918945
100.27322 903.01746 10.918945
105.55067 903.01746 10.918945
111.82227 891.2041 35.236084
117.14725 891.2041 35.236084
161.75557 958.58459 -103.46216
165.42172 969.08533 -125.07739
170.4346 969.08533 -125.07739
173.9745 979.58618 -146.69263
178.94514 979.58618 -146.69263
187.02988 958.58459 -103.46216
192.08464 958.58459 -103.46216
197.13962 958.58459 -103.46216
202.19441 958.58459 -103.46216
207.24919 958.58459 -103.46216
212.30417 958.58459 -103.46216
219.24377 947.64624 -80.946289
224.34259 947.64624 -80.946289
229.44121 947.64624 -80.946289
234.53983 947.64624 -80.946289
-542.797 742.26135 328.33984
-536.89703 742.26135 328.33984
-530.99701 742.26135 328.33984
-121.46747 837.11768 133.9502
-115.94621 837.11768 133.9502
-110.42493 837.11768 133.9502
-103.93758 849.85303 107.85132
-98.467163 849.85303 107.85132
-92.996849 849.85303 107.85132
-87.526421 849.85303 107.85132
-82.056 849.85303 107.85132
-76.585587 849.85303 107.85132
-71.115158 849.85303 107.85132
-65.644844 849.85303 107.85132
-60.174423 849.85303 107.85132
-54.21307 862.14917 82.653076
-48.349903 874.44531 57.454346
-42.598946 886.30249 33.155518
-37.274155 886.30249 33.155518
-31.949263 886.30249 33.155518
-26.159735 909.57739 -14.541992
-20.927767 909.57739 -14.541992
-15.695801 909.57739 -14.541992
-10.463933 909.57739 -14.541992
-5.2319665 909.57739 -14.541992
0 909.57739 -14.541992
5.2318668 909.57739 -14.541992
10.463933 909.57739 -14.541992
15.695801 909.57739 -14.541992
21.110216 898.15942 8.8569336
26.387667 898.15942 8.8569336
31.665119 898.15942 8.8569336
36.942772 898.15942 8.8569336
42.22023 898.15942 8.8569336
47.497883 898.15942 8.8569336
52.319469 909.57739 -14.541992
57.551338 909.57739 -14.541992
62.783401 909.57739 -14.541992
67.422646 920.99524 -37.940674
72.609123 920.99524 -37.940674
78.479202 909.57739 -14.541992
84.44046 898.15942 8.8569336
89.718109 898.15942 8.8569336
94.99556 898.15942 8.8569336
100.27322 898.15942 8.8569336
105.55067 898.15942 8.8569336
110.82812 898.15942 8.8569336
117.14725 886.30249 33.155518
161.75557 953.93152 -105.43726
165.42172 964.47095 -127.03613
170.4346 964.47095 -127.03613
175.44731 964.47095 -127.03613
181.9749 953.93152 -105.43726
187.02988 953.93152 -105.43726
192.08464 953.93152 -105.43726
197.13962 953.93152 -105.43726
202.19441 953.93152 -105.43726
207.24919 953.93152 -105.43726
212.30417 953.93152 -105.43726
219.24377 942.95276 -82.938477
224.34259 942.95276 -82.938477
229.44121 942.95276 -82.938477
236.55617 931.974 -60.439453
241.69881 931.974 -60.439453
-121.46747 832.03516 131.79297
-115.94621 832.03516 131.79297
-110.42493 832.03516 131.79297
-103.93758 844.8175 105.71387
-98.467163 844.8175 105.71387
-92.996849 844.8175 105.71387
-87.526421 844.8175 105.71387
-82.056 844.8175 105.71387
-76.585587 844.8175 105.71387
-70.476952 857.15881 80.534668
-65.055725 857.15881 80.534668
-60.174423 844.8175 105.71387
-54.21307 857.15881 80.534668
-48.79174 857.15881 80.534668
-42.977669 869.50012 55.355225
-37.274155 881.40088 31.074707
-31.949263 881.40088 31.074707
-26.624367 881.40088 31.074707
-20.927767 904.76123 -16.586182
-15.695801 904.76123 -16.586182
-10.463933 904.76123 -16.586182
-5.2319665 904.76123 -16.586182
0 904.76123 -16.586182
5.2318668 904.76123 -16.586182
10.463933 904.76123 -16.586182
15.695801 904.76123 -16.586182
21.110216 893.30139 6.7946777
26.624367 881.40088 31.074707
31.665119 893.30139 6.7946777
36.942772 893.30139 6.7946777
42.22023 893.30139 6.7946777
47.497883 893.30139 6.7946777
52.775333 893.30139 6.7946777
58.052788 893.30139 6.7946777
62.783401 904.76123 -16.586182
68.015266 904.76123 -16.586182
73.247337 904.76123 -16.586182
78.479202 904.76123 -16.586182
84.44046 893.30139 6.7946777
89.718109 893.30139 6.7946777
94.99556 893.30139 6.7946777
100.27322 893.30139 6.7946777
105.55067 893.30139 6.7946777
110.82812 893.30139 6.7946777
165.42172 959.85669 -128.99487
170.4346 959.85669 -128.99487
175.44731 959.85669 -128.99487
181.9749 949.27844 -107.41235
187.02988 949.27844 -107.41235
192.08464 949.27844 -107.41235
197.13962 949.27844 -107.41235
202.19441 949.27844 -107.41235
207.24919 949.27844 -107.41235
212.30417 949.27844 -107.41235
219.24377 938.25928 -84.930664
224.34259 938.25928 -84.930664
231.41371 927.24023 -62.448975
236.55617 927.24023 -62.448975
241.69881 927.24023 -62.448975
-109.408 839.78198 103.57642
-103.93758 839.78198 103.57642
-98.467163 839.78198 103.57642
-92.996849 839.78198 103.57642
-87.526421 839.78198 103.57642
-81.319603 852.16858 78.416504
-75.898277 852.16858 78.416504
-70.476952 852.16858 78.416504
-65.055725 852.16858 78.416504
-60.174423 839.78198 103.57642
-54.21307 852.16858 78.416504
-48.79174 852.16858 78.416504
-43.370415 852.16858 78.416504
-37.949188 852.16858 78.416504
-32.527863 852.16858 78.416504
-27.106535 852.16858 78.416504
-21.685207 852.16858 78.416504
-15.83256 888.44348 4.732666
-10.555108 888.44348 4.732666
-5.277554 888.44348 4.732666
0 899.94531 -18.630371
5.2318668 899.94531 -18.630371
10.555108 888.44348 4.732666
15.83256 888.44348 4.732666
21.110216 888.44348 4.732666
26.387667 888.44348 4.732666
31.665119 888.44348 4.732666
36.942772 888.44348 4.732666
42.598946 876.49927 28.994141
47.923943 876.49927 28.994141
68.607895 888.44348 4.732666
79.163002 888.44348 4.732666
84.44046 888.44348 4.732666
89.718109 888.44348 4.732666
94.99556 888.44348 4.732666
100.27322 888.44348 4.732666
105.55067 888.44348 4.732666
110.82812 888.44348 4.732666
116.10578 888.44348 4.732666
171.86531 944.62549 -109.38745
176.9201 944.62549 -109.38745
181.9749 944.62549 -109.38745
185.4729 955.24243 -130.95337
190.48561 955.24243 -130.95337
197.13962 944.62549 -109.38745
202.19441 944.62549 -109.38745
207.24919 944.62549 -109.38745
212.30417 944.62549 -109.38745
217.35895 944.62549 -109.38745
224.34259 933.56604 -86.922852
231.41371 922.50659 -64.458252
236.55617 922.50659 -64.458252
241.69881 922.50659 -64.458252
-103.00481 847.1781 76.298096
-97.583481 847.1781 76.298096
-92.162254 847.1781 76.298096
-86.740929 847.1781 76.298096
-81.319603 847.1781 76.298096
-75.898277 847.1781 76.298096
-71.115158 834.74634 101.43896
-65.644844 834.74634 101.43896
-60.174423 834.74634 101.43896
-54.704002 834.74634 101.43896
-48.79174 847.1781 76.298096
-43.370415 847.1781 76.298096
-37.949188 847.1781 76.298096
-31.949263 871.59766 26.913574
-26.387667 883.58545 2.6704102
-21.110115 883.58545 2.6704102
-15.83256 883.58545 2.6704102
-10.555108 883.58545 2.6704102
-5.277554 883.58545 2.6704102
0 895.12927 -20.674805
5.2318668 895.12927 -20.674805
10.555108 883.58545 2.6704102
15.83256 883.58545 2.6704102
21.110216 883.58545 2.6704102
26.387667 883.58545 2.6704102
31.665119 883.58545 2.6704102
36.942772 883.58545 2.6704102
42.598946 871.59766 26.913574
73.885544 883.58545 2.6704102
79.163002 883.58545 2.6704102
84.44046 883.58545 2.6704102
