ply
format ascii 1.0
comment PCL generated
element vertex 1575
property float x
property float y
property float z
element camera 0
property float view_px
property float view_py
property float view_pz
property float x_axisx
property float x_axisy
property float x_axisz
property float y_axisx
property float y_axisy
property float y_axisz
property float z_axisx
property float z_axisy
property float z_axisz
property float focal
property float scalex
property float scaley
property float centerx
property float centery
property int viewportx
property int viewporty
property float k1
property float k2
end_header
-123.42062 1324.8728 106.33618
-117.26991 1332.5027 82.415771
-112.1713 1332.5027 82.415771
-106.15208 1340.1326 58.495361
-101.09721 1340.1326 58.495361
-96.875153 1332.5027 82.415771
-91.776451 1332.5027 82.415771
-86.677826 1332.5027 82.415771
-81.579117 1332.5027 82.415771
-76.4804 1332.5027 82.415771
-71.381691 1332.5027 82.415771
-66.282974 1332.5027 82.415771
-60.658363 1340.1326 58.495361
-55.603481 1340.1326 58.495361
-50.1278 1347.457 35.531738
-45.115002 1347.457 35.531738
-39.765564 1354.7815 12.568359
-34.794941 1354.7815 12.568359
-29.824221 1354.7815 12.568359
-24.651867 1361.801 -9.4384766
-19.721476 1361.801 -9.4384766
-14.791082 1361.801 -9.4384766
-9.9414377 1354.7815 12.568359
-4.9707189 1354.7815 12.568359
0 1354.7815 12.568359
4.970624 1354.7815 12.568359
9.9414377 1354.7815 12.568359
14.912063 1354.7815 12.568359
19.882875 1354.7815 12.568359
24.8535 1354.7815 12.568359
29.824125 1354.7815 12.568359
34.794941 1354.7815 12.568359
40.102203 1347.457 35.531738
45.493816 1340.1326 58.495361
50.986935 1332.5027 82.415771
56.567715 1324.8728 106.33618
62.783401 1309.3081 155.13379
68.607895 1301.373 180.01074
73.885544 1301.373 180.01074
79.163002 1301.373 180.01074
85.197891 1293.1329 205.84473
90.522888 1293.1329 205.84473
94.99556 1301.373 180.01074
100.27322 1301.373 180.01074
104.63894 1309.3081 155.13379
109.8708 1309.3081 155.13379
116.10578 1301.373 180.01074
121.38322 1301.373 180.01074
124.47272 1317.243 130.25659
129.65901 1317.243 130.25659
-176.33623 1312.4689 128.22998
-171.14984 1312.4689 128.22998
-165.96358 1312.4689 128.22998
-160.77718 1312.4689 128.22998
-154.2758 1320.139 104.32666
-149.13327 1320.139 104.32666
-143.99071 1320.139 104.32666
-138.84827 1320.139 104.32666
-133.70572 1320.139 104.32666
-127.46734 1327.8092 80.42334
-122.36862 1327.8092 80.42334
-117.26991 1327.8092 80.42334
-112.1713 1327.8092 80.42334
-107.07259 1327.8092 80.42334
-101.97387 1327.8092 80.42334
-96.875153 1327.8092 80.42334
-91.776451 1327.8092 80.42334
-86.677826 1327.8092 80.42334
-81.579117 1327.8092 80.42334
-76.4804 1327.8092 80.42334
-71.381691 1327.8092 80.42334
-66.282974 1327.8092 80.42334
-61.184364 1327.8092 80.42334
-56.085648 1327.8092 80.42334
-50.548603 1335.4794 56.520264
-45.493725 1335.4794 56.520264
-40.102203 1342.8427 33.573242
-35.089497 1342.8427 33.573242
-30.0767 1342.8427 33.573242
-24.8535 1350.2061 10.626221
-19.882782 1350.2061 10.626221
-14.912063 1350.2061 10.626221
-9.9414377 1350.2061 10.626221
-5.0127993 1342.8427 33.573242
0 1342.8427 33.573242
5.0127034 1342.8427 33.573242
10.025599 1342.8427 33.573242
15.038302 1342.8427 33.573242
20.051197 1342.8427 33.573242
25.0639 1342.8427 33.573242
30.076605 1342.8427 33.573242
35.089497 1342.8427 33.573242
40.102203 1342.8427 33.573242
45.493816 1335.4794 56.520264
50.986935 1327.8092 80.42334
57.551338 1304.4919 153.08936
62.783401 1304.4919 153.08936
68.607895 1296.515 177.94873
73.885544 1296.515 177.94873
79.163002 1296.515 177.94873
84.44046 1296.515 177.94873
89.718109 1296.515 177.94873
94.99556 1296.515 177.94873
99.407066 1304.4919 153.08936
104.63894 1304.4919 153.08936
109.8708 1304.4919 153.08936
114.09996 1312.4689 128.22998
119.28625 1312.4689 128.22998
124.47272 1312.4689 128.22998
129.65901 1312.4689 128.22998
134.84529 1312.4689 128.22998
-186.70898 1307.6948 126.20361
-176.33623 1307.6948 126.20361
-171.14984 1307.6948 126.20361
-165.96358 1307.6948 126.20361
-160.77718 1307.6948 126.20361
-154.2758 1315.4053 102.31738
-149.13327 1315.4053 102.31738
-143.99071 1315.4053 102.31738
-138.84827 1315.4053 102.31738
-132.56606 1323.1158 78.431152
-127.46734 1323.1158 78.431152
-122.36862 1323.1158 78.431152
-117.26991 1323.1158 78.431152
-112.1713 1323.1158 78.431152
-107.07259 1323.1158 78.431152
-101.97387 1323.1158 78.431152
-96.875153 1323.1158 78.431152
-91.776451 1323.1158 78.431152
-86.677826 1323.1158 78.431152
-81.579117 1323.1158 78.431152
-76.4804 1323.1158 78.431152
-71.381691 1323.1158 78.431152
-66.282974 1323.1158 78.431152
-61.184364 1323.1158 78.431152
-56.085648 1323.1158 78.431152
-50.548603 1330.8264 54.545166
-45.493725 1330.8264 54.545166
-40.438843 1330.8264 54.545166
-35.38406 1330.8264 54.545166
-30.329182 1330.8264 54.545166
-25.0639 1338.2283 31.614502
-20.051102 1338.2283 31.614502
-15.038302 1338.2283 31.614502
-10.025599 1338.2283 31.614502
-5.0548792 1330.8264 54.545166
0 1330.8264 54.545166
5.0547829 1330.8264 54.545166
10.109758 1330.8264 54.545166
15.164542 1330.8264 54.545166
20.219517 1330.8264 54.545166
25.274302 1330.8264 54.545166
30.329084 1330.8264 54.545166
35.38406 1330.8264 54.545166
40.438843 1330.8264 54.545166
45.888317 1323.1158 78.431152
50.986935 1323.1158 78.431152
57.551338 1299.676 151.04517
62.783401 1299.676 151.04517
68.607895 1291.657 175.88672
73.885544 1291.657 175.88672
79.163002 1291.657 175.88672
84.44046 1291.657 175.88672
89.718109 1291.657 175.88672
94.175003 1299.676 151.04517
99.407066 1299.676 151.04517
104.63894 1299.676 151.04517
109.8708 1299.676 151.04517
114.09996 1307.6948 126.20361
119.28625 1307.6948 126.20361
124.47272 1307.6948 126.20361
129.65901 1307.6948 126.20361
134.84529 1307.6948 126.20361
141.2626 1299.676 151.04517
-186.70898 1302.9207 124.177
-181.52261 1302.9207 124.177
-176.33623 1302.9207 124.177
-171.14984 1302.9207 124.177
-164.5609 1310.6716 100.30811
-159.41835 1310.6716 100.30811
-154.2758 1310.6716 100.30811
-149.13327 1310.6716 100.30811
-143.99071 1310.6716 100.30811
-137.66476 1318.4225 76.438965
-132.56606 1318.4225 76.438965
-127.46734 1318.4225 76.438965
-122.36862 1318.4225 76.438965
-117.26991 1318.4225 76.438965
-112.1713 1318.4225 76.438965
-107.07259 1318.4225 76.438965
-101.97387 1318.4225 76.438965
-96.875153 1318.4225 76.438965
-91.776451 1318.4225 76.438965
-86.677826 1318.4225 76.438965
-81.579117 1318.4225 76.438965
-76.4804 1318.4225 76.438965
-71.381691 1318.4225 76.438965
-66.282974 1318.4225 76.438965
-61.184364 1318.4225 76.438965
-56.085648 1318.4225 76.438965
-50.986935 1318.4225 76.438965
-45.493725 1326.1733 52.570068
-40.438843 1326.1733 52.570068
-35.38406 1326.1733 52.570068
-30.329182 1326.1733 52.570068
-25.274302 1326.1733 52.570068
-20.051102 1333.614 29.655762
-15.038302 1333.614 29.655762
-10.109758 1326.1733 52.570068
-5.0548792 1326.1733 52.570068
0 1326.1733 52.570068
5.0547829 1326.1733 52.570068
10.109758 1326.1733 52.570068
15.164542 1326.1733 52.570068
20.219517 1326.1733 52.570068
25.493467 1318.4225 76.438965
30.329084 1326.1733 52.570068
35.38406 1326.1733 52.570068
40.789509 1318.4225 76.438965
45.888317 1318.4225 76.438965
50.986935 1318.4225 76.438965
56.567715 1310.6716 100.30811
62.236362 1302.9207 124.177
67.422646 1302.9207 124.177
73.247337 1294.86 149.00073
79.163002 1286.7991 173.82446
84.44046 1286.7991 173.82446
88.943138 1294.86 149.00073
94.175003 1294.86 149.00073
98.540924 1302.9207 124.177
103.7272 1302.9207 124.177
108.91348 1302.9207 124.177
114.09996 1302.9207 124.177
119.28625 1302.9207 124.177
124.47272 1302.9207 124.177
129.65901 1302.9207 124.177
136.03053 1294.86 149.00073
141.2626 1294.86 149.00073
-186.70898 1298.1467 122.15063
-181.52261 1298.1467 122.15063
-176.33623 1298.1467 122.15063
-171.14984 1298.1467 122.15063
-164.5609 1305.938 98.298828
-159.41835 1305.938 98.298828
-154.2758 1305.938 98.298828
-149.13327 1305.938 98.298828
-143.99071 1305.938 98.298828
-137.66476 1313.7291 74.446777
-131.42639 1321.5203 50.594971
-126.37151 1321.5203 50.594971
-121.31662 1321.5203 50.594971
-116.26175 1321.5203 50.594971
-112.1713 1313.7291 74.446777
-106.15208 1321.5203 50.594971
-101.09721 1321.5203 50.594971
-96.04232 1321.5203 50.594971
-91.776451 1313.7291 74.446777
-86.677826 1313.7291 74.446777
-81.579117 1313.7291 74.446777
-76.4804 1313.7291 74.446777
-71.381691 1313.7291 74.446777
-66.282974 1313.7291 74.446777
-61.184364 1313.7291 74.446777
-56.085648 1313.7291 74.446777
-50.986935 1313.7291 74.446777
-45.493725 1321.5203 50.594971
-40.438843 1321.5203 50.594971
-35.690891 1313.7291 74.446777
-30.592182 1313.7291 74.446777
-25.274302 1321.5203 50.594971
-20.219421 1321.5203 50.594971
-15.164542 1321.5203 50.594971
-10.109758 1321.5203 50.594971
-5.0548792 1321.5203 50.594971
0 1321.5203 50.594971
5.0547829 1321.5203 50.594971
10.109758 1321.5203 50.594971
15.164542 1321.5203 50.594971
20.394852 1313.7291 74.446777
25.493467 1313.7291 74.446777
30.592083 1313.7291 74.446777
35.690891 1313.7291 74.446777
40.789509 1313.7291 74.446777
45.888317 1313.7291 74.446777
50.986935 1313.7291 74.446777
56.567715 1305.938 98.298828
61.710361 1305.938 98.298828
67.422646 1298.1467 122.15063
72.609123 1298.1467 122.15063
78.479202 1290.0439 146.95654
83.711067 1290.0439 146.95654
88.943138 1290.0439 146.95654
93.354446 1298.1467 122.15063
97.708092 1305.938 98.298828
102.85054 1305.938 98.298828
107.99298 1305.938 98.298828
113.13563 1305.938 98.298828
118.27808 1305.938 98.298828
124.47272 1298.1467 122.15063
129.65901 1298.1467 122.15063
134.84529 1298.1467 122.15063
-190.27354 1301.2041 96.289307
-185.13098 1301.2041 96.289307
-179.98843 1301.2041 96.289307
-174.8459 1301.2041 96.289307
-169.70334 1301.2041 96.289307
-164.5609 1301.2041 96.289307
-159.41835 1301.2041 96.289307
-154.2758 1301.2041 96.289307
-149.13327 1301.2041 96.289307
-143.99071 1301.2041 96.289307
-137.66476 1309.0358 72.45459
-131.42639 1316.8673 48.619873
-126.37151 1316.8673 48.619873
-121.31662 1316.8673 48.619873
-116.26175 1316.8673 48.619873
-112.1713 1309.0358 72.45459
-106.15208 1316.8673 48.619873
-101.09721 1316.8673 48.619873
-96.04232 1316.8673 48.619873
-91.776451 1309.0358 72.45459
-86.677826 1309.0358 72.45459
-81.579117 1309.0358 72.45459
-76.4804 1309.0358 72.45459
-71.381691 1309.0358 72.45459
-66.282974 1309.0358 72.45459
-61.184364 1309.0358 72.45459
-56.085648 1309.0358 72.45459
-50.986935 1309.0358 72.45459
-45.888226 1309.0358 72.45459
-40.789509 1309.0358 72.45459
-35.690891 1309.0358 72.45459
-30.592182 1309.0358 72.45459
-25.274302 1316.8673 48.619873
-20.219421 1316.8673 48.619873
-15.164542 1316.8673 48.619873
-10.109758 1316.8673 48.619873
-5.0548792 1316.8673 48.619873
0 1316.8673 48.619873
5.0547829 1316.8673 48.619873
10.109758 1316.8673 48.619873
15.164542 1316.8673 48.619873
20.219517 1316.8673 48.619873
25.493467 1309.0358 72.45459
30.592083 1309.0358 72.45459
35.690891 1309.0358 72.45459
40.789509 1309.0358 72.45459
45.888317 1309.0358 72.45459
50.986935 1309.0358 72.45459
56.567715 1301.2041 96.289307
61.710361 1301.2041 96.289307
67.422646 1293.3726 120.12427
72.609123 1293.3726 120.12427
78.479202 1285.2279 144.91235
83.711067 1285.2279 144.91235
88.943138 1285.2279 144.91235
93.354446 1293.3726 120.12427
97.708092 1301.2041 96.289307
102.85054 1301.2041 96.289307
107.99298 1301.2041 96.289307
113.13563 1301.2041 96.289307
118.27808 1301.2041 96.289307
124.47272 1293.3726 120.12427
129.65901 1293.3726 120.12427
134.84529 1293.3726 120.12427
-190.27354 1296.4705 94.280029
-185.13098 1296.4705 94.280029
-179.98843 1296.4705 94.280029
-174.8459 1296.4705 94.280029
-169.70334 1296.4705 94.280029
-164.5609 1296.4705 94.280029
-159.41835 1296.4705 94.280029
-154.2758 1296.4705 94.280029
-149.13327 1296.4705 94.280029
-143.99071 1296.4705 94.280029
-137.66476 1304.3424 70.462402
-132.56606 1304.3424 70.462402
-126.37151 1312.2144 46.644775
-121.31662 1312.2144 46.644775
-117.26991 1304.3424 70.462402
-112.1713 1304.3424 70.462402
-106.15208 1312.2144 46.644775
-101.09721 1312.2144 46.644775
-96.875153 1304.3424 70.462402
-91.776451 1304.3424 70.462402
-86.677826 1304.3424 70.462402
-81.579117 1304.3424 70.462402
-76.4804 1304.3424 70.462402
-71.381691 1304.3424 70.462402
-66.282974 1304.3424 70.462402
-61.184364 1304.3424 70.462402
-56.085648 1304.3424 70.462402
-50.986935 1304.3424 70.462402
-45.888226 1304.3424 70.462402
-40.789509 1304.3424 70.462402
-35.690891 1304.3424 70.462402
-30.592182 1304.3424 70.462402
-25.274302 1312.2144 46.644775
-20.219421 1312.2144 46.644775
-15.164542 1312.2144 46.644775
-10.109758 1312.2144 46.644775
-5.0548792 1312.2144 46.644775
0 1312.2144 46.644775
5.0547829 1312.2144 46.644775
10.109758 1312.2144 46.644775
15.164542 1312.2144 46.644775
20.219517 1312.2144 46.644775
25.493467 1304.3424 70.462402
30.592083 1304.3424 70.462402
35.690891 1304.3424 70.462402
40.789509 1304.3424 70.462402
45.888317 1304.3424 70.462402
51.42527 1296.4705 94.280029
56.567715 1296.4705 94.280029
62.236362 1288.5986 118.09766
67.422646 1288.5986 118.09766
73.247337 1280.4119 142.86792
78.479202 1280.4119 142.86792
83.711067 1280.4119 142.86792
88.943138 1280.4119 142.86792
93.354446 1288.5986 118.09766
97.708092 1296.4705 94.280029
102.85054 1296.4705 94.280029
107.99298 1296.4705 94.280029
113.13563 1296.4705 94.280029
118.27808 1296.4705 94.280029
124.47272 1288.5986 118.09766
129.65901 1288.5986 118.09766
134.84529 1288.5986 118.09766
-197.08165 1283.8245 116.07129
-190.27354 1291.7368 92.270752
-185.13098 1291.7368 92.270752
-179.98843 1291.7368 92.270752
-174.8459 1291.7368 92.270752
-169.70334 1291.7368 92.270752
-164.5609 1291.7368 92.270752
-159.41835 1291.7368 92.270752
-154.2758 1291.7368 92.270752
-149.13327 1291.7368 92.270752
-143.99071 1291.7368 92.270752
-137.66476 1299.649 68.470215
-132.56606 1299.649 68.470215
-126.37151 1307.5613 44.669678
-121.31662 1307.5613 44.669678
-117.26991 1299.649 68.470215
-112.1713 1299.649 68.470215
-107.07259 1299.649 68.470215
-101.97387 1299.649 68.470215
-96.875153 1299.649 68.470215
-91.776451 1299.649 68.470215
-86.677826 1299.649 68.470215
-81.579117 1299.649 68.470215
-76.4804 1299.649 68.470215
-71.381691 1299.649 68.470215
-66.282974 1299.649 68.470215
-61.184364 1299.649 68.470215
-56.085648 1299.649 68.470215
-50.986935 1299.649 68.470215
-45.888226 1299.649 68.470215
-40.789509 1299.649 68.470215
-35.690891 1299.649 68.470215
-30.592182 1299.649 68.470215
-25.274302 1307.5613 44.669678
-20.219421 1307.5613 44.669678
-15.164542 1307.5613 44.669678
-10.109758 1307.5613 44.669678
-5.0548792 1307.5613 44.669678
0 1307.5613 44.669678
5.0547829 1307.5613 44.669678
10.109758 1307.5613 44.669678
15.164542 1307.5613 44.669678
20.219517 1307.5613 44.669678
25.493467 1299.649 68.470215
30.592083 1299.649 68.470215
35.690891 1299.649 68.470215
40.789509 1299.649 68.470215
45.888317 1299.649 68.470215
51.42527 1291.7368 92.270752
57.049881 1283.8245 116.07129
62.236362 1283.8245 116.07129
67.422646 1283.8245 116.07129
72.609123 1283.8245 116.07129
77.795403 1283.8245 116.07129
83.711067 1275.5958 140.82373
88.168159 1283.8245 116.07129
93.354446 1283.8245 116.07129
97.708092 1291.7368 92.270752
102.85054 1291.7368 92.270752
108.91348 1283.8245 116.07129
114.09996 1283.8245 116.07129
119.28625 1283.8245 116.07129
124.47272 1283.8245 116.07129
129.65901 1283.8245 116.07129
134.84529 1283.8245 116.07129
141.2626 1275.5958 140.82373
-195.41597 1287.0031 90.26123
-190.27354 1287.0031 90.26123
-185.13098 1287.0031 90.26123
-179.98843 1287.0031 90.26123
-174.8459 1287.0031 90.26123
-169.70334 1287.0031 90.26123
-164.5609 1287.0031 90.26123
-159.41835 1287.0031 90.26123
-154.2758 1287.0031 90.26123
-149.13327 1287.0031 90.26123
-143.99071 1287.0031 90.26123
-137.66476 1294.9556 66.478027
-132.56606 1294.9556 66.478027
-126.37151 1302.9082 42.69458
-121.31662 1302.9082 42.69458
-117.26991 1294.9556 66.478027
-111.20696 1302.9082 42.69458
-106.15208 1302.9082 42.69458
-101.09721 1302.9082 42.69458
-96.875153 1294.9556 66.478027
-91.776451 1294.9556 66.478027
-86.677826 1294.9556 66.478027
-81.579117 1294.9556 66.478027
-76.4804 1294.9556 66.478027
-71.381691 1294.9556 66.478027
-66.282974 1294.9556 66.478027
-61.184364 1294.9556 66.478027
-56.085648 1294.9556 66.478027
-50.986935 1294.9556 66.478027
-45.888226 1294.9556 66.478027
-40.789509 1294.9556 66.478027
-35.690891 1294.9556 66.478027
-30.592182 1294.9556 66.478027
-25.274302 1302.9082 42.69458
-20.219421 1302.9082 42.69458
-15.164542 1302.9082 42.69458
-10.109758 1302.9082 42.69458
-5.0548792 1302.9082 42.69458
0 1302.9082 42.69458
5.0547829 1302.9082 42.69458
10.109758 1302.9082 42.69458
15.164542 1302.9082 42.69458
20.219517 1302.9082 42.69458
25.493467 1294.9556 66.478027
30.592083 1294.9556 66.478027
35.690891 1294.9556 66.478027
40.789509 1294.9556 66.478027
45.888317 1294.9556 66.478027
51.42527 1287.0031 90.26123
56.085552 1294.9556 66.478027
61.184364 1294.9556 66.478027
66.852806 1287.0031 90.26123
71.995453 1287.0031 90.26123
77.137901 1287.0031 90.26123
82.981682 1279.0504 114.04468
88.168159 1279.0504 114.04468
93.354446 1279.0504 114.04468
98.540924 1279.0504 114.04468
103.7272 1279.0504 114.04468
108.91348 1279.0504 114.04468
114.09996 1279.0504 114.04468
119.28625 1279.0504 114.04468
123.42072 1287.0031 90.26123
128.56317 1287.0031 90.26123
134.84529 1279.0504 114.04468
141.2626 1270.7798 138.7793
-226.27116 1282.2693 88.251953
-221.12862 1282.2693 88.251953
-215.98618 1282.2693 88.251953
-210.84361 1282.2693 88.251953
-205.70108 1282.2693 88.251953
-200.55853 1282.2693 88.251953
-195.41597 1282.2693 88.251953
-190.27354 1282.2693 88.251953
-185.13098 1282.2693 88.251953
-179.98843 1282.2693 88.251953
-173.35556 1290.2622 64.48584
-168.25684 1290.2622 64.48584
-163.15823 1290.2622 64.48584
-159.41835 1282.2693 88.251953
-154.2758 1282.2693 88.251953
-149.13327 1282.2693 88.251953
-143.99071 1282.2693 88.251953
-138.84827 1282.2693 88.251953
-132.56606 1290.2622 64.48584
-127.46734 1290.2622 64.48584
-122.36862 1290.2622 64.48584
-117.26991 1290.2622 64.48584
-111.20696 1298.2552 40.719482
-105.2684 1305.9283 17.904053
-100.2556 1305.9283 17.904053
-96.04232 1298.2552 40.719482
-91.776451 1290.2622 64.48584
-86.677826 1290.2622 64.48584
-81.579117 1290.2622 64.48584
-76.4804 1290.2622 64.48584
-71.381691 1290.2622 64.48584
-66.282974 1290.2622 64.48584
-61.184364 1290.2622 64.48584
-56.085648 1290.2622 64.48584
-50.986935 1290.2622 64.48584
-45.888226 1290.2622 64.48584
-40.789509 1290.2622 64.48584
-35.690891 1290.2622 64.48584
-30.592182 1290.2622 64.48584
-25.274302 1298.2552 40.719482
-20.219421 1298.2552 40.719482
-15.164542 1298.2552 40.719482
-10.109758 1298.2552 40.719482
-5.0548792 1298.2552 40.719482
0 1298.2552 40.719482
5.0547829 1298.2552 40.719482
10.109758 1298.2552 40.719482
15.296041 1290.2622 64.48584
20.394852 1290.2622 64.48584
25.493467 1290.2622 64.48584
30.592083 1290.2622 64.48584
35.38406 1298.2552 40.719482
40.438843 1298.2552 40.719482
45.888317 1290.2622 64.48584
50.986935 1290.2622 64.48584
56.085552 1290.2622 64.48584
61.184364 1290.2622 64.48584
66.282974 1290.2622 64.48584
71.995453 1282.2693 88.251953
77.137901 1282.2693 88.251953
82.981682 1274.2764 112.01831
88.168159 1274.2764 112.01831
93.354446 1274.2764 112.01831
98.540924 1274.2764 112.01831
103.7272 1274.2764 112.01831
107.99298 1282.2693 88.251953
113.13563 1282.2693 88.251953
118.27808 1282.2693 88.251953
123.42072 1282.2693 88.251953
128.56317 1282.2693 88.251953
133.70561 1282.2693 88.251953
140.03175 1274.2764 112.01831
146.49446 1265.9637 136.73511
-226.27116 1277.5356 86.242676
-221.12862 1277.5356 86.242676
-215.98618 1277.5356 86.242676
-210.84361 1277.5356 86.242676
-205.70108 1277.5356 86.242676
-200.55853 1277.5356 86.242676
-195.41597 1277.5356 86.242676
-190.27354 1277.5356 86.242676
-185.13098 1277.5356 86.242676
-179.98843 1277.5356 86.242676
-173.35556 1285.5688 62.493408
-168.25684 1285.5688 62.493408
-163.15823 1285.5688 62.493408
-159.41835 1277.5356 86.242676
-154.2758 1277.5356 86.242676
-149.13327 1277.5356 86.242676
-143.99071 1277.5356 86.242676
-138.84827 1277.5356 86.242676
-133.70572 1277.5356 86.242676
-127.46734 1285.5688 62.493408
-121.31662 1293.6023 38.744385
-116.26175 1293.6023 38.744385
-110.2812 1301.3141 15.945312
-105.2684 1301.3141 15.945312
-100.2556 1301.3141 15.945312
-96.04232 1293.6023 38.744385
-90.98745 1293.6023 38.744385
-86.677826 1285.5688 62.493408
-81.579117 1285.5688 62.493408
-76.4804 1285.5688 62.493408
-71.381691 1285.5688 62.493408
-66.282974 1285.5688 62.493408
-61.184364 1285.5688 62.493408
-56.085648 1285.5688 62.493408
-50.986935 1285.5688 62.493408
-45.888226 1285.5688 62.493408
-40.789509 1285.5688 62.493408
-35.690891 1285.5688 62.493408
-30.592182 1285.5688 62.493408
-25.274302 1293.6023 38.744385
-20.219421 1293.6023 38.744385
-15.296041 1285.5688 62.493408
-10.197426 1285.5688 62.493408
-5.0987129 1285.5688 62.493408
0 1285.5688 62.493408
5.0986156 1285.5688 62.493408
10.197426 1285.5688 62.493408
15.296041 1285.5688 62.493408
20.394852 1285.5688 62.493408
25.493467 1285.5688 62.493408
30.329084 1293.6023 38.744385
35.38406 1293.6023 38.744385
40.438843 1293.6023 38.744385
45.888317 1285.5688 62.493408
50.986935 1285.5688 62.493408
56.085552 1285.5688 62.493408
61.184364 1285.5688 62.493408
66.282974 1285.5688 62.493408
71.995453 1277.5356 86.242676
77.137901 1277.5356 86.242676
82.28035 1277.5356 86.242676
87.422989 1277.5356 86.242676
93.354446 1269.5023 109.99194
98.540924 1269.5023 109.99194
103.7272 1269.5023 109.99194
107.99298 1277.5356 86.242676
113.13563 1277.5356 86.242676
118.27808 1277.5356 86.242676
123.42072 1277.5356 86.242676
128.56317 1277.5356 86.242676
133.70561 1277.5356 86.242676
140.03175 1269.5023 109.99194
145.21805 1269.5023 109.99194
150.40451 1269.5023 109.99194
156.9584 1261.1477 134.69092
-227.4687 1288.9492 36.769287
-222.41383 1288.9492 36.769287
-219.24377 1280.8755 60.501221
-214.14517 1280.8755 60.501221
-210.84361 1272.8019 84.233398
-205.70108 1272.8019 84.233398
-200.55853 1272.8019 84.233398
-195.41597 1272.8019 84.233398
-190.27354 1272.8019 84.233398
-185.13098 1272.8019 84.233398
-179.98843 1272.8019 84.233398
-173.35556 1280.8755 60.501221
-168.25684 1280.8755 60.501221
-163.15823 1280.8755 60.501221
-159.41835 1272.8019 84.233398
-154.2758 1272.8019 84.233398
-149.13327 1272.8019 84.233398
-143.99071 1272.8019 84.233398
-138.84827 1272.8019 84.233398
-133.70572 1272.8019 84.233398
-128.56317 1272.8019 84.233398
-121.31662 1288.9492 36.769287
-116.26175 1288.9492 36.769287
-110.2812 1296.6997 13.986572
-105.2684 1296.6997 13.986572
-100.2556 1296.6997 13.986572
-96.04232 1288.9492 36.769287
-90.98745 1288.9492 36.769287
-85.932655 1288.9492 36.769287
-80.877785 1288.9492 36.769287
-76.4804 1280.8755 60.501221
-71.381691 1280.8755 60.501221
-66.282974 1280.8755 60.501221
-61.184364 1280.8755 60.501221
-56.085648 1280.8755 60.501221
-50.986935 1280.8755 60.501221
-45.888226 1280.8755 60.501221
-40.789509 1280.8755 60.501221
-35.997726 1272.8019 84.233398
-30.855181 1272.8019 84.233398
-25.274302 1288.9492 36.769287
-20.219421 1288.9492 36.769287
-15.296041 1280.8755 60.501221
-10.197426 1280.8755 60.501221
-5.0987129 1280.8755 60.501221
0 1280.8755 60.501221
5.0986156 1280.8755 60.501221
10.197426 1280.8755 60.501221
15.296041 1280.8755 60.501221
20.394852 1280.8755 60.501221
30.592083 1280.8755 60.501221
35.690891 1280.8755 60.501221
40.789509 1280.8755 60.501221
45.888317 1280.8755 60.501221
50.986935 1280.8755 60.501221
56.085552 1280.8755 60.501221
61.184364 1280.8755 60.501221
66.852806 1272.8019 84.233398
71.995453 1272.8019 84.233398
77.137901 1272.8019 84.233398
82.28035 1272.8019 84.233398
87.422989 1272.8019 84.233398
93.354446 1264.7283 107.96533
98.540924 1264.7283 107.96533
103.7272 1264.7283 107.96533
108.91348 1264.7283 107.96533
114.09996 1264.7283 107.96533
119.28625 1264.7283 107.96533
123.42072 1272.8019 84.233398
128.56317 1272.8019 84.233398
133.70561 1272.8019 84.233398
140.03175 1264.7283 107.96533
145.21805 1264.7283 107.96533
150.40451 1264.7283 107.96533
156.9584 1256.3318 132.64648
162.19028 1256.3318 132.64648
168.8811 1247.9351 157.32788
-227.4687 1284.2961 34.794189
-222.41383 1284.2961 34.794189
-219.24377 1276.1821 58.509033
-214.14517 1276.1821 58.509033
-209.04645 1276.1821 58.509033
-205.70108 1268.0681 82.223877
-200.55853 1268.0681 82.223877
-193.75031 1276.1821 58.509033
-188.6517 1276.1821 58.509033
-183.55298 1276.1821 58.509033
-178.45427 1276.1821 58.509033
-173.35556 1276.1821 58.509033
-168.25684 1276.1821 58.509033
-163.15823 1276.1821 58.509033
-159.41835 1268.0681 82.223877
-152.9608 1276.1821 58.509033
-147.86209 1276.1821 58.509033
-142.76338 1276.1821 58.509033
-137.66476 1276.1821 58.509033
-133.70572 1268.0681 82.223877
-129.65901 1259.9541 105.93896
-123.42062 1268.0681 82.223877
-116.26175 1284.2961 34.794189
-110.2812 1292.0854 12.028076
-105.2684 1292.0854 12.028076
-100.2556 1292.0854 12.028076
-96.04232 1284.2961 34.794189
-90.98745 1284.2961 34.794189
-85.932655 1284.2961 34.794189
-80.877785 1284.2961 34.794189
-76.4804 1276.1821 58.509033
-71.381691 1276.1821 58.509033
-66.282974 1276.1821 58.509033
-61.184364 1276.1821 58.509033
-56.085648 1276.1821 58.509033
-50.986935 1276.1821 58.509033
-45.888226 1276.1821 58.509033
-41.140175 1268.0681 82.223877
-35.997726 1268.0681 82.223877
-30.855181 1268.0681 82.223877
-25.493467 1276.1821 58.509033
-20.394754 1276.1821 58.509033
-15.296041 1276.1821 58.509033
-10.197426 1276.1821 58.509033
-5.0987129 1276.1821 58.509033
0 1276.1821 58.509033
5.0986156 1276.1821 58.509033
10.197426 1276.1821 58.509033
15.296041 1276.1821 58.509033
20.394852 1276.1821 58.509033
25.274302 1284.2961 34.794189
35.690891 1276.1821 58.509033
40.789509 1276.1821 58.509033
45.888317 1276.1821 58.509033
50.986935 1276.1821 58.509033
56.085552 1276.1821 58.509033
61.184364 1276.1821 58.509033
66.852806 1268.0681 82.223877
71.995453 1268.0681 82.223877
77.137901 1268.0681 82.223877
82.28035 1268.0681 82.223877
87.422989 1268.0681 82.223877
93.354446 1259.9541 105.93896
98.540924 1259.9541 105.93896
103.7272 1259.9541 105.93896
108.91348 1259.9541 105.93896
114.09996 1259.9541 105.93896
119.28625 1259.9541 105.93896
123.42072 1268.0681 82.223877
128.56317 1268.0681 82.223877
134.84529 1259.9541 105.93896
140.03175 1259.9541 105.93896
145.21805 1259.9541 105.93896
151.72653 1251.5156 130.60229
156.9584 1251.5156 130.60229
162.19028 1251.5156 130.60229
167.42235 1251.5156 130.60229
171.14984 1259.9541 105.93896
176.33632 1259.9541 105.93896
-224.3425 1271.4888 56.516846
-219.24377 1271.4888 56.516846
-214.14517 1271.4888 56.516846
-209.04645 1271.4888 56.516846
-203.94774 1271.4888 56.516846
-198.84903 1271.4888 56.516846
-193.75031 1271.4888 56.516846
-188.6517 1271.4888 56.516846
-183.55298 1271.4888 56.516846
-178.45427 1271.4888 56.516846
-173.35556 1271.4888 56.516846
-168.25684 1271.4888 56.516846
-163.15823 1271.4888 56.516846
-159.41835 1263.3345 80.2146
-152.9608 1271.4888 56.516846
-147.86209 1271.4888 56.516846
-142.76338 1271.4888 56.516846
-137.66476 1271.4888 56.516846
-133.70572 1263.3345 80.2146
-129.65901 1255.1801 103.91235
-123.42062 1263.3345 80.2146
-117.26991 1271.4888 56.516846
-111.20696 1279.6432 32.819092
-105.2684 1287.4712 10.069336
-100.2556 1287.4712 10.069336
-96.04232 1279.6432 32.819092
-90.98745 1279.6432 32.819092
-85.932655 1279.6432 32.819092
-80.877785 1279.6432 32.819092
-75.822906 1279.6432 32.819092
-70.768028 1279.6432 32.819092
-66.282974 1271.4888 56.516846
-61.184364 1271.4888 56.516846
-56.085648 1271.4888 56.516846
-50.986935 1271.4888 56.516846
-45.888226 1271.4888 56.516846
-41.140175 1263.3345 80.2146
-35.997726 1263.3345 80.2146
-30.855181 1263.3345 80.2146
-25.493467 1271.4888 56.516846
-20.394754 1271.4888 56.516846
-15.296041 1271.4888 56.516846
-10.197426 1271.4888 56.516846
-5.0987129 1271.4888 56.516846
0 1271.4888 56.516846
5.0986156 1271.4888 56.516846
10.109758 1279.6432 32.819092
15.164542 1279.6432 32.819092
20.219517 1279.6432 32.819092
25.274302 1279.6432 32.819092
35.690891 1271.4888 56.516846
40.789509 1271.4888 56.516846
45.493816 1279.6432 32.819092
50.548603 1279.6432 32.819092
55.603386 1279.6432 32.819092
61.184364 1271.4888 56.516846
66.282974 1271.4888 56.516846
71.995453 1263.3345 80.2146
77.137901 1263.3345 80.2146
82.28035 1263.3345 80.2146
87.422989 1263.3345 80.2146
92.565445 1263.3345 80.2146
98.540924 1255.1801 103.91235
103.7272 1255.1801 103.91235
108.91348 1255.1801 103.91235
113.13563 1263.3345 80.2146
118.27808 1263.3345 80.2146
123.42072 1263.3345 80.2146
128.56317 1263.3345 80.2146
133.70561 1263.3345 80.2146
140.03175 1255.1801 103.91235
145.21805 1255.1801 103.91235
150.40451 1255.1801 103.91235
156.9584 1246.6997 128.55811
162.19028 1246.6997 128.55811
167.42235 1246.6997 128.55811
171.14984 1255.1801 103.91235
176.33632 1255.1801 103.91235
-229.44121 1266.7954 54.524658
-224.3425 1266.7954 54.524658
-219.24377 1266.7954 54.524658
-214.14517 1266.7954 54.524658
-209.04645 1266.7954 54.524658
-203.94774 1266.7954 54.524658
-198.84903 1266.7954 54.524658
-193.75031 1266.7954 54.524658
-188.6517 1266.7954 54.524658
-183.55298 1266.7954 54.524658
-178.45427 1266.7954 54.524658
-173.35556 1266.7954 54.524658
-168.25684 1266.7954 54.524658
-163.15823 1266.7954 54.524658
-158.05951 1266.7954 54.524658
-154.2758 1258.6007 78.205322
-147.86209 1266.7954 54.524658
-142.76338 1266.7954 54.524658
-137.66476 1266.7954 54.524658
-133.70572 1258.6007 78.205322
-129.65901 1250.406 101.88599
-123.42062 1258.6007 78.205322
-117.26991 1266.7954 54.524658
-111.20696 1274.9902 30.843994
-105.2684 1282.8569 8.1108398
-100.2556 1282.8569 8.1108398
-95.242805 1282.8569 8.1108398
-90.230003 1282.8569 8.1108398
-85.2173 1282.8569 8.1108398
-80.877785 1274.9902 30.843994
-75.822906 1274.9902 30.843994
-70.768028 1274.9902 30.843994
-66.282974 1266.7954 54.524658
-61.184364 1266.7954 54.524658
-56.085648 1266.7954 54.524658
-50.986935 1266.7954 54.524658
-45.888226 1266.7954 54.524658
-40.789509 1266.7954 54.524658
-35.690891 1266.7954 54.524658
-30.855181 1258.6007 78.205322
-25.493467 1266.7954 54.524658
-20.394754 1266.7954 54.524658
-15.296041 1266.7954 54.524658
-10.197426 1266.7954 54.524658
-5.0987129 1266.7954 54.524658
0 1266.7954 54.524658
5.0986156 1266.7954 54.524658
10.109758 1274.9902 30.843994
15.164542 1274.9902 30.843994
20.219517 1274.9902 30.843994
25.274302 1274.9902 30.843994
30.329084 1274.9902 30.843994
35.690891 1266.7954 54.524658
40.789509 1266.7954 54.524658
45.493816 1274.9902 30.843994
50.548603 1274.9902 30.843994
55.603386 1274.9902 30.843994
61.184364 1266.7954 54.524658
66.282974 1266.7954 54.524658
71.381783 1266.7954 54.524658
76.4804 1266.7954 54.524658
81.579018 1266.7954 54.524658
86.677826 1266.7954 54.524658
91.776451 1266.7954 54.524658
96.875259 1266.7954 54.524658
101.97387 1266.7954 54.524658
107.07249 1266.7954 54.524658
112.1713 1266.7954 54.524658
117.26991 1266.7954 54.524658
122.36873 1266.7954 54.524658
127.46734 1266.7954 54.524658
133.70561 1258.6007 78.205322
140.03175 1250.406 101.88599
145.21805 1250.406 101.88599
150.40451 1250.406 101.88599
155.59081 1250.406 101.88599
162.19028 1241.8837 126.51367
167.42235 1241.8837 126.51367
172.65421 1241.8837 126.51367
-229.44121 1262.1021 52.532471
-224.3425 1262.1021 52.532471
-219.24377 1262.1021 52.532471
-214.14517 1262.1021 52.532471
-209.04645 1262.1021 52.532471
-203.94774 1262.1021 52.532471
-198.84903 1262.1021 52.532471
-193.75031 1262.1021 52.532471
-188.6517 1262.1021 52.532471
-183.55298 1262.1021 52.532471
-178.45427 1262.1021 52.532471
-173.35556 1262.1021 52.532471
-168.25684 1262.1021 52.532471
-163.15823 1262.1021 52.532471
-158.05951 1262.1021 52.532471
-154.2758 1253.8669 76.196045
-149.13327 1253.8669 76.196045
-142.76338 1262.1021 52.532471
-137.66476 1262.1021 52.532471
-133.70572 1253.8669 76.196045
-128.56317 1253.8669 76.196045
-122.36862 1262.1021 52.532471
-117.26991 1262.1021 52.532471
-111.20696 1270.3372 28.868896
-105.2684 1278.2427 6.1520996
-100.2556 1278.2427 6.1520996
-95.242805 1278.2427 6.1520996
-90.230003 1278.2427 6.1520996
-85.2173 1278.2427 6.1520996
-80.877785 1270.3372 28.868896
-76.4804 1262.1021 52.532471
-71.381691 1262.1021 52.532471
-66.282974 1262.1021 52.532471
-61.184364 1262.1021 52.532471
-56.085648 1262.1021 52.532471
-50.986935 1262.1021 52.532471
-45.888226 1262.1021 52.532471
-40.789509 1262.1021 52.532471
-35.690891 1262.1021 52.532471
-30.592182 1262.1021 52.532471
-25.493467 1262.1021 52.532471
-20.394754 1262.1021 52.532471
-15.296041 1262.1021 52.532471
-10.197426 1262.1021 52.532471
-5.0987129 1262.1021 52.532471
0 1262.1021 52.532471
5.0986156 1262.1021 52.532471
10.109758 1270.3372 28.868896
15.164542 1270.3372 28.868896
20.219517 1270.3372 28.868896
25.274302 1270.3372 28.868896
30.329084 1270.3372 28.868896
35.38406 1270.3372 28.868896
40.438843 1270.3372 28.868896
45.115097 1278.2427 6.1520996
50.1278 1278.2427 6.1520996
55.603386 1270.3372 28.868896
60.658363 1270.3372 28.868896
66.282974 1262.1021 52.532471
71.381783 1262.1021 52.532471
76.4804 1262.1021 52.532471
81.579018 1262.1021 52.532471
86.677826 1262.1021 52.532471
91.776451 1262.1021 52.532471
96.875259 1262.1021 52.532471
101.97387 1262.1021 52.532471
107.07249 1262.1021 52.532471
112.1713 1262.1021 52.532471
117.26991 1262.1021 52.532471
122.36873 1262.1021 52.532471
127.46734 1262.1021 52.532471
133.70561 1253.8669 76.196045
138.84827 1253.8669 76.196045
145.21805 1245.632 99.859375
150.40451 1245.632 99.859375
155.59081 1245.632 99.859375
160.7771 1245.632 99.859375
167.42235 1237.0676 124.46948
172.65421 1237.0676 124.46948
-231.41371 1249.1333 74.186523
-224.3425 1257.4087 50.540283
-219.24377 1257.4087 50.540283
-214.14517 1257.4087 50.540283
-209.04645 1257.4087 50.540283
-203.94774 1257.4087 50.540283
-198.84903 1257.4087 50.540283
-193.75031 1257.4087 50.540283
-188.6517 1257.4087 50.540283
-183.55298 1257.4087 50.540283
-178.45427 1257.4087 50.540283
-173.35556 1257.4087 50.540283
-168.25684 1257.4087 50.540283
-163.15823 1257.4087 50.540283
-158.05951 1257.4087 50.540283
-152.9608 1257.4087 50.540283
-147.86209 1257.4087 50.540283
-142.76338 1257.4087 50.540283
-137.66476 1257.4087 50.540283
-132.56606 1257.4087 50.540283
-127.46734 1257.4087 50.540283
-121.31662 1265.6841 26.893799
-116.26175 1265.6841 26.893799
-111.20696 1265.6841 26.893799
-105.2684 1273.6283 4.1933594
-100.2556 1273.6283 4.1933594
-95.242805 1273.6283 4.1933594
-90.230003 1273.6283 4.1933594
-85.2173 1273.6283 4.1933594
-80.877785 1265.6841 26.893799
-76.4804 1257.4087 50.540283
-71.381691 1257.4087 50.540283
-66.282974 1257.4087 50.540283
-61.184364 1257.4087 50.540283
-56.085648 1257.4087 50.540283
-50.986935 1257.4087 50.540283
-45.888226 1257.4087 50.540283
-40.789509 1257.4087 50.540283
-35.690891 1257.4087 50.540283
-30.592182 1257.4087 50.540283
-25.274302 1265.6841 26.893799
-20.219421 1265.6841 26.893799
-15.296041 1257.4087 50.540283
-10.197426 1257.4087 50.540283
-5.0987129 1257.4087 50.540283
0 1257.4087 50.540283
5.0986156 1257.4087 50.540283
10.109758 1265.6841 26.893799
15.164542 1265.6841 26.893799
20.219517 1265.6841 26.893799
25.0639 1273.6283 4.1933594
30.076605 1273.6283 4.1933594
35.089497 1273.6283 4.1933594
40.438843 1265.6841 26.893799
45.115097 1273.6283 4.1933594
50.1278 1273.6283 4.1933594
55.603386 1265.6841 26.893799
60.658363 1265.6841 26.893799
66.282974 1257.4087 50.540283
71.381783 1257.4087 50.540283
76.4804 1257.4087 50.540283
81.579018 1257.4087 50.540283
86.677826 1257.4087 50.540283
91.776451 1257.4087 50.540283
96.875259 1257.4087 50.540283
101.97387 1257.4087 50.540283
107.07249 1257.4087 50.540283
112.1713 1257.4087 50.540283
117.26991 1257.4087 50.540283
122.36873 1257.4087 50.540283
127.46734 1257.4087 50.540283
133.70561 1249.1333 74.186523
138.84827 1249.1333 74.186523
145.21805 1240.8579 97.833008
150.40451 1240.8579 97.833008
155.59081 1240.8579 97.833008
160.7771 1240.8579 97.833008
165.96358 1240.8579 97.833008
171.14984 1240.8579 97.833008
-231.41371 1244.3995 72.177246
-224.3425 1252.7153 48.547852
-219.24377 1252.7153 48.547852
-214.14517 1252.7153 48.547852
-209.04645 1252.7153 48.547852
-203.94774 1252.7153 48.547852
-198.84903 1252.7153 48.547852
-193.75031 1252.7153 48.547852
-188.6517 1252.7153 48.547852
-183.55298 1252.7153 48.547852
-176.9201 1261.031 24.918701
-171.86523 1261.031 24.918701
-168.25684 1252.7153 48.547852
-163.15823 1252.7153 48.547852
-158.05951 1252.7153 48.547852
-152.9608 1252.7153 48.547852
-147.86209 1252.7153 48.547852
-142.76338 1252.7153 48.547852
-137.66476 1252.7153 48.547852
-132.56606 1252.7153 48.547852
-127.46734 1252.7153 48.547852
-121.31662 1261.031 24.918701
-116.26175 1261.031 24.918701
-112.1713 1252.7153 48.547852
-107.07259 1252.7153 48.547852
-100.2556 1269.014 2.2348633
-95.242805 1269.014 2.2348633
-90.230003 1269.014 2.2348633
-85.2173 1269.014 2.2348633
-80.204498 1269.014 2.2348633
-76.4804 1252.7153 48.547852
-71.381691 1252.7153 48.547852
-66.282974 1252.7153 48.547852
-61.184364 1252.7153 48.547852
-56.085648 1252.7153 48.547852
-50.986935 1252.7153 48.547852
-45.888226 1252.7153 48.547852
-40.789509 1252.7153 48.547852
-35.690891 1252.7153 48.547852
-30.592182 1252.7153 48.547852
-25.274302 1261.031 24.918701
-20.219421 1261.031 24.918701
-15.296041 1252.7153 48.547852
-10.197426 1252.7153 48.547852
-5.0987129 1252.7153 48.547852
0 1252.7153 48.547852
5.0986156 1252.7153 48.547852
10.109758 1261.031 24.918701
15.164542 1261.031 24.918701
20.051197 1269.014 2.2348633
25.0639 1269.014 2.2348633
30.076605 1269.014 2.2348633
35.089497 1269.014 2.2348633
40.438843 1261.031 24.918701
45.115097 1269.014 2.2348633
50.1278 1269.014 2.2348633
55.603386 1261.031 24.918701
60.658363 1261.031 24.918701
66.282974 1252.7153 48.547852
71.381783 1252.7153 48.547852
76.4804 1252.7153 48.547852
81.579018 1252.7153 48.547852
86.677826 1252.7153 48.547852
92.565445 1244.3995 72.177246
96.875259 1252.7153 48.547852
101.97387 1252.7153 48.547852
107.07249 1252.7153 48.547852
112.1713 1252.7153 48.547852
117.26991 1252.7153 48.547852
123.42072 1244.3995 72.177246
128.56317 1244.3995 72.177246
133.70561 1244.3995 72.177246
138.84827 1244.3995 72.177246
145.21805 1236.0837 95.806396
150.40451 1236.0837 95.806396
155.59081 1236.0837 95.806396
160.7771 1236.0837 95.806396
165.96358 1236.0837 95.806396
171.14984 1236.0837 95.806396
-231.41371 1239.6658 70.167969
-224.3425 1248.022 46.555664
-219.24377 1248.022 46.555664
-214.14517 1248.022 46.555664
-209.04645 1248.022 46.555664
-203.94774 1248.022 46.555664
-198.84903 1248.022 46.555664
-193.75031 1248.022 46.555664
-188.6517 1248.022 46.555664
-183.55298 1248.022 46.555664
-176.9201 1256.3779 22.943604
-171.86523 1256.3779 22.943604
-168.25684 1248.022 46.555664
-163.15823 1248.022 46.555664
-158.05951 1248.022 46.555664
-152.9608 1248.022 46.555664
-147.86209 1248.022 46.555664
-142.76338 1248.022 46.555664
-138.84827 1239.6658 70.167969
-133.70572 1239.6658 70.167969
-127.46734 1248.022 46.555664
-122.36862 1248.022 46.555664
-117.26991 1248.022 46.555664
-112.1713 1248.022 46.555664
-107.07259 1248.022 46.555664
-100.2556 1264.3997 0.27612305
-95.242805 1264.3997 0.27612305
-90.230003 1264.3997 0.27612305
-85.2173 1264.3997 0.27612305
-80.204498 1264.3997 0.27612305
-76.4804 1248.022 46.555664
-71.381691 1248.022 46.555664
-66.282974 1248.022 46.555664
-61.184364 1248.022 46.555664
-56.085648 1248.022 46.555664
-50.986935 1248.022 46.555664
-45.888226 1248.022 46.555664
-40.789509 1248.022 46.555664
-35.690891 1248.022 46.555664
-30.592182 1248.022 46.555664
-25.274302 1256.3779 22.943604
-20.219421 1256.3779 22.943604
-15.296041 1248.022 46.555664
-10.197426 1248.022 46.555664
-5.0987129 1248.022 46.555664
0 1248.022 46.555664
5.0986156 1248.022 46.555664
10.197426 1248.022 46.555664
15.164542 1256.3779 22.943604
20.051197 1264.3997 0.27612305
25.0639 1264.3997 0.27612305
30.076605 1264.3997 0.27612305
35.38406 1256.3779 22.943604
40.438843 1256.3779 22.943604
45.115097 1264.3997 0.27612305
50.1278 1264.3997 0.27612305
55.140507 1264.3997 0.27612305
60.658363 1256.3779 22.943604
66.282974 1248.022 46.555664
71.381783 1248.022 46.555664
76.4804 1248.022 46.555664
81.579018 1248.022 46.555664
86.677826 1248.022 46.555664
92.565445 1239.6658 70.167969
96.875259 1248.022 46.555664
101.97387 1248.022 46.555664
107.07249 1248.022 46.555664
112.1713 1248.022 46.555664
117.26991 1248.022 46.555664
123.42072 1239.6658 70.167969
128.56317 1239.6658 70.167969
133.70561 1239.6658 70.167969
138.84827 1239.6658 70.167969
145.21805 1231.3097 93.780029
150.40451 1231.3097 93.780029
155.59081 1231.3097 93.780029
160.7771 1231.3097 93.780029
165.96358 1231.3097 93.780029
171.14984 1231.3097 93.780029
179.43622 1213.9291 142.89307
-236.55624 1234.9321 68.158447
-229.44121 1243.3286 44.563477
-222.41383 1251.725 20.968506
-217.35895 1251.725 20.968506
-212.30417 1251.725 20.968506
-207.24928 1251.725 20.968506
-203.94774 1243.3286 44.563477
-198.84903 1243.3286 44.563477
-193.75031 1243.3286 44.563477
-188.6517 1243.3286 44.563477
-183.55298 1243.3286 44.563477
-176.9201 1251.725 20.968506
-171.86523 1251.725 20.968506
-168.25684 1243.3286 44.563477
-163.15823 1243.3286 44.563477
-158.05951 1243.3286 44.563477
-152.9608 1243.3286 44.563477
-147.86209 1243.3286 44.563477
-143.99071 1234.9321 68.158447
-138.84827 1234.9321 68.158447
-133.70572 1234.9321 68.158447
-127.46734 1243.3286 44.563477
-122.36862 1243.3286 44.563477
-117.26991 1243.3286 44.563477
-112.1713 1243.3286 44.563477
-107.07259 1243.3286 44.563477
-101.09721 1251.725 20.968506
-96.04232 1251.725 20.968506
-90.98745 1251.725 20.968506
-85.932655 1251.725 20.968506
-80.877785 1251.725 20.968506
-76.4804 1243.3286 44.563477
-71.381691 1243.3286 44.563477
-66.282974 1243.3286 44.563477
-61.184364 1243.3286 44.563477
-56.085648 1243.3286 44.563477
-50.986935 1243.3286 44.563477
-45.888226 1243.3286 44.563477
-40.789509 1243.3286 44.563477
-35.690891 1243.3286 44.563477
-30.592182 1243.3286 44.563477
-25.274302 1251.725 20.968506
-20.219421 1251.725 20.968506
-15.164542 1251.725 20.968506
-10.197426 1243.3286 44.563477
-5.0987129 1243.3286 44.563477
0 1243.3286 44.563477
5.0986156 1243.3286 44.563477
10.197426 1243.3286 44.563477
15.296041 1243.3286 44.563477
20.219517 1251.725 20.968506
25.274302 1251.725 20.968506
30.329084 1251.725 20.968506
35.38406 1251.725 20.968506
40.438843 1251.725 20.968506
45.115097 1259.7854 -1.6826172
50.1278 1259.7854 -1.6826172
55.140507 1259.7854 -1.6826172
60.1534 1259.7854 -1.6826172
65.713142 1251.725 20.968506
70.76812 1251.725 20.968506
75.822906 1251.725 20.968506
81.579018 1243.3286 44.563477
86.677826 1243.3286 44.563477
92.565445 1234.9321 68.158447
96.875259 1243.3286 44.563477
101.97387 1243.3286 44.563477
107.07249 1243.3286 44.563477
112.1713 1243.3286 44.563477
117.26991 1243.3286 44.563477
123.42072 1234.9321 68.158447
128.56317 1234.9321 68.158447
134.84529 1226.5356 91.753662
140.03175 1226.5356 91.753662
145.21805 1226.5356 91.753662
150.40451 1226.5356 91.753662
156.9584 1217.8035 116.29224
160.7771 1226.5356 91.753662
165.96358 1226.5356 91.753662
172.65421 1217.8035 116.29224
179.43622 1209.071 140.83105
-239.63864 1238.6353 42.571289
-232.52357 1247.072 18.993408
-227.4687 1247.072 18.993408
-222.41383 1247.072 18.993408
-217.35895 1247.072 18.993408
-212.30417 1247.072 18.993408
-207.24928 1247.072 18.993408
-203.94774 1238.6353 42.571289
-198.84903 1238.6353 42.571289
-193.75031 1238.6353 42.571289
-188.6517 1238.6353 42.571289
-183.55298 1238.6353 42.571289
-176.9201 1247.072 18.993408
-171.86523 1247.072 18.993408
-168.25684 1238.6353 42.571289
-163.15823 1238.6353 42.571289
-158.05951 1238.6353 42.571289
-152.9608 1238.6353 42.571289
-149.13327 1230.1984 66.14917
-143.99071 1230.1984 66.14917
-138.84827 1230.1984 66.14917
-133.70572 1230.1984 66.14917
-128.56317 1230.1984 66.14917
-122.36862 1238.6353 42.571289
-117.26991 1238.6353 42.571289
-112.1713 1238.6353 42.571289
-106.15208 1247.072 18.993408
-101.09721 1247.072 18.993408
-96.04232 1247.072 18.993408
-90.98745 1247.072 18.993408
-85.932655 1247.072 18.993408
-80.877785 1247.072 18.993408
-76.4804 1238.6353 42.571289
-71.381691 1238.6353 42.571289
-66.282974 1238.6353 42.571289
-61.184364 1238.6353 42.571289
-56.085648 1238.6353 42.571289
-51.42527 1230.1984 66.14917
-45.888226 1238.6353 42.571289
-40.789509 1238.6353 42.571289
-35.690891 1238.6353 42.571289
-30.592182 1238.6353 42.571289
-25.274302 1247.072 18.993408
-20.219421 1247.072 18.993408
-15.164542 1247.072 18.993408
-10.197426 1238.6353 42.571289
-5.0987129 1238.6353 42.571289
0 1238.6353 42.571289
5.0986156 1238.6353 42.571289
10.197426 1238.6353 42.571289
15.296041 1238.6353 42.571289
20.394852 1238.6353 42.571289
25.493467 1238.6353 42.571289
30.592083 1238.6353 42.571289
35.38406 1247.072 18.993408
40.438843 1247.072 18.993408
45.115097 1255.1711 -3.6411133
50.1278 1255.1711 -3.6411133
55.140507 1255.1711 -3.6411133
60.1534 1255.1711 -3.6411133
65.713142 1247.072 18.993408
70.76812 1247.072 18.993408
75.822906 1247.072 18.993408
81.579018 1238.6353 42.571289
86.677826 1238.6353 42.571289
92.565445 1230.1984 66.14917
96.875259 1238.6353 42.571289
101.97387 1238.6353 42.571289
107.99298 1230.1984 66.14917
113.13563 1230.1984 66.14917
118.27808 1230.1984 66.14917
123.42072 1230.1984 66.14917
128.56317 1230.1984 66.14917
134.84529 1221.7616 89.727051
140.03175 1221.7616 89.727051
145.21805 1221.7616 89.727051
150.40451 1221.7616 89.727051
155.59081 1221.7616 89.727051
160.7771 1221.7616 89.727051
165.96358 1221.7616 89.727051
172.65421 1212.9874 114.24805
179.43622 1204.2131 138.7688
186.37057 1195.1014 164.23291
-237.57848 1242.4189 17.018311
-232.52357 1242.4189 17.018311
-227.4687 1242.4189 17.018311
-222.41383 1242.4189 17.018311
-217.35895 1242.4189 17.018311
-212.30417 1242.4189 17.018311
-207.24928 1242.4189 17.018311
-203.94774 1233.9418 40.579102
-198.84903 1233.9418 40.579102
-193.75031 1233.9418 40.579102
-188.6517 1233.9418 40.579102
-183.55298 1233.9418 40.579102
-178.45427 1233.9418 40.579102
-173.35556 1233.9418 40.579102
-168.25684 1233.9418 40.579102
-163.15823 1233.9418 40.579102
-158.05951 1233.9418 40.579102
-152.9608 1233.9418 40.579102
-149.13327 1225.4646 64.139893
-143.99071 1225.4646 64.139893
-138.84827 1225.4646 64.139893
-133.70572 1225.4646 64.139893
-128.56317 1225.4646 64.139893
-122.36862 1233.9418 40.579102
-117.26991 1233.9418 40.579102
-111.20696 1242.4189 17.018311
-106.15208 1242.4189 17.018311
-101.09721 1242.4189 17.018311
-90.98745 1242.4189 17.018311
-85.932655 1242.4189 17.018311
-80.877785 1242.4189 17.018311
-76.4804 1233.9418 40.579102
-71.381691 1233.9418 40.579102
-66.282974 1233.9418 40.579102
-61.184364 1233.9418 40.579102
-56.085648 1233.9418 40.579102
-50.986935 1233.9418 40.579102
-45.888226 1233.9418 40.579102
-40.789509 1233.9418 40.579102
-35.690891 1233.9418 40.579102
-30.592182 1233.9418 40.579102
-25.274302 1242.4189 17.018311
-20.219421 1242.4189 17.018311
-15.296041 1233.9418 40.579102
-10.197426 1233.9418 40.579102
-5.0987129 1233.9418 40.579102
0 1233.9418 40.579102
5.0986156 1233.9418 40.579102
10.197426 1233.9418 40.579102
15.427542 1225.4646 64.139893
20.394852 1233.9418 40.579102
25.493467 1233.9418 40.579102
30.592083 1233.9418 40.579102
35.690891 1233.9418 40.579102
40.438843 1242.4189 17.018311
45.115097 1250.5569 -5.5998535
50.1278 1250.5569 -5.5998535
55.140507 1250.5569 -5.5998535
60.1534 1250.5569 -5.5998535
65.713142 1242.4189 17.018311
70.76812 1242.4189 17.018311
76.4804 1233.9418 40.579102
81.579018 1233.9418 40.579102
86.677826 1233.9418 40.579102
92.565445 1225.4646 64.139893
97.708092 1225.4646 64.139893
102.85054 1225.4646 64.139893
108.91348 1216.9875 87.700684
114.09996 1216.9875 87.700684
119.28625 1216.9875 87.700684
124.47272 1216.9875 87.700684
129.65901 1216.9875 87.700684
