ply
format ascii 1.0
comment PCL generated
element vertex 1536
property float x
property float y
property float z
element camera 0
property float view_px
property float view_py
property float view_pz
property float x_axisx
property float x_axisy
property float x_axisz
property float y_axisx
property float y_axisy
property float y_axisz
property float z_axisx
property float z_axisy
property float z_axisz
property float focal
property float scalex
property float scaley
property float centerx
property float centery
property int viewportx
property int viewporty
property float k1
property float k2
end_header
88.746681 1066.8029 -134.65771
93.67717 1066.8029 -134.65771
98.607468 1066.8029 -134.65771
103.53777 1066.8029 -134.65771
108.46826 1066.8029 -134.65771
114.32607 1057.3706 -113.67505
119.29688 1057.3706 -113.67505
124.2675 1057.3706 -113.67505
129.23813 1057.3706 -113.67505
134.20894 1057.3706 -113.67505
140.3578 1047.5282 -91.780273
145.3707 1047.5282 -91.780273
150.38341 1047.5282 -91.780273
156.70059 1037.686 -69.885742
161.75557 1037.686 -69.885742
166.81035 1037.686 -69.885742
171.86531 1037.686 -69.885742
178.45427 1027.4335 -47.078369
183.5529 1027.4335 -47.078369
188.6517 1027.4335 -47.078369
195.41597 1017.181 -24.27124
200.55862 1017.181 -24.27124
207.45441 1006.9285 -1.4641113
212.6407 1006.9285 -1.4641113
219.74182 996.26599 22.255127
332.48459 985.60339 45.974609
337.76221 985.60339 45.974609
343.03967 985.60339 45.974609
348.31714 985.60339 45.974609
353.59479 985.60339 45.974609
355.77234 996.26599 22.255127
361.00443 996.26599 22.255127
366.23627 996.26599 22.255127
371.46814 996.26599 22.255127
376.70023 996.26599 22.255127
381.93207 996.26599 22.255127
387.16415 996.26599 22.255127
392.39603 996.26599 22.255127
397.62787 996.26599 22.255127
402.85995 996.26599 22.255127
408.0918 996.26599 22.255127
413.32388 996.26599 22.255127
418.55576 996.26599 22.255127
427.48013 985.60339 45.974609
432.75778 985.60339 45.974609
438.03525 985.60339 45.974609
443.3129 985.60339 45.974609
448.59036 985.60339 45.974609
453.86783 985.60339 45.974609
459.14545 985.60339 45.974609
464.42291 985.60339 45.974609
473.91382 974.53076 70.606201
474.97803 985.60339 45.974609
480.25549 985.60339 45.974609
-449.88254 1033.033 -71.86084
-444.82767 1033.033 -71.86084
-439.77286 1033.033 -71.86084
-434.71799 1033.033 -71.86084
-433.38895 1022.7401 -49.070801
-428.29025 1022.7401 -49.070801
-423.19153 1022.7401 -49.070801
-418.0929 1022.7401 -49.070801
-412.9942 1022.7401 -49.070801
-404.38882 1033.033 -71.86084
-399.33395 1033.033 -71.86084
-394.27905 1033.033 -71.86084
-389.22427 1033.033 -71.86084
-384.16937 1033.033 -71.86084
-379.1145 1033.033 -71.86084
-377.30331 1022.7401 -49.070801
-372.20459 1022.7401 -49.070801
-367.10596 1022.7401 -49.070801
-362.00726 1022.7401 -49.070801
-356.90854 1022.7401 -49.070801
-351.80984 1022.7401 -49.070801
-346.71112 1022.7401 -49.070801
-341.61249 1022.7401 -49.070801
-336.51379 1022.7401 -49.070801
-331.41507 1022.7401 -49.070801
-326.31638 1022.7401 -49.070801
-323.97916 1012.4473 -26.280762
-318.8367 1012.4473 -26.280762
-222.41383 1033.033 -71.86084
-217.35895 1033.033 -71.86084
-214.14517 1022.7401 -49.070801
-209.04645 1022.7401 -49.070801
-202.19441 1033.033 -71.86084
-197.13953 1033.033 -71.86084
-192.08464 1033.033 -71.86084
-187.02988 1033.033 -71.86084
-180.46011 1042.9139 -93.739014
-175.44731 1042.9139 -93.739014
-169.00378 1052.795 -115.61743
-164.03307 1052.795 -115.61743
-159.06244 1052.795 -115.61743
-154.09172 1052.795 -115.61743
-149.121 1052.795 -115.61743
-142.9808 1062.2644 -136.58423
-138.05042 1062.2644 -136.58423
-133.12013 1062.2644 -136.58423
-128.18973 1062.2644 -136.58423
-123.25934 1062.2644 -136.58423
-118.32894 1062.2644 -136.58423
-113.39855 1062.2644 -136.58423
-108.46826 1062.2644 -136.58423
-102.691 1071.7338 -157.55103
-97.800934 1071.7338 -157.55103
-92.910873 1071.7338 -157.55103
-88.020805 1071.7338 -157.55103
-83.130836 1071.7338 -157.55103
-78.240768 1071.7338 -157.55103
-73.3507 1071.7338 -157.55103
-68.460632 1071.7338 -157.55103
-63.570568 1071.7338 -157.55103
-59.16452 1062.2644 -136.58423
-54.234131 1062.2644 -136.58423
-48.900467 1071.7338 -157.55103
-44.010403 1071.7338 -157.55103
-39.120335 1071.7338 -157.55103
-34.230366 1071.7338 -157.55103
-29.340302 1071.7338 -157.55103
-24.450233 1071.7338 -157.55103
-19.560167 1071.7338 -157.55103
-14.791082 1062.2644 -136.58423
-9.8607845 1062.2644 -136.58423
-4.9303923 1062.2644 -136.58423
0 1062.2644 -136.58423
4.9302983 1062.2644 -136.58423
9.9414377 1052.795 -115.61743
14.912063 1052.795 -115.61743
19.882875 1052.795 -115.61743
24.651867 1062.2644 -136.58423
29.582165 1062.2644 -136.58423
34.794941 1052.795 -115.61743
39.442951 1062.2644 -136.58423
44.373436 1062.2644 -136.58423
49.707001 1052.795 -115.61743
54.677624 1052.795 -115.61743
59.648441 1052.795 -115.61743
64.619064 1052.795 -115.61743
69.589882 1052.795 -115.61743
74.560501 1052.795 -115.61743
78.885902 1062.2644 -136.58423
83.816391 1062.2644 -136.58423
88.746681 1062.2644 -136.58423
93.67717 1062.2644 -136.58423
98.607468 1062.2644 -136.58423
103.53777 1062.2644 -136.58423
108.46826 1062.2644 -136.58423
114.32607 1052.795 -115.61743
119.29688 1052.795 -115.61743
124.2675 1052.795 -115.61743
129.23813 1052.795 -115.61743
134.20894 1052.795 -115.61743
140.3578 1042.9139 -93.739014
145.3707 1042.9139 -93.739014
150.38341 1042.9139 -93.739014
156.70059 1033.033 -71.86084
161.75557 1033.033 -71.86084
166.81035 1033.033 -71.86084
171.86531 1033.033 -71.86084
178.45427 1022.7401 -49.070801
183.5529 1022.7401 -49.070801
188.6517 1022.7401 -49.070801
195.41597 1012.4473 -26.280762
200.55862 1012.4473 -26.280762
207.45441 1002.1544 -3.4907227
212.6407 1002.1544 -3.4907227
219.74182 991.44995 20.210938
226.93391 980.74536 43.912354
337.76221 980.74536 43.912354
343.03967 980.74536 43.912354
348.31714 980.74536 43.912354
353.59479 980.74536 43.912354
355.77234 991.44995 20.210938
361.00443 991.44995 20.210938
366.23627 991.44995 20.210938
371.46814 991.44995 20.210938
376.70023 991.44995 20.210938
381.93207 991.44995 20.210938
390.53754 980.74536 43.912354
392.39603 991.44995 20.210938
397.62787 991.44995 20.210938
402.85995 991.44995 20.210938
408.0918 991.44995 20.210938
413.32388 991.44995 20.210938
418.55576 991.44995 20.210938
423.7876 991.44995 20.210938
432.75778 980.74536 43.912354
438.03525 980.74536 43.912354
443.3129 980.74536 43.912354
448.59036 980.74536 43.912354
453.86783 980.74536 43.912354
459.14545 980.74536 43.912354
464.42291 980.74536 43.912354
473.91382 969.62915 68.525635
474.97803 980.74536 43.912354
480.25549 980.74536 43.912354
489.8884 969.62915 68.525635
-449.88254 1028.38 -73.835938
-444.82767 1028.38 -73.835938
-439.77286 1028.38 -73.835938
-434.71799 1028.38 -73.835938
-433.38895 1018.0468 -51.062988
-428.29025 1018.0468 -51.062988
-423.19153 1018.0468 -51.062988
-418.0929 1018.0468 -51.062988
-412.9942 1018.0468 -51.062988
-407.89548 1018.0468 -51.062988
-399.33395 1028.38 -73.835938
-394.27905 1028.38 -73.835938
-389.22427 1028.38 -73.835938
-384.16937 1028.38 -73.835938
-379.1145 1028.38 -73.835938
-377.30331 1018.0468 -51.062988
-372.20459 1018.0468 -51.062988
-367.10596 1018.0468 -51.062988
-362.00726 1018.0468 -51.062988
-356.90854 1018.0468 -51.062988
-351.80984 1018.0468 -51.062988
-346.71112 1018.0468 -51.062988
-341.61249 1018.0468 -51.062988
-336.51379 1018.0468 -51.062988
-331.41507 1018.0468 -51.062988
-326.31638 1018.0468 -51.062988
-323.97916 1007.7136 -28.290039
-222.41383 1028.38 -73.835938
-217.35895 1028.38 -73.835938
-212.30417 1028.38 -73.835938
-209.04645 1018.0468 -51.062988
-203.94774 1018.0468 -51.062988
-197.13953 1028.38 -73.835938
-192.08464 1028.38 -73.835938
-187.02988 1028.38 -73.835938
-180.46011 1038.2997 -95.697754
-175.44731 1038.2997 -95.697754
-170.43451 1038.2997 -95.697754
-164.03307 1048.2195 -117.55957
-159.06244 1048.2195 -117.55957
-154.09172 1048.2195 -117.55957
-149.121 1048.2195 -117.55957
-142.9808 1057.7261 -138.5105
-138.05042 1057.7261 -138.5105
-133.12013 1057.7261 -138.5105
-128.18973 1057.7261 -138.5105
-123.25934 1057.7261 -138.5105
-118.32894 1057.7261 -138.5105
-113.39855 1057.7261 -138.5105
-108.46826 1057.7261 -138.5105
-103.53786 1057.7261 -138.5105
-97.800934 1067.2325 -159.46167
-92.910873 1067.2325 -159.46167
-88.020805 1067.2325 -159.46167
-83.130836 1067.2325 -159.46167
-78.240768 1067.2325 -159.46167
-73.3507 1067.2325 -159.46167
-68.460632 1067.2325 -159.46167
-63.570568 1067.2325 -159.46167
-59.16452 1057.7261 -138.5105
-54.234131 1057.7261 -138.5105
-48.900467 1067.2325 -159.46167
-44.010403 1067.2325 -159.46167
-39.120335 1067.2325 -159.46167
-34.230366 1067.2325 -159.46167
-29.340302 1067.2325 -159.46167
-24.450233 1067.2325 -159.46167
-19.560167 1067.2325 -159.46167
-14.791082 1057.7261 -138.5105
-9.8607845 1057.7261 -138.5105
-4.9303923 1057.7261 -138.5105
0 1057.7261 -138.5105
4.9302983 1057.7261 -138.5105
9.9414377 1048.2195 -117.55957
14.912063 1048.2195 -117.55957
19.882875 1048.2195 -117.55957
24.651867 1057.7261 -138.5105
29.582165 1057.7261 -138.5105
34.794941 1048.2195 -117.55957
39.765564 1048.2195 -117.55957
44.736378 1048.2195 -117.55957
49.707001 1048.2195 -117.55957
54.677624 1048.2195 -117.55957
59.648441 1048.2195 -117.55957
64.619064 1048.2195 -117.55957
69.589882 1048.2195 -117.55957
74.560501 1048.2195 -117.55957
78.885902 1057.7261 -138.5105
83.816391 1057.7261 -138.5105
88.746681 1057.7261 -138.5105
93.67717 1057.7261 -138.5105
98.607468 1057.7261 -138.5105
103.53777 1057.7261 -138.5105
108.46826 1057.7261 -138.5105
114.32607 1048.2195 -117.55957
119.29688 1048.2195 -117.55957
124.2675 1048.2195 -117.55957
129.23813 1048.2195 -117.55957
134.20894 1048.2195 -117.55957
140.3578 1038.2997 -95.697754
145.3707 1038.2997 -95.697754
150.38341 1038.2997 -95.697754
156.70059 1028.38 -73.835938
161.75557 1028.38 -73.835938
166.81035 1028.38 -73.835938
173.35565 1018.0468 -51.062988
178.45427 1018.0468 -51.062988
183.5529 1018.0468 -51.062988
188.6517 1018.0468 -51.062988
195.41597 1007.7136 -28.290039
200.55862 1007.7136 -28.290039
207.45441 997.38037 -5.5170898
214.50974 986.63391 18.166748
219.74182 986.63391 18.166748
226.93391 975.88745 41.850342
343.03967 975.88745 41.850342
348.31714 975.88745 41.850342
353.59479 975.88745 41.850342
358.87225 975.88745 41.850342
364.14987 975.88745 41.850342
369.42734 975.88745 41.850342
374.7048 975.88745 41.850342
379.98245 975.88745 41.850342
385.25992 975.88745 41.850342
390.53754 975.88745 41.850342
392.39603 986.63391 18.166748
397.62787 986.63391 18.166748
402.85995 986.63391 18.166748
408.0918 986.63391 18.166748
413.32388 986.63391 18.166748
418.55576 986.63391 18.166748
423.7876 986.63391 18.166748
429.01968 986.63391 18.166748
434.25156 986.63391 18.166748
439.48364 986.63391 18.166748
448.59036 975.88745 41.850342
453.86783 975.88745 41.850342
459.14545 975.88745 41.850342
464.42291 975.88745 41.850342
473.91382 964.72766 66.445068
474.97803 975.88745 41.850342
480.25549 975.88745 41.850342
489.8884 964.72766 66.445068
-449.88254 1023.7268 -75.811035
-444.82767 1023.7268 -75.811035
-443.58636 1013.3533 -53.055176
-438.48767 1013.3533 -53.055176
-433.38895 1013.3533 -53.055176
-424.60825 1023.7268 -75.811035
-419.55338 1023.7268 -75.811035
-418.0929 1013.3533 -53.055176
-412.9942 1013.3533 -53.055176
-404.38882 1023.7268 -75.811035
-399.33395 1023.7268 -75.811035
-394.27905 1023.7268 -75.811035
-389.22427 1023.7268 -75.811035
-384.16937 1023.7268 -75.811035
-379.1145 1023.7268 -75.811035
-377.30331 1013.3533 -53.055176
-372.20459 1013.3533 -53.055176
-367.10596 1013.3533 -53.055176
-362.00726 1013.3533 -53.055176
-356.90854 1013.3533 -53.055176
-351.80984 1013.3533 -53.055176
-346.71112 1013.3533 -53.055176
-341.61249 1013.3533 -53.055176
-336.51379 1013.3533 -53.055176
-331.41507 1013.3533 -53.055176
-329.1217 1002.9797 -30.299316
-217.35895 1023.7268 -75.811035
-212.30417 1023.7268 -75.811035
-209.04645 1013.3533 -53.055176
-203.94774 1013.3533 -53.055176
-197.13953 1023.7268 -75.811035
-192.08464 1023.7268 -75.811035
-187.02988 1023.7268 -75.811035
-180.46011 1033.6853 -97.65625
-175.44731 1033.6853 -97.65625
-170.43451 1033.6853 -97.65625
-164.03307 1043.6439 -119.50171
-159.06244 1043.6439 -119.50171
-154.09172 1043.6439 -119.50171
-149.121 1043.6439 -119.50171
-142.9808 1053.1875 -140.43701
-138.05042 1053.1875 -140.43701
-133.12013 1053.1875 -140.43701
-128.18973 1053.1875 -140.43701
-123.25934 1053.1875 -140.43701
-118.32894 1053.1875 -140.43701
-113.39855 1053.1875 -140.43701
-108.46826 1053.1875 -140.43701
-103.53786 1053.1875 -140.43701
-97.800934 1062.7312 -161.37231
-92.910873 1062.7312 -161.37231
-88.020805 1062.7312 -161.37231
-83.130836 1062.7312 -161.37231
-78.240768 1062.7312 -161.37231
-73.3507 1062.7312 -161.37231
-68.460632 1062.7312 -161.37231
-63.570568 1062.7312 -161.37231
-59.16452 1053.1875 -140.43701
-54.234131 1053.1875 -140.43701
-48.900467 1062.7312 -161.37231
-44.010403 1062.7312 -161.37231
-39.120335 1062.7312 -161.37231
-34.230366 1062.7312 -161.37231
-29.340302 1062.7312 -161.37231
-24.450233 1062.7312 -161.37231
-19.560167 1062.7312 -161.37231
-14.791082 1053.1875 -140.43701
-9.8607845 1053.1875 -140.43701
-4.9303923 1053.1875 -140.43701
0 1053.1875 -140.43701
4.9302983 1053.1875 -140.43701
9.8607845 1053.1875 -140.43701
14.912063 1043.6439 -119.50171
19.882875 1043.6439 -119.50171
24.8535 1043.6439 -119.50171
29.824125 1043.6439 -119.50171
34.794941 1043.6439 -119.50171
39.765564 1043.6439 -119.50171
44.736378 1043.6439 -119.50171
49.707001 1043.6439 -119.50171
54.677624 1043.6439 -119.50171
59.648441 1043.6439 -119.50171
64.619064 1043.6439 -119.50171
69.589882 1043.6439 -119.50171
74.560501 1043.6439 -119.50171
78.885902 1053.1875 -140.43701
83.816391 1053.1875 -140.43701
88.746681 1053.1875 -140.43701
93.67717 1053.1875 -140.43701
98.607468 1053.1875 -140.43701
103.53777 1053.1875 -140.43701
108.46826 1053.1875 -140.43701
114.32607 1043.6439 -119.50171
119.29688 1043.6439 -119.50171
124.2675 1043.6439 -119.50171
129.23813 1043.6439 -119.50171
134.20894 1043.6439 -119.50171
140.3578 1033.6853 -97.65625
145.3707 1033.6853 -97.65625
150.38341 1033.6853 -97.65625
156.70059 1023.7268 -75.811035
161.75557 1023.7268 -75.811035
166.81035 1023.7268 -75.811035
173.35565 1013.3533 -53.055176
178.45427 1013.3533 -53.055176
183.5529 1013.3533 -53.055176
190.27354 1002.9797 -30.299316
195.41597 1002.9797 -30.299316
202.26811 992.6062 -7.543457
207.45441 992.6062 -7.543457
214.50974 981.81787 16.122314
219.74182 981.81787 16.122314
226.93391 971.02942 39.78833
343.03967 971.02942 39.78833
348.31714 971.02942 39.78833
353.59479 971.02942 39.78833
355.77234 981.81787 16.122314
361.00443 981.81787 16.122314
366.23627 981.81787 16.122314
371.46814 981.81787 16.122314
379.98245 971.02942 39.78833
385.25992 971.02942 39.78833
390.53754 971.02942 39.78833
395.815 971.02942 39.78833
401.09247 971.02942 39.78833
402.85995 981.81787 16.122314
408.0918 981.81787 16.122314
413.32388 981.81787 16.122314
418.55576 981.81787 16.122314
423.7876 981.81787 16.122314
429.01968 981.81787 16.122314
434.25156 981.81787 16.122314
439.48364 981.81787 16.122314
444.71548 981.81787 16.122314
453.86783 971.02942 39.78833
459.14545 971.02942 39.78833
464.42291 971.02942 39.78833
469.70056 971.02942 39.78833
474.97803 971.02942 39.78833
480.25549 971.02942 39.78833
489.8884 959.82605 64.364258
495.2132 959.82605 64.364258
-454.93741 1019.0737 -77.786133
-449.88254 1019.0737 -77.786133
-444.82767 1019.0737 -77.786133
-443.58636 1008.6599 -55.047363
-438.48767 1008.6599 -55.047363
-433.38895 1008.6599 -55.047363
-424.60825 1019.0737 -77.786133
-419.55338 1019.0737 -77.786133
-418.0929 1008.6599 -55.047363
-412.9942 1008.6599 -55.047363
-404.38882 1019.0737 -77.786133
-399.33395 1019.0737 -77.786133
-394.27905 1019.0737 -77.786133
-392.59943 1008.6599 -55.047363
-384.16937 1019.0737 -77.786133
-379.1145 1019.0737 -77.786133
-377.30331 1008.6599 -55.047363
-372.20459 1008.6599 -55.047363
-367.10596 1008.6599 -55.047363
-362.00726 1008.6599 -55.047363
-356.90854 1008.6599 -55.047363
-351.80984 1008.6599 -55.047363
-346.71112 1008.6599 -55.047363
-341.61249 1008.6599 -55.047363
-336.51379 1008.6599 -55.047363
-331.41507 1008.6599 -55.047363
-217.35895 1019.0737 -77.786133
-212.30417 1019.0737 -77.786133
-209.04645 1008.6599 -55.047363
-203.94774 1008.6599 -55.047363
-197.13953 1019.0737 -77.786133
-192.08464 1019.0737 -77.786133
-187.02988 1019.0737 -77.786133
-180.46011 1029.071 -99.61499
-175.44731 1029.071 -99.61499
-170.43451 1029.071 -99.61499
-164.03307 1039.0684 -121.44409
-159.06244 1039.0684 -121.44409
-154.09172 1039.0684 -121.44409
-149.121 1039.0684 -121.44409
-142.9808 1048.649 -142.36353
-138.05042 1048.649 -142.36353
-133.12013 1048.649 -142.36353
-128.18973 1048.649 -142.36353
-123.25934 1048.649 -142.36353
-118.32894 1048.649 -142.36353
-113.39855 1048.649 -142.36353
-108.46826 1048.649 -142.36353
-103.53786 1048.649 -142.36353
-97.800934 1058.2299 -163.28296
-92.910873 1058.2299 -163.28296
-88.020805 1058.2299 -163.28296
-83.130836 1058.2299 -163.28296
-78.240768 1058.2299 -163.28296
-73.3507 1058.2299 -163.28296
-68.460632 1058.2299 -163.28296
-64.094818 1048.649 -142.36353
-59.16452 1048.649 -142.36353
-54.234131 1048.649 -142.36353
-48.900467 1058.2299 -163.28296
-44.010403 1058.2299 -163.28296
-39.120335 1058.2299 -163.28296
-34.230366 1058.2299 -163.28296
-29.340302 1058.2299 -163.28296
-24.450233 1058.2299 -163.28296
-19.560167 1058.2299 -163.28296
-14.791082 1048.649 -142.36353
-9.8607845 1048.649 -142.36353
-4.9303923 1048.649 -142.36353
0 1048.649 -142.36353
4.9302983 1048.649 -142.36353
9.8607845 1048.649 -142.36353
14.912063 1039.0684 -121.44409
19.882875 1039.0684 -121.44409
24.8535 1039.0684 -121.44409
29.824125 1039.0684 -121.44409
34.794941 1039.0684 -121.44409
39.765564 1039.0684 -121.44409
44.736378 1039.0684 -121.44409
49.707001 1039.0684 -121.44409
54.677624 1039.0684 -121.44409
59.648441 1039.0684 -121.44409
64.619064 1039.0684 -121.44409
69.589882 1039.0684 -121.44409
74.560501 1039.0684 -121.44409
78.885902 1048.649 -142.36353
83.816391 1048.649 -142.36353
88.746681 1048.649 -142.36353
93.67717 1048.649 -142.36353
98.607468 1048.649 -142.36353
103.53777 1048.649 -142.36353
108.46826 1048.649 -142.36353
114.32607 1039.0684 -121.44409
119.29688 1039.0684 -121.44409
124.2675 1039.0684 -121.44409
129.23813 1039.0684 -121.44409
134.20894 1039.0684 -121.44409
140.3578 1029.071 -99.61499
145.3707 1029.071 -99.61499
151.64581 1019.0737 -77.786133
156.70059 1019.0737 -77.786133
163.15823 1008.6599 -55.047363
168.25684 1008.6599 -55.047363
173.35565 1008.6599 -55.047363
178.45427 1008.6599 -55.047363
183.5529 1008.6599 -55.047363
190.27354 998.24597 -32.308838
195.41597 998.24597 -32.308838
202.26811 987.83215 -9.5700684
209.27788 977.00171 14.078125
214.50974 977.00171 14.078125
221.65645 966.17126 37.726074
226.93391 966.17126 37.726074
348.31714 966.17126 37.726074
353.59479 966.17126 37.726074
355.77234 977.00171 14.078125
361.00443 977.00171 14.078125
366.23627 977.00171 14.078125
371.46814 977.00171 14.078125
379.98245 966.17126 37.726074
385.25992 966.17126 37.726074
390.53754 966.17126 37.726074
395.815 966.17126 37.726074
401.09247 966.17126 37.726074
402.85995 977.00171 14.078125
408.0918 977.00171 14.078125
413.32388 977.00171 14.078125
418.55576 977.00171 14.078125
423.7876 977.00171 14.078125
429.01968 977.00171 14.078125
434.25156 977.00171 14.078125
439.48364 977.00171 14.078125
444.71548 977.00171 14.078125
453.86783 966.17126 37.726074
459.14545 966.17126 37.726074
464.42291 966.17126 37.726074
469.70056 966.17126 37.726074
474.97803 966.17126 37.726074
480.25549 966.17126 37.726074
489.8884 954.92444 62.283691
495.2132 954.92444 62.283691
-454.93741 1014.4208 -79.76123
-449.88254 1014.4208 -79.76123
-444.82767 1014.4208 -79.76123
-443.58636 1003.9666 -57.039551
-438.48767 1003.9666 -57.039551
-433.38895 1003.9666 -57.039551
-424.60825 1014.4208 -79.76123
-419.55338 1014.4208 -79.76123
-418.0929 1003.9666 -57.039551
-412.9942 1003.9666 -57.039551
-404.38882 1014.4208 -79.76123
-399.33395 1014.4208 -79.76123
-397.69806 1003.9666 -57.039551
-392.59943 1003.9666 -57.039551
-384.16937 1014.4208 -79.76123
-379.1145 1014.4208 -79.76123
-377.30331 1003.9666 -57.039551
-372.20459 1003.9666 -57.039551
-367.10596 1003.9666 -57.039551
-362.00726 1003.9666 -57.039551
-356.90854 1003.9666 -57.039551
-351.80984 1003.9666 -57.039551
-349.6918 993.51233 -34.318115
-344.54932 993.51233 -34.318115
-339.4068 993.51233 -34.318115
-219.24377 1003.9666 -57.039551
-214.14517 1003.9666 -57.039551
-209.04645 1003.9666 -57.039551
-203.94774 1003.9666 -57.039551
-198.84903 1003.9666 -57.039551
-192.08464 1014.4208 -79.76123
-187.02988 1014.4208 -79.76123
-181.97498 1014.4208 -79.76123
-175.44731 1024.4568 -101.57373
-170.43451 1024.4568 -101.57373
-164.03307 1034.4928 -123.38623
-159.06244 1034.4928 -123.38623
-152.8416 1044.1107 -144.29004
-147.91121 1044.1107 -144.29004
-142.9808 1044.1107 -144.29004
-138.05042 1044.1107 -144.29004
-133.12013 1044.1107 -144.29004
-128.18973 1044.1107 -144.29004
-123.25934 1044.1107 -144.29004
-118.32894 1044.1107 -144.29004
-113.39855 1044.1107 -144.29004
-108.46826 1044.1107 -144.29004
-103.53786 1044.1107 -144.29004
-97.800934 1053.7285 -165.1936
-92.910873 1053.7285 -165.1936
-88.020805 1053.7285 -165.1936
-83.130836 1053.7285 -165.1936
-78.240768 1053.7285 -165.1936
-73.3507 1053.7285 -165.1936
-68.460632 1053.7285 -165.1936
-64.094818 1044.1107 -144.29004
-59.16452 1044.1107 -144.29004
-53.790535 1053.7285 -165.1936
-48.900467 1053.7285 -165.1936
-44.010403 1053.7285 -165.1936
-39.120335 1053.7285 -165.1936
-34.230366 1053.7285 -165.1936
-29.340302 1053.7285 -165.1936
-24.450233 1053.7285 -165.1936
-19.560167 1053.7285 -165.1936
-14.791082 1044.1107 -144.29004
-9.8607845 1044.1107 -144.29004
-4.9303923 1044.1107 -144.29004
0 1044.1107 -144.29004
4.9302983 1044.1107 -144.29004
9.9414377 1034.4928 -123.38623
14.912063 1034.4928 -123.38623
19.882875 1034.4928 -123.38623
24.8535 1034.4928 -123.38623
29.824125 1034.4928 -123.38623
34.794941 1034.4928 -123.38623
39.765564 1034.4928 -123.38623
44.736378 1034.4928 -123.38623
49.707001 1034.4928 -123.38623
54.677624 1034.4928 -123.38623
59.648441 1034.4928 -123.38623
64.619064 1034.4928 -123.38623
69.589882 1034.4928 -123.38623
74.560501 1034.4928 -123.38623
79.531128 1034.4928 -123.38623
84.501938 1034.4928 -123.38623
88.746681 1044.1107 -144.29004
93.67717 1044.1107 -144.29004
99.414001 1034.4928 -123.38623
103.53777 1044.1107 -144.29004
108.46826 1044.1107 -144.29004
114.32607 1034.4928 -123.38623
119.29688 1034.4928 -123.38623
124.2675 1034.4928 -123.38623
129.23813 1034.4928 -123.38623
134.20894 1034.4928 -123.38623
140.3578 1024.4568 -101.57373
145.3707 1024.4568 -101.57373
151.64581 1014.4208 -79.76123
156.70059 1014.4208 -79.76123
163.15823 1003.9666 -57.039551
168.25684 1003.9666 -57.039551
173.35565 1003.9666 -57.039551
178.45427 1003.9666 -57.039551
185.13089 993.51233 -34.318115
190.27354 993.51233 -34.318115
195.41597 993.51233 -34.318115
204.04601 972.18579 12.033691
209.27788 972.18579 12.033691
216.37878 961.31335 35.664062
221.65645 961.31335 35.664062
226.93391 961.31335 35.664062
232.21156 961.31335 35.664062
353.59479 961.31335 35.664062
358.87225 961.31335 35.664062
361.00443 972.18579 12.033691
366.23627 972.18579 12.033691
371.46814 972.18579 12.033691
379.98245 961.31335 35.664062
385.25992 961.31335 35.664062
390.53754 961.31335 35.664062
395.815 961.31335 35.664062
401.09247 961.31335 35.664062
402.85995 972.18579 12.033691
408.0918 972.18579 12.033691
413.32388 972.18579 12.033691
418.55576 972.18579 12.033691
423.7876 972.18579 12.033691
429.01968 972.18579 12.033691
434.25156 972.18579 12.033691
439.48364 972.18579 12.033691
448.59036 961.31335 35.664062
453.86783 961.31335 35.664062
459.14545 961.31335 35.664062
464.42291 961.31335 35.664062
469.70056 961.31335 35.664062
474.97803 961.31335 35.664062
480.25549 961.31335 35.664062
489.8884 950.02295 60.203125
495.2132 950.02295 60.203125
-454.93741 1009.7677 -81.736328
-449.88254 1009.7677 -81.736328
-444.82767 1009.7677 -81.736328
-439.77286 1009.7677 -81.736328
-438.48767 999.27319 -59.031738
-433.38895 999.27319 -59.031738
-428.29025 999.27319 -59.031738
-423.19153 999.27319 -59.031738
-418.0929 999.27319 -59.031738
-412.9942 999.27319 -59.031738
-404.38882 1009.7677 -81.736328
-399.33395 1009.7677 -81.736328
-397.69806 999.27319 -59.031738
-392.59943 999.27319 -59.031738
-387.50073 999.27319 -59.031738
-382.40201 999.27319 -59.031738
-377.30331 999.27319 -59.031738
-372.20459 999.27319 -59.031738
-367.10596 999.27319 -59.031738
-362.00726 999.27319 -59.031738
-356.90854 999.27319 -59.031738
-351.80984 999.27319 -59.031738
-349.6918 988.77856 -36.327393
-344.54932 988.77856 -36.327393
-221.12862 988.77856 -36.327393
-214.14517 999.27319 -59.031738
-209.04645 999.27319 -59.031738
-205.70108 988.77856 -36.327393
-198.84903 999.27319 -59.031738
-193.75031 999.27319 -59.031738
-187.02988 1009.7677 -81.736328
-181.97498 1009.7677 -81.736328
-176.9201 1009.7677 -81.736328
-170.43451 1019.8424 -103.53223
-164.03307 1029.9172 -125.32837
-159.06244 1029.9172 -125.32837
-152.8416 1039.5723 -146.21631
-147.91121 1039.5723 -146.21631
-142.9808 1039.5723 -146.21631
-138.05042 1039.5723 -146.21631
-133.12013 1039.5723 -146.21631
-128.18973 1039.5723 -146.21631
-123.25934 1039.5723 -146.21631
-118.32894 1039.5723 -146.21631
-113.39855 1039.5723 -146.21631
-108.46826 1039.5723 -146.21631
-103.53786 1039.5723 -146.21631
-98.607468 1039.5723 -146.21631
-92.910873 1049.2272 -167.10449
-88.020805 1049.2272 -167.10449
-83.130836 1049.2272 -167.10449
-78.240768 1049.2272 -167.10449
-73.3507 1049.2272 -167.10449
-68.460632 1049.2272 -167.10449
-64.094818 1039.5723 -146.21631
-59.16452 1039.5723 -146.21631
-53.790535 1049.2272 -167.10449
-48.900467 1049.2272 -167.10449
-44.010403 1049.2272 -167.10449
-39.120335 1049.2272 -167.10449
-34.230366 1049.2272 -167.10449
-29.340302 1049.2272 -167.10449
-24.450233 1049.2272 -167.10449
-19.560167 1049.2272 -167.10449
-14.791082 1039.5723 -146.21631
-9.8607845 1039.5723 -146.21631
-4.9303923 1039.5723 -146.21631
0 1039.5723 -146.21631
4.9302983 1039.5723 -146.21631
9.9414377 1029.9172 -125.32837
14.912063 1029.9172 -125.32837
19.882875 1029.9172 -125.32837
24.8535 1029.9172 -125.32837
29.824125 1029.9172 -125.32837
34.794941 1029.9172 -125.32837
39.765564 1029.9172 -125.32837
44.736378 1029.9172 -125.32837
49.707001 1029.9172 -125.32837
54.677624 1029.9172 -125.32837
59.648441 1029.9172 -125.32837
64.619064 1029.9172 -125.32837
69.589882 1029.9172 -125.32837
74.560501 1029.9172 -125.32837
79.531128 1029.9172 -125.32837
84.501938 1029.9172 -125.32837
89.472572 1029.9172 -125.32837
94.443382 1029.9172 -125.32837
99.414001 1029.9172 -125.32837
104.38463 1029.9172 -125.32837
109.35544 1029.9172 -125.32837
114.32607 1029.9172 -125.32837
119.29688 1029.9172 -125.32837
124.2675 1029.9172 -125.32837
129.23813 1029.9172 -125.32837
134.20894 1029.9172 -125.32837
140.3578 1019.8424 -103.53223
145.3707 1019.8424 -103.53223
151.64581 1009.7677 -81.736328
156.70059 1009.7677 -81.736328
163.15823 999.27319 -59.031738
168.25684 999.27319 -59.031738
173.35565 999.27319 -59.031738
178.45427 999.27319 -59.031738
185.13089 988.77856 -36.327393
190.27354 988.77856 -36.327393
197.08165 978.28394 -13.623047
204.04601 967.36975 9.989502
209.27788 967.36975 9.989502
216.37878 956.45532 33.602051
221.65645 956.45532 33.602051
226.93391 956.45532 33.602051
232.21156 956.45532 33.602051
237.48901 956.45532 33.602051
353.59479 956.45532 33.602051
358.87225 956.45532 33.602051
361.00443 967.36975 9.989502
366.23627 967.36975 9.989502
371.46814 967.36975 9.989502
376.70023 967.36975 9.989502
381.93207 967.36975 9.989502
387.16415 967.36975 9.989502
392.39603 967.36975 9.989502
401.09247 956.45532 33.602051
406.37012 956.45532 33.602051
411.64758 956.45532 33.602051
413.32388 967.36975 9.989502
418.55576 967.36975 9.989502
427.48013 956.45532 33.602051
432.75778 956.45532 33.602051
438.03525 956.45532 33.602051
443.3129 956.45532 33.602051
448.59036 956.45532 33.602051
453.86783 956.45532 33.602051
459.14545 956.45532 33.602051
464.42291 956.45532 33.602051
469.70056 956.45532 33.602051
474.97803 956.45532 33.602051
480.25549 956.45532 33.602051
489.8884 945.12122 58.122559
495.2132 945.12122 58.122559
500.53821 945.12122 58.122559
-454.93741 1005.1147 -83.711182
-449.88254 1005.1147 -83.711182
-444.82767 1005.1147 -83.711182
-439.77286 1005.1147 -83.711182
-438.48767 994.57983 -61.023926
-433.38895 994.57983 -61.023926
-424.60825 1005.1147 -83.711182
-419.55338 1005.1147 -83.711182
-418.0929 994.57983 -61.023926
-409.4437 1005.1147 -83.711182
-404.38882 1005.1147 -83.711182
-399.33395 1005.1147 -83.711182
-397.69806 994.57983 -61.023926
-392.59943 994.57983 -61.023926
-387.50073 994.57983 -61.023926
-382.40201 994.57983 -61.023926
-377.30331 994.57983 -61.023926
-372.20459 994.57983 -61.023926
-367.10596 994.57983 -61.023926
-362.00726 994.57983 -61.023926
-356.90854 994.57983 -61.023926
-351.80984 994.57983 -61.023926
-223.01344 973.51001 -15.649414
-215.98618 984.04492 -38.33667
-210.84361 984.04492 -38.33667
-203.94774 994.57983 -61.023926
-198.84903 994.57983 -61.023926
-193.75031 994.57983 -61.023926
-187.02988 1005.1147 -83.711182
-181.97498 1005.1147 -83.711182
-176.9201 1005.1147 -83.711182
-170.43451 1015.2281 -105.49097
-165.42172 1015.2281 -105.49097
-159.06244 1025.3417 -127.27051
-154.09172 1025.3417 -127.27051
-147.91121 1035.0338 -148.14282
-142.9808 1035.0338 -148.14282
-138.05042 1035.0338 -148.14282
-133.12013 1035.0338 -148.14282
-128.18973 1035.0338 -148.14282
-123.25934 1035.0338 -148.14282
-118.32894 1035.0338 -148.14282
-113.39855 1035.0338 -148.14282
-108.46826 1035.0338 -148.14282
-103.53786 1035.0338 -148.14282
-98.607468 1035.0338 -148.14282
-92.910873 1044.726 -169.01514
-88.020805 1044.726 -169.01514
-83.130836 1044.726 -169.01514
-78.240768 1044.726 -169.01514
-73.3507 1044.726 -169.01514
-68.460632 1044.726 -169.01514
-64.094818 1035.0338 -148.14282
-59.16452 1035.0338 -148.14282
-53.790535 1044.726 -169.01514
-48.900467 1044.726 -169.01514
-44.010403 1044.726 -169.01514
-39.120335 1044.726 -169.01514
-34.230366 1044.726 -169.01514
-29.340302 1044.726 -169.01514
-24.450233 1044.726 -169.01514
-19.560167 1044.726 -169.01514
-14.791082 1035.0338 -148.14282
-9.8607845 1035.0338 -148.14282
-4.9303923 1035.0338 -148.14282
0 1035.0338 -148.14282
4.9302983 1035.0338 -148.14282
9.9414377 1025.3417 -127.27051
14.912063 1025.3417 -127.27051
19.882875 1025.3417 -127.27051
24.8535 1025.3417 -127.27051
29.824125 1025.3417 -127.27051
34.794941 1025.3417 -127.27051
39.765564 1025.3417 -127.27051
44.736378 1025.3417 -127.27051
49.707001 1025.3417 -127.27051
54.677624 1025.3417 -127.27051
59.648441 1025.3417 -127.27051
64.619064 1025.3417 -127.27051
69.589882 1025.3417 -127.27051
74.560501 1025.3417 -127.27051
79.531128 1025.3417 -127.27051
84.501938 1025.3417 -127.27051
89.472572 1025.3417 -127.27051
94.443382 1025.3417 -127.27051
99.414001 1025.3417 -127.27051
104.38463 1025.3417 -127.27051
109.35544 1025.3417 -127.27051
114.32607 1025.3417 -127.27051
119.29688 1025.3417 -127.27051
124.2675 1025.3417 -127.27051
129.23813 1025.3417 -127.27051
134.20894 1025.3417 -127.27051
139.17957 1025.3417 -127.27051
145.3707 1015.2281 -105.49097
150.38341 1015.2281 -105.49097
156.70059 1005.1147 -83.711182
163.15823 994.57983 -61.023926
168.25684 994.57983 -61.023926
173.35565 994.57983 -61.023926
178.45427 994.57983 -61.023926
185.13089 984.04492 -38.33667
190.27354 984.04492 -38.33667
197.08165 973.51001 -15.649414
204.04601 962.55371 7.9453125
209.27788 962.55371 7.9453125
216.37878 951.59741 31.539795
221.65645 951.59741 31.539795
226.93391 951.59741 31.539795
232.21156 951.59741 31.539795
358.87225 951.59741 31.539795
364.14987 951.59741 31.539795
366.23627 962.55371 7.9453125
371.46814 962.55371 7.9453125
376.70023 962.55371 7.9453125
381.93207 962.55371 7.9453125
387.16415 962.55371 7.9453125
392.39603 962.55371 7.9453125
401.09247 951.59741 31.539795
406.37012 951.59741 31.539795
408.0918 962.55371 7.9453125
413.32388 962.55371 7.9453125
418.55576 962.55371 7.9453125
427.48013 951.59741 31.539795
432.75778 951.59741 31.539795
438.03525 951.59741 31.539795
443.3129 951.59741 31.539795
448.59036 951.59741 31.539795
453.86783 951.59741 31.539795
459.14545 951.59741 31.539795
464.42291 951.59741 31.539795
469.70056 951.59741 31.539795
474.97803 951.59741 31.539795
484.56342 940.21973 56.041992
489.8884 940.21973 56.041992
495.2132 940.21973 56.041992
500.53821 940.21973 56.041992
-459.99228 1000.4617 -85.686523
-454.93741 1000.4617 -85.686523
-449.88254 1000.4617 -85.686523
-444.82767 1000.4617 -85.686523
-443.58636 989.88647 -63.016357
-438.48767 989.88647 -63.016357
-433.38895 989.88647 -63.016357
-424.60825 1000.4617 -85.686523
-419.55338 1000.4617 -85.686523
-414.49857 1000.4617 -85.686523
-409.4437 1000.4617 -85.686523
-404.38882 1000.4617 -85.686523
-399.33395 1000.4617 -85.686523
-394.27905 1000.4617 -85.686523
-392.59943 989.88647 -63.016357
-387.50073 989.88647 -63.016357
-382.40201 989.88647 -63.016357
-377.30331 989.88647 -63.016357
-372.20459 989.88647 -63.016357
-367.10596 989.88647 -63.016357
-362.00726 989.88647 -63.016357
-356.90854 989.88647 -63.016357
-351.80984 989.88647 -63.016357
-223.01344 968.73584 -17.676025
-215.98618 979.31116 -40.346191
-210.84361 979.31116 -40.346191
-203.94774 989.88647 -63.016357
-198.84903 989.88647 -63.016357
-193.75031 989.88647 -63.016357
-187.02988 1000.4617 -85.686523
-181.97498 1000.4617 -85.686523
-176.9201 1000.4617 -85.686523
-171.86523 1000.4617 -85.686523
-165.42172 1010.6139 -107.44971
-159.06244 1020.7661 -129.21289
-154.09172 1020.7661 -129.21289
-147.91121 1030.4954 -150.06934
-142.9808 1030.4954 -150.06934
-138.05042 1030.4954 -150.06934
-133.12013 1030.4954 -150.06934
-128.18973 1030.4954 -150.06934
-123.25934 1030.4954 -150.06934
-118.32894 1030.4954 -150.06934
-113.39855 1030.4954 -150.06934
-109.35544 1020.7661 -129.21289
-103.53786 1030.4954 -150.06934
-98.607468 1030.4954 -150.06934
-93.677078 1030.4954 -150.06934
-88.020805 1040.2246 -170.92578
-83.130836 1040.2246 -170.92578
-78.240768 1040.2246 -170.92578
-73.3507 1040.2246 -170.92578
-68.460632 1040.2246 -170.92578
-64.094818 1030.4954 -150.06934
-59.16452 1030.4954 -150.06934
-54.234131 1030.4954 -150.06934
-48.900467 1040.2246 -170.92578
-44.010403 1040.2246 -170.92578
-39.120335 1040.2246 -170.92578
-34.230366 1040.2246 -170.92578
-29.340302 1040.2246 -170.92578
-24.450233 1040.2246 -170.92578
-19.560167 1040.2246 -170.92578
-14.791082 1030.4954 -150.06934
-9.8607845 1030.4954 -150.06934
-4.9303923 1030.4954 -150.06934
0 1030.4954 -150.06934
4.9302983 1030.4954 -150.06934
9.9414377 1020.7661 -129.21289
14.912063 1020.7661 -129.21289
19.882875 1020.7661 -129.21289
24.8535 1020.7661 -129.21289
29.824125 1020.7661 -129.21289
34.794941 1020.7661 -129.21289
39.765564 1020.7661 -129.21289
44.736378 1020.7661 -129.21289
49.707001 1020.7661 -129.21289
54.677624 1020.7661 -129.21289
59.648441 1020.7661 -129.21289
64.619064 1020.7661 -129.21289
69.589882 1020.7661 -129.21289
74.560501 1020.7661 -129.21289
79.531128 1020.7661 -129.21289
84.501938 1020.7661 -129.21289
89.472572 1020.7661 -129.21289
94.443382 1020.7661 -129.21289
99.414001 1020.7661 -129.21289
104.38463 1020.7661 -129.21289
109.35544 1020.7661 -129.21289
114.32607 1020.7661 -129.21289
119.29688 1020.7661 -129.21289
124.2675 1020.7661 -129.21289
129.23813 1020.7661 -129.21289
134.20894 1020.7661 -129.21289
139.17957 1020.7661 -129.21289
145.3707 1010.6139 -107.44971
150.38341 1010.6139 -107.44971
156.70059 1000.4617 -85.686523
163.15823 989.88647 -63.016357
168.25684 989.88647 -63.016357
173.35565 989.88647 -63.016357
178.45427 989.88647 -63.016357
185.13089 979.31116 -40.346191
190.27354 979.31116 -40.346191
197.08165 968.73584 -17.676025
204.04601 957.73767 5.9008789
209.27788 957.73767 5.9008789
214.50974 957.73767 5.9008789
219.74182 957.73767 5.9008789
224.97366 957.73767 5.9008789
232.21156 946.73938 29.477783
358.87225 946.73938 29.477783
364.14987 946.73938 29.477783
366.23627 957.73767 5.9008789
371.46814 957.73767 5.9008789
376.70023 957.73767 5.9008789
381.93207 957.73767 5.9008789
387.16415 957.73767 5.9008789
392.39603 957.73767 5.9008789
397.62787 957.73767 5.9008789
402.85995 957.73767 5.9008789
408.0918 957.73767 5.9008789
413.32388 957.73767 5.9008789
418.55576 957.73767 5.9008789
423.7876 957.73767 5.9008789
432.75778 946.73938 29.477783
438.03525 946.73938 29.477783
443.3129 946.73938 29.477783
448.59036 946.73938 29.477783
453.86783 946.73938 29.477783
459.14545 946.73938 29.477783
464.42291 946.73938 29.477783
469.70056 946.73938 29.477783
474.97803 946.73938 29.477783
480.25549 946.73938 29.477783
489.8884 935.31812 53.961426
490.81058 946.73938 29.477783
496.08823 946.73938 29.477783
501.36569 946.73938 29.477783
-459.99228 995.80872 -87.661377
-454.93741 995.80872 -87.661377
-449.88254 995.80872 -87.661377
-444.82767 995.80872 -87.661377
-443.58636 985.19312 -65.008545
-438.48767 985.19312 -65.008545
-433.38895 985.19312 -65.008545
-424.60825 995.80872 -87.661377
-419.55338 995.80872 -87.661377
-414.49857 995.80872 -87.661377
-409.4437 995.80872 -87.661377
-404.38882 995.80872 -87.661377
-399.33395 995.80872 -87.661377
-394.27905 995.80872 -87.661377
-392.59943 985.19312 -65.008545
-387.50073 985.19312 -65.008545
-382.40201 985.19312 -65.008545
-377.30331 985.19312 -65.008545
-372.20459 985.19312 -65.008545
-367.10596 985.19312 -65.008545
-362.00726 985.19312 -65.008545
-356.90854 985.19312 -65.008545
-230.20564 952.92175 3.8566895
-223.01344 963.96191 -19.702393
-217.82718 963.96191 -19.702393
-210.84361 974.57751 -42.355469
-205.70108 974.57751 -42.355469
-198.84903 985.19312 -65.008545
-193.75031 985.19312 -65.008545
-187.02988 995.80872 -87.661377
-181.97498 995.80872 -87.661377
-176.9201 995.80872 -87.661377
-171.86523 995.80872 -87.661377
-165.42172 1005.9996 -109.4082
-159.06244 1016.1907 -131.15503
-154.09172 1016.1907 -131.15503
-149.121 1016.1907 -131.15503
-144.15028 1016.1907 -131.15503
-138.05042 1025.957 -151.99561
-133.12013 1025.957 -151.99561
-128.18973 1025.957 -151.99561
-124.2675 1016.1907 -131.15503
-118.32894 1025.957 -151.99561
-113.39855 1025.957 -151.99561
-109.35544 1016.1907 -131.15503
-103.53786 1025.957 -151.99561
-98.607468 1025.957 -151.99561
-93.677078 1025.957 -151.99561
-88.746681 1025.957 -151.99561
-83.816391 1025.957 -151.99561
-78.240768 1035.7234 -172.83643
-73.3507 1035.7234 -172.83643
-68.460632 1035.7234 -172.83643
-64.094818 1025.957 -151.99561
-59.16452 1025.957 -151.99561
-54.234131 1025.957 -151.99561
-49.303734 1025.957 -151.99561
-44.373341 1025.957 -151.99561
-39.442951 1025.957 -151.99561
-34.230366 1035.7234 -172.83643
-29.340302 1035.7234 -172.83643
-24.450233 1035.7234 -172.83643
-19.560167 1035.7234 -172.83643
-14.791082 1025.957 -151.99561
-9.8607845 1025.957 -151.99561
-4.9303923 1025.957 -151.99561
0 1025.957 -151.99561
4.970624 1016.1907 -131.15503
9.9414377 1016.1907 -131.15503
14.912063 1016.1907 -131.15503
19.882875 1016.1907 -131.15503
24.8535 1016.1907 -131.15503
29.824125 1016.1907 -131.15503
34.794941 1016.1907 -131.15503
39.765564 1016.1907 -131.15503
44.736378 1016.1907 -131.15503
49.707001 1016.1907 -131.15503
54.677624 1016.1907 -131.15503
59.648441 1016.1907 -131.15503
64.619064 1016.1907 -131.15503
69.589882 1016.1907 -131.15503
74.560501 1016.1907 -131.15503
79.531128 1016.1907 -131.15503
84.501938 1016.1907 -131.15503
89.472572 1016.1907 -131.15503
94.443382 1016.1907 -131.15503
99.414001 1016.1907 -131.15503
104.38463 1016.1907 -131.15503
109.35544 1016.1907 -131.15503
114.32607 1016.1907 -131.15503
119.29688 1016.1907 -131.15503
124.2675 1016.1907 -131.15503
129.23813 1016.1907 -131.15503
134.20894 1016.1907 -131.15503
140.3578 1005.9996 -109.4082
145.3707 1005.9996 -109.4082
151.64581 995.80872 -87.661377
156.70059 995.80872 -87.661377
163.15823 985.19312 -65.008545
168.25684 985.19312 -65.008545
173.35565 985.19312 -65.008545
178.45427 985.19312 -65.008545
185.13089 974.57751 -42.355469
190.27354 974.57751 -42.355469
197.08165 963.96191 -19.702393
204.04601 952.92175 3.8566895
209.27788 952.92175 3.8566895
214.50974 952.92175 3.8566895
219.74182 952.92175 3.8566895
224.97366 952.92175 3.8566895
228.19992 963.96191 -19.702393
233.38622 963.96191 -19.702393
366.23627 952.92175 3.8566895
371.46814 952.92175 3.8566895
376.70023 952.92175 3.8566895
381.93207 952.92175 3.8566895
387.16415 952.92175 3.8566895
392.39603 952.92175 3.8566895
397.62787 952.92175 3.8566895
402.85995 952.92175 3.8566895
408.0918 952.92175 3.8566895
413.32388 952.92175 3.8566895
418.55576 952.92175 3.8566895
423.7876 952.92175 3.8566895
432.75778 941.88147 27.415771
434.25156 952.92175 3.8566895
439.48364 952.92175 3.8566895
444.71548 952.92175 3.8566895
453.86783 941.88147 27.415771
459.14545 941.88147 27.415771
464.42291 941.88147 27.415771
469.70056 941.88147 27.415771
474.97803 941.88147 27.415771
480.25549 941.88147 27.415771
489.8884 930.41663 51.880859
490.81058 941.88147 27.415771
496.08823 941.88147 27.415771
501.36569 941.88147 27.415771
506.64316 941.88147 27.415771
-470.10196 991.15564 -89.636475
-465.04715 991.15564 -89.636475
-459.99228 991.15564 -89.636475
-454.93741 991.15564 -89.636475
-449.88254 991.15564 -89.636475
-444.82767 991.15564 -89.636475
-443.58636 980.49963 -67.000732
-438.48767 980.49963 -67.000732
-433.38895 980.49963 -67.000732
-424.60825 991.15564 -89.636475
-419.55338 991.15564 -89.636475
-414.49857 991.15564 -89.636475
-409.4437 991.15564 -89.636475
-404.38882 991.15564 -89.636475
-399.33395 991.15564 -89.636475
-397.69806 980.49963 -67.000732
-392.59943 980.49963 -67.000732
-387.50073 980.49963 -67.000732
-382.40201 980.49963 -67.000732
-377.30331 980.49963 -67.000732
-372.20459 980.49963 -67.000732
-370.26196 969.84375 -44.364746
-365.11942 969.84375 -44.364746
-230.20564 948.10559 1.8122559
-224.97366 948.10559 1.8122559
-217.82718 959.18774 -21.729004
-210.84361 969.84375 -44.364746
-205.70108 969.84375 -44.364746
-198.84903 980.49963 -67.000732
-193.75031 980.49963 -67.000732
-188.6517 980.49963 -67.000732
-181.97498 991.15564 -89.636475
-176.9201 991.15564 -89.636475
-171.86523 991.15564 -89.636475
-165.42172 1001.3853 -111.36694
-160.409 1001.3853 -111.36694
-154.09172 1011.615 -133.09717
-149.121 1011.615 -133.09717
-144.15028 1011.615 -133.09717
-138.05042 1021.4185 -153.92212
-133.12013 1021.4185 -153.92212
-129.23822 1011.615 -133.09717
-124.2675 1011.615 -133.09717
-119.29678 1011.615 -133.09717
-114.32607 1011.615 -133.09717
-109.35544 1011.615 -133.09717
-103.53786 1021.4185 -153.92212
-98.607468 1021.4185 -153.92212
-93.677078 1021.4185 -153.92212
-88.746681 1021.4185 -153.92212
-83.816391 1021.4185 -153.92212
-78.885994 1021.4185 -153.92212
-73.3507 1031.2219 -174.74707
-68.460632 1031.2219 -174.74707
-64.094818 1021.4185 -153.92212
-59.16452 1021.4185 -153.92212
-54.234131 1021.4185 -153.92212
-49.303734 1021.4185 -153.92212
-44.373341 1021.4185 -153.92212
-39.442951 1021.4185 -153.92212
-34.51265 1021.4185 -153.92212
-29.58226 1021.4185 -153.92212
-24.450233 1031.2219 -174.74707
-19.560167 1031.2219 -174.74707
-14.791082 1021.4185 -153.92212
-9.8607845 1021.4185 -153.92212
-4.9303923 1021.4185 -153.92212
0 1021.4185 -153.92212
4.9302983 1021.4185 -153.92212
9.9414377 1011.615 -133.09717
14.912063 1011.615 -133.09717
19.882875 1011.615 -133.09717
24.8535 1011.615 -133.09717
29.824125 1011.615 -133.09717
34.794941 1011.615 -133.09717
39.765564 1011.615 -133.09717
44.736378 1011.615 -133.09717
49.707001 1011.615 -133.09717
54.677624 1011.615 -133.09717
59.648441 1011.615 -133.09717
64.619064 1011.615 -133.09717
69.589882 1011.615 -133.09717
74.560501 1011.615 -133.09717
80.204407 1001.3853 -111.36694
85.2173 1001.3853 -111.36694
90.230003 1001.3853 -111.36694
95.242905 1001.3853 -111.36694
99.414001 1011.615 -133.09717
104.38463 1011.615 -133.09717
109.35544 1011.615 -133.09717
114.32607 1011.615 -133.09717
119.29688 1011.615 -133.09717
124.2675 1011.615 -133.09717
129.23813 1011.615 -133.09717
135.34511 1001.3853 -111.36694
140.3578 1001.3853 -111.36694
145.3707 1001.3853 -111.36694
151.64581 991.15564 -89.636475
156.70059 991.15564 -89.636475
161.75557 991.15564 -89.636475
168.25684 980.49963 -67.000732
173.35565 980.49963 -67.000732
178.45427 980.49963 -67.000732
185.13089 969.84375 -44.364746
190.27354 969.84375 -44.364746
195.41597 969.84375 -44.364746
202.26811 959.18774 -21.729004
207.45441 959.18774 -21.729004
212.6407 959.18774 -21.729004
217.82718 959.18774 -21.729004
224.97366 948.10559 1.8122559
228.19992 959.18774 -21.729004
233.38622 959.18774 -21.729004
236.55617 969.84375 -44.364746
241.69881 969.84375 -44.364746
366.23627 948.10559 1.8122559
371.46814 948.10559 1.8122559
376.70023 948.10559 1.8122559
381.93207 948.10559 1.8122559
387.16415 948.10559 1.8122559
392.39603 948.10559 1.8122559
397.62787 948.10559 1.8122559
402.85995 948.10559 1.8122559
408.0918 948.10559 1.8122559
413.32388 948.10559 1.8122559
418.55576 948.10559 1.8122559
423.7876 948.10559 1.8122559
432.75778 937.02332 25.353516
434.25156 948.10559 1.8122559
439.48364 948.10559 1.8122559
444.71548 948.10559 1.8122559
453.86783 937.02332 25.353516
459.14545 937.02332 25.353516
464.42291 937.02332 25.353516
469.70056 937.02332 25.353516
474.97803 937.02332 25.353516
480.25549 937.02332 25.353516
489.8884 925.51501 49.800049
495.2132 925.51501 49.800049
496.08823 937.02332 25.353516
501.36569 937.02332 25.353516
506.64316 937.02332 25.353516
511.92078 937.02332 25.353516
-475.15683 986.50269 -91.611572
-470.10196 986.50269 -91.611572
-465.04715 986.50269 -91.611572
-459.99228 986.50269 -91.611572
-454.93741 986.50269 -91.611572
-449.88254 986.50269 -91.611572
-444.82767 986.50269 -91.611572
-439.77286 986.50269 -91.611572
-434.71799 986.50269 -91.611572
-433.38895 975.8064 -68.99292
-424.60825 986.50269 -91.611572
-419.55338 986.50269 -91.611572
-414.49857 986.50269 -91.611572
-409.4437 986.50269 -91.611572
-404.38882 986.50269 -91.611572
-399.33395 986.50269 -91.611572
-397.69806 975.8064 -68.99292
-392.59943 975.8064 -68.99292
-387.50073 975.8064 -68.99292
-382.40201 975.8064 -68.99292
-377.30331 975.8064 -68.99292
-372.20459 975.8064 -68.99292
-367.10596 975.8064 -68.99292
-230.20564 943.28967 -0.23193359
-224.97366 943.28967 -0.23193359
-217.82718 954.4137 -23.755371
-210.84361 965.11011 -46.374023
-205.70108 965.11011 -46.374023
-200.55853 965.11011 -46.374023
-193.75031 975.8064 -68.99292
-188.6517 975.8064 -68.99292
-183.55298 975.8064 -68.99292
-176.9201 986.50269 -91.611572
-171.86523 986.50269 -91.611572
-165.42172 996.77112 -113.32544
-160.409 996.77112 -113.32544
-154.09172 1007.0396 -135.03931
-149.121 1007.0396 -135.03931
-144.15028 1007.0396 -135.03931
-139.17957 1007.0396 -135.03931
-134.20894 1007.0396 -135.03931
-129.23822 1007.0396 -135.03931
-124.2675 1007.0396 -135.03931
-119.29678 1007.0396 -135.03931
-114.32607 1007.0396 -135.03931
-109.35544 1007.0396 -135.03931
-103.53786 1016.8801 -155.84863
-98.607468 1016.8801 -155.84863
-93.677078 1016.8801 -155.84863
-88.746681 1016.8801 -155.84863
-83.816391 1016.8801 -155.84863
-78.885994 1016.8801 -155.84863
-73.955605 1016.8801 -155.84863
-69.025208 1016.8801 -155.84863
-64.094818 1016.8801 -155.84863
-59.16452 1016.8801 -155.84863
-54.234131 1016.8801 -155.84863
-49.303734 1016.8801 -155.84863
-44.373341 1016.8801 -155.84863
-39.442951 1016.8801 -155.84863
-34.51265 1016.8801 -155.84863
-29.58226 1016.8801 -155.84863
-24.450233 1026.7207 -176.65796
-19.560167 1026.7207 -176.65796
-14.791082 1016.8801 -155.84863
-9.8607845 1016.8801 -155.84863
-4.9303923 1016.8801 -155.84863
0 1016.8801 -155.84863
4.9302983 1016.8801 -155.84863
9.9414377 1007.0396 -135.03931
14.912063 1007.0396 -135.03931
19.882875 1007.0396 -135.03931
