ply
format ascii 1.0
comment PCL generated
element vertex 1561
property float x
property float y
property float z
element camera 0
property float view_px
property float view_py
property float view_pz
property float x_axisx
property float x_axisy
property float x_axisz
property float y_axisx
property float y_axisy
property float y_axisz
property float z_axisx
property float z_axisy
property float z_axisz
property float focal
property float scalex
property float scaley
property float centerx
property float centery
property int viewportx
property int viewporty
property float k1
property float k2
end_header
-49.303734 1302.8014 -34.482178
-44.373341 1302.8014 -34.482178
-39.442951 1302.8014 -34.482178
-34.51265 1302.8014 -34.482178
-29.58226 1302.8014 -34.482178
-24.651867 1302.8014 -34.482178
-19.882782 1295.2993 -12.68042
-14.912063 1295.2993 -12.68042
-9.9414377 1295.2993 -12.68042
-4.9707189 1295.2993 -12.68042
0 1295.2993 -12.68042
4.970624 1295.2993 -12.68042
9.9414377 1295.2993 -12.68042
14.912063 1295.2993 -12.68042
19.882875 1295.2993 -12.68042
24.8535 1295.2993 -12.68042
29.824125 1295.2993 -12.68042
34.794941 1295.2993 -12.68042
39.765564 1295.2993 -12.68042
44.736378 1295.2993 -12.68042
49.707001 1295.2993 -12.68042
54.677624 1295.2993 -12.68042
59.648441 1295.2993 -12.68042
64.619064 1295.2993 -12.68042
69.589882 1295.2993 -12.68042
74.560501 1295.2993 -12.68042
79.531128 1295.2993 -12.68042
84.501938 1295.2993 -12.68042
90.230003 1287.4712 10.069336
95.242905 1287.4712 10.069336
100.2556 1287.4712 10.069336
105.2683 1287.4712 10.069336
110.2812 1287.4712 10.069336
115.29391 1287.4712 10.069336
120.3068 1287.4712 10.069336
125.3195 1287.4712 10.069336
130.3322 1287.4712 10.069336
135.34511 1287.4712 10.069336
140.3578 1287.4712 10.069336
145.3707 1287.4712 10.069336
150.38341 1287.4712 10.069336
156.70059 1279.6432 32.819092
161.75557 1279.6432 32.819092
168.25684 1271.4888 56.516846
173.35565 1271.4888 56.516846
178.45427 1271.4888 56.516846
183.5529 1271.4888 56.516846
190.27354 1263.3345 80.2146
197.08165 1255.1801 103.91235
202.26811 1255.1801 103.91235
209.27788 1246.6997 128.55811
214.50974 1246.6997 128.55811
221.65645 1238.2191 153.20361
226.93391 1238.2191 153.20361
232.21156 1238.2191 153.20361
237.48901 1238.2191 153.20361
242.76645 1238.2191 153.20361
248.04411 1238.2191 153.20361
253.32158 1238.2191 153.20361
258.59924 1238.2191 153.20361
261.59735 1246.6997 128.55811
266.82922 1246.6997 128.55811
272.06128 1246.6997 128.55811
277.29312 1246.6997 128.55811
284.98691 1238.2191 153.20361
290.26434 1238.2191 153.20361
295.54181 1238.2191 153.20361
300.81946 1238.2191 153.20361
306.09692 1238.2191 153.20361
311.37454 1238.2191 153.20361
316.65201 1238.2191 153.20361
324.8172 1229.4125 178.79688
330.14221 1229.4125 178.79688
335.46698 1229.4125 178.79688
340.79199 1229.4125 178.79688
346.11679 1229.4125 178.79688
351.44156 1229.4125 178.79688
-332.48459 1233.3611 151.1416
-324.38077 1241.8837 126.51367
-319.14877 1241.8837 126.51367
-313.91681 1241.8837 126.51367
-308.68484 1241.8837 126.51367
-303.45288 1241.8837 126.51367
-298.22101 1241.8837 126.51367
-290.43619 1250.406 101.88599
-285.24982 1250.406 101.88599
-280.06345 1250.406 101.88599
-274.87704 1250.406 101.88599
-267.41144 1258.6007 78.205322
-262.26889 1258.6007 78.205322
-259.31802 1250.406 101.88599
-254.13164 1250.406 101.88599
-248.94525 1250.406 101.88599
-243.75897 1250.406 101.88599
-238.57259 1250.406 101.88599
-233.38622 1250.406 101.88599
-228.19983 1250.406 101.88599
-224.97366 1241.8837 126.51367
-219.74182 1241.8837 126.51367
-214.50984 1241.8837 126.51367
-209.27788 1241.8837 126.51367
-204.0459 1241.8837 126.51367
-198.81393 1241.8837 126.51367
-191.89537 1250.406 101.88599
-185.13098 1258.6007 78.205322
-178.45427 1266.7954 54.524658
-173.35556 1266.7954 54.524658
-166.81035 1274.9902 30.843994
-161.75557 1274.9902 30.843994
-156.70068 1274.9902 30.843994
-150.38341 1282.8569 8.1108398
-145.37061 1282.8569 8.1108398
-139.17957 1290.7239 -14.622559
-134.20894 1290.7239 -14.622559
-129.23822 1290.7239 -14.622559
-124.2675 1290.7239 -14.622559
-118.32894 1298.2629 -36.408691
-113.39855 1298.2629 -36.408691
-108.46826 1298.2629 -36.408691
-103.53786 1298.2629 -36.408691
-98.607468 1298.2629 -36.408691
-93.677078 1298.2629 -36.408691
-88.746681 1298.2629 -36.408691
-83.816391 1298.2629 -36.408691
-78.885994 1298.2629 -36.408691
-73.955605 1298.2629 -36.408691
-69.025208 1298.2629 -36.408691
-64.094818 1298.2629 -36.408691
-59.16452 1298.2629 -36.408691
-54.234131 1298.2629 -36.408691
-49.303734 1298.2629 -36.408691
-44.373341 1298.2629 -36.408691
-39.442951 1298.2629 -36.408691
-34.51265 1298.2629 -36.408691
-29.58226 1298.2629 -36.408691
-24.651867 1298.2629 -36.408691
-19.882782 1290.7239 -14.622559
-14.912063 1290.7239 -14.622559
-9.9414377 1290.7239 -14.622559
-4.9707189 1290.7239 -14.622559
0 1290.7239 -14.622559
4.970624 1290.7239 -14.622559
9.9414377 1290.7239 -14.622559
14.912063 1290.7239 -14.622559
19.882875 1290.7239 -14.622559
24.8535 1290.7239 -14.622559
29.824125 1290.7239 -14.622559
34.794941 1290.7239 -14.622559
39.765564 1290.7239 -14.622559
44.736378 1290.7239 -14.622559
49.707001 1290.7239 -14.622559
54.677624 1290.7239 -14.622559
59.648441 1290.7239 -14.622559
64.619064 1290.7239 -14.622559
69.589882 1290.7239 -14.622559
74.560501 1290.7239 -14.622559
79.531128 1290.7239 -14.622559
84.501938 1290.7239 -14.622559
90.230003 1282.8569 8.1108398
95.242905 1282.8569 8.1108398
100.2556 1282.8569 8.1108398
105.2683 1282.8569 8.1108398
111.20696 1274.9902 30.843994
116.26175 1274.9902 30.843994
120.3068 1282.8569 8.1108398
125.3195 1282.8569 8.1108398
130.3322 1282.8569 8.1108398
136.48126 1274.9902 30.843994
141.53606 1274.9902 30.843994
146.59102 1274.9902 30.843994
151.64581 1274.9902 30.843994
156.70059 1274.9902 30.843994
163.15823 1266.7954 54.524658
168.25684 1266.7954 54.524658
173.35565 1266.7954 54.524658
179.98843 1258.6007 78.205322
185.13089 1258.6007 78.205322
190.27354 1258.6007 78.205322
197.08165 1250.406 101.88599
202.26811 1250.406 101.88599
209.27788 1241.8837 126.51367
216.37878 1233.3611 151.1416
221.65645 1233.3611 151.1416
226.93391 1233.3611 151.1416
232.21156 1233.3611 151.1416
237.48901 1233.3611 151.1416
242.76645 1233.3611 151.1416
248.04411 1233.3611 151.1416
253.32158 1233.3611 151.1416
258.59924 1233.3611 151.1416
263.87668 1233.3611 151.1416
269.15411 1233.3611 151.1416
274.43176 1233.3611 151.1416
279.70923 1233.3611 151.1416
284.98691 1233.3611 151.1416
290.26434 1233.3611 151.1416
295.54181 1233.3611 151.1416
300.81946 1233.3611 151.1416
306.09692 1233.3611 151.1416
311.37454 1233.3611 151.1416
316.65201 1233.3611 151.1416
324.8172 1224.511 176.71631
330.14221 1224.511 176.71631
335.46698 1224.511 176.71631
337.76221 1233.3611 151.1416
343.03967 1233.3611 151.1416
348.31714 1233.3611 151.1416
-337.76212 1228.5032 149.07935
-332.48459 1228.5032 149.07935
-324.38077 1237.0676 124.46948
-319.14877 1237.0676 124.46948
-313.91681 1237.0676 124.46948
-308.68484 1237.0676 124.46948
-303.45288 1237.0676 124.46948
-298.22101 1237.0676 124.46948
-290.43619 1245.632 99.859375
-285.24982 1245.632 99.859375
-280.06345 1245.632 99.859375
-274.87704 1245.632 99.859375
-269.69077 1245.632 99.859375
-264.50439 1245.632 99.859375
-259.31802 1245.632 99.859375
-254.13164 1245.632 99.859375
-248.94525 1245.632 99.859375
-243.75897 1245.632 99.859375
-238.57259 1245.632 99.859375
-233.38622 1245.632 99.859375
-228.19983 1245.632 99.859375
-224.97366 1237.0676 124.46948
-219.74182 1237.0676 124.46948
-214.50984 1237.0676 124.46948
-209.27788 1237.0676 124.46948
-204.0459 1237.0676 124.46948
-198.81393 1237.0676 124.46948
-193.58208 1237.0676 124.46948
-185.13098 1253.8669 76.196045
-178.45427 1262.1021 52.532471
-173.35556 1262.1021 52.532471
-166.81035 1270.3372 28.868896
-161.75557 1270.3372 28.868896
-156.70068 1270.3372 28.868896
-150.38341 1278.2427 6.1520996
-145.37061 1278.2427 6.1520996
-139.17957 1286.1483 -16.564697
-134.20894 1286.1483 -16.564697
-129.23822 1286.1483 -16.564697
-124.2675 1286.1483 -16.564697
-118.32894 1293.7245 -38.335205
-113.39855 1293.7245 -38.335205
-108.46826 1293.7245 -38.335205
-103.53786 1293.7245 -38.335205
-98.607468 1293.7245 -38.335205
-93.677078 1293.7245 -38.335205
-88.746681 1293.7245 -38.335205
-83.816391 1293.7245 -38.335205
-78.885994 1293.7245 -38.335205
-73.955605 1293.7245 -38.335205
-69.025208 1293.7245 -38.335205
-64.094818 1293.7245 -38.335205
-59.16452 1293.7245 -38.335205
-54.234131 1293.7245 -38.335205
-49.303734 1293.7245 -38.335205
-44.373341 1293.7245 -38.335205
-39.442951 1293.7245 -38.335205
-34.51265 1293.7245 -38.335205
-29.58226 1293.7245 -38.335205
-24.651867 1293.7245 -38.335205
-19.882782 1286.1483 -16.564697
-14.912063 1286.1483 -16.564697
-9.9414377 1286.1483 -16.564697
-4.9707189 1286.1483 -16.564697
0 1286.1483 -16.564697
4.970624 1286.1483 -16.564697
9.9414377 1286.1483 -16.564697
14.912063 1286.1483 -16.564697
19.882875 1286.1483 -16.564697
24.8535 1286.1483 -16.564697
29.824125 1286.1483 -16.564697
34.794941 1286.1483 -16.564697
39.765564 1286.1483 -16.564697
44.736378 1286.1483 -16.564697
49.707001 1286.1483 -16.564697
54.677624 1286.1483 -16.564697
59.648441 1286.1483 -16.564697
64.619064 1286.1483 -16.564697
69.589882 1286.1483 -16.564697
74.560501 1286.1483 -16.564697
79.531128 1286.1483 -16.564697
84.501938 1286.1483 -16.564697
90.230003 1278.2427 6.1520996
95.242905 1278.2427 6.1520996
100.2556 1278.2427 6.1520996
105.2683 1278.2427 6.1520996
111.20696 1270.3372 28.868896
116.26175 1270.3372 28.868896
121.31673 1270.3372 28.868896
125.3195 1278.2427 6.1520996
130.3322 1278.2427 6.1520996
136.48126 1270.3372 28.868896
141.53606 1270.3372 28.868896
146.59102 1270.3372 28.868896
151.64581 1270.3372 28.868896
158.05943 1262.1021 52.532471
163.15823 1262.1021 52.532471
168.25684 1262.1021 52.532471
174.84598 1253.8669 76.196045
179.98843 1253.8669 76.196045
185.13089 1253.8669 76.196045
190.27354 1253.8669 76.196045
197.08165 1245.632 99.859375
202.26811 1245.632 99.859375
209.27788 1237.0676 124.46948
216.37878 1228.5032 149.07935
221.65645 1228.5032 149.07935
226.93391 1228.5032 149.07935
232.21156 1228.5032 149.07935
237.48901 1228.5032 149.07935
242.76645 1228.5032 149.07935
248.04411 1228.5032 149.07935
253.32158 1228.5032 149.07935
258.59924 1228.5032 149.07935
263.87668 1228.5032 149.07935
269.15411 1228.5032 149.07935
274.43176 1228.5032 149.07935
279.70923 1228.5032 149.07935
284.98691 1228.5032 149.07935
290.26434 1228.5032 149.07935
295.54181 1228.5032 149.07935
300.81946 1228.5032 149.07935
306.09692 1228.5032 149.07935
311.37454 1228.5032 149.07935
316.65201 1228.5032 149.07935
324.8172 1219.6094 174.63574
330.14221 1219.6094 174.63574
335.46698 1219.6094 174.63574
337.76221 1228.5032 149.07935
343.03967 1228.5032 149.07935
348.31714 1228.5032 149.07935
-337.76212 1223.645 147.01733
-332.48459 1223.645 147.01733
-327.20712 1223.645 147.01733
-319.14877 1232.2515 122.42505
-313.91681 1232.2515 122.42505
-308.68484 1232.2515 122.42505
-303.45288 1232.2515 122.42505
-298.22101 1232.2515 122.42505
-292.98904 1232.2515 122.42505
-285.24982 1240.8579 97.833008
-280.06345 1240.8579 97.833008
-274.87704 1240.8579 97.833008
-269.69077 1240.8579 97.833008
-264.50439 1240.8579 97.833008
-259.31802 1240.8579 97.833008
-254.13164 1240.8579 97.833008
-248.94525 1240.8579 97.833008
-243.75897 1240.8579 97.833008
-238.57259 1240.8579 97.833008
-233.38622 1240.8579 97.833008
-228.19983 1240.8579 97.833008
-224.97366 1232.2515 122.42505
-219.74182 1232.2515 122.42505
-214.50984 1232.2515 122.42505
-209.27788 1232.2515 122.42505
-204.0459 1232.2515 122.42505
-198.81393 1232.2515 122.42505
-193.58208 1232.2515 122.42505
-183.55298 1257.4087 50.540283
-176.9201 1265.6841 26.893799
-171.86523 1265.6841 26.893799
-166.81035 1265.6841 26.893799
-161.75557 1265.6841 26.893799
-156.70068 1265.6841 26.893799
-150.38341 1273.6283 4.1933594
-145.37061 1273.6283 4.1933594
-139.17957 1281.5726 -18.50708
-134.20894 1281.5726 -18.50708
-129.23822 1281.5726 -18.50708
-124.2675 1281.5726 -18.50708
-118.32894 1289.186 -40.261719
-113.39855 1289.186 -40.261719
-108.46826 1289.186 -40.261719
-103.53786 1289.186 -40.261719
-98.607468 1289.186 -40.261719
-93.677078 1289.186 -40.261719
-88.746681 1289.186 -40.261719
-83.816391 1289.186 -40.261719
-78.885994 1289.186 -40.261719
-73.955605 1289.186 -40.261719
-69.025208 1289.186 -40.261719
-64.094818 1289.186 -40.261719
-59.16452 1289.186 -40.261719
-54.234131 1289.186 -40.261719
-49.303734 1289.186 -40.261719
-44.373341 1289.186 -40.261719
-39.442951 1289.186 -40.261719
-34.51265 1289.186 -40.261719
-29.58226 1289.186 -40.261719
-24.651867 1289.186 -40.261719
-19.882782 1281.5726 -18.50708
-14.912063 1281.5726 -18.50708
-9.9414377 1281.5726 -18.50708
-4.9707189 1281.5726 -18.50708
0 1281.5726 -18.50708
4.970624 1281.5726 -18.50708
9.9414377 1281.5726 -18.50708
14.912063 1281.5726 -18.50708
19.882875 1281.5726 -18.50708
24.8535 1281.5726 -18.50708
29.824125 1281.5726 -18.50708
35.089497 1273.6283 4.1933594
39.765564 1281.5726 -18.50708
44.736378 1281.5726 -18.50708
49.707001 1281.5726 -18.50708
54.677624 1281.5726 -18.50708
59.648441 1281.5726 -18.50708
64.619064 1281.5726 -18.50708
69.589882 1281.5726 -18.50708
74.560501 1281.5726 -18.50708
79.531128 1281.5726 -18.50708
84.501938 1281.5726 -18.50708
90.230003 1273.6283 4.1933594
95.242905 1273.6283 4.1933594
100.2556 1273.6283 4.1933594
105.2683 1273.6283 4.1933594
111.20696 1265.6841 26.893799
116.26175 1265.6841 26.893799
121.31673 1265.6841 26.893799
126.37151 1265.6841 26.893799
131.42628 1265.6841 26.893799
136.48126 1265.6841 26.893799
141.53606 1265.6841 26.893799
147.86218 1257.4087 50.540283
152.9608 1257.4087 50.540283
158.05943 1257.4087 50.540283
163.15823 1257.4087 50.540283
169.70334 1249.1333 74.186523
174.84598 1249.1333 74.186523
179.98843 1249.1333 74.186523
185.13089 1249.1333 74.186523
191.89537 1240.8579 97.833008
197.08165 1240.8579 97.833008
202.26811 1240.8579 97.833008
209.27788 1232.2515 122.42505
214.50974 1232.2515 122.42505
221.65645 1223.645 147.01733
226.93391 1223.645 147.01733
232.21156 1223.645 147.01733
237.48901 1223.645 147.01733
242.76645 1223.645 147.01733
248.04411 1223.645 147.01733
253.32158 1223.645 147.01733
258.59924 1223.645 147.01733
263.87668 1223.645 147.01733
269.15411 1223.645 147.01733
274.43176 1223.645 147.01733
279.70923 1223.645 147.01733
284.98691 1223.645 147.01733
290.26434 1223.645 147.01733
295.54181 1223.645 147.01733
300.81946 1223.645 147.01733
306.09692 1223.645 147.01733
311.37454 1223.645 147.01733
316.65201 1223.645 147.01733
324.8172 1214.7078 172.55518
330.14221 1214.7078 172.55518
335.46698 1214.7078 172.55518
337.76221 1223.645 147.01733
343.03967 1223.645 147.01733
348.31714 1223.645 147.01733
-337.76212 1218.7871 144.95508
-332.48459 1218.7871 144.95508
-327.20712 1218.7871 144.95508
-319.14877 1227.4355 120.38086
-313.91681 1227.4355 120.38086
-308.68484 1227.4355 120.38086
-303.45288 1227.4355 120.38086
-298.22101 1227.4355 120.38086
-292.98904 1227.4355 120.38086
-287.75708 1227.4355 120.38086
-280.06345 1236.0837 95.806396
-274.87704 1236.0837 95.806396
-269.69077 1236.0837 95.806396
-264.50439 1236.0837 95.806396
-259.31802 1236.0837 95.806396
-254.13164 1236.0837 95.806396
-248.94525 1236.0837 95.806396
-243.75897 1236.0837 95.806396
-238.57259 1236.0837 95.806396
-233.38622 1236.0837 95.806396
-228.19983 1236.0837 95.806396
-224.97366 1227.4355 120.38086
-219.74182 1227.4355 120.38086
-214.50984 1227.4355 120.38086
-209.27788 1227.4355 120.38086
-204.0459 1227.4355 120.38086
-198.81393 1227.4355 120.38086
-191.89537 1236.0837 95.806396
-183.55298 1252.7153 48.547852
-176.9201 1261.031 24.918701
-171.86523 1261.031 24.918701
-166.81035 1261.031 24.918701
-161.75557 1261.031 24.918701
-156.70068 1261.031 24.918701
-151.64581 1261.031 24.918701
-145.37061 1269.014 2.2348633
-140.3578 1269.014 2.2348633
-135.34511 1269.014 2.2348633
-130.33231 1269.014 2.2348633
-124.2675 1276.9971 -20.449219
-118.32894 1284.6476 -42.187988
-113.39855 1284.6476 -42.187988
-108.46826 1284.6476 -42.187988
-103.53786 1284.6476 -42.187988
-98.607468 1284.6476 -42.187988
-93.677078 1284.6476 -42.187988
-88.746681 1284.6476 -42.187988
-83.816391 1284.6476 -42.187988
-78.885994 1284.6476 -42.187988
-73.955605 1284.6476 -42.187988
-69.025208 1284.6476 -42.187988
-64.094818 1284.6476 -42.187988
-59.16452 1284.6476 -42.187988
-54.234131 1284.6476 -42.187988
-49.303734 1284.6476 -42.187988
-44.373341 1284.6476 -42.187988
-39.442951 1284.6476 -42.187988
-34.51265 1284.6476 -42.187988
-29.58226 1284.6476 -42.187988
-24.651867 1284.6476 -42.187988
-19.882782 1276.9971 -20.449219
-14.912063 1276.9971 -20.449219
-9.9414377 1276.9971 -20.449219
-4.9707189 1276.9971 -20.449219
0 1276.9971 -20.449219
4.970624 1276.9971 -20.449219
9.9414377 1276.9971 -20.449219
14.912063 1276.9971 -20.449219
19.882875 1276.9971 -20.449219
25.0639 1269.014 2.2348633
30.076605 1269.014 2.2348633
35.089497 1269.014 2.2348633
40.102203 1269.014 2.2348633
45.115097 1269.014 2.2348633
49.707001 1276.9971 -20.449219
54.677624 1276.9971 -20.449219
60.1534 1269.014 2.2348633
65.1661 1269.014 2.2348633
70.178993 1269.014 2.2348633
75.191704 1269.014 2.2348633
79.531128 1276.9971 -20.449219
84.501938 1276.9971 -20.449219
90.230003 1269.014 2.2348633
95.242905 1269.014 2.2348633
100.2556 1269.014 2.2348633
106.15199 1261.031 24.918701
111.20696 1261.031 24.918701
116.26175 1261.031 24.918701
121.31673 1261.031 24.918701
126.37151 1261.031 24.918701
131.42628 1261.031 24.918701
136.48126 1261.031 24.918701
142.76338 1252.7153 48.547852
147.86218 1252.7153 48.547852
152.9608 1252.7153 48.547852
158.05943 1252.7153 48.547852
164.5609 1244.3995 72.177246
169.70334 1244.3995 72.177246
174.84598 1244.3995 72.177246
179.98843 1244.3995 72.177246
185.13089 1244.3995 72.177246
191.89537 1236.0837 95.806396
197.08165 1236.0837 95.806396
204.04601 1227.4355 120.38086
209.27788 1227.4355 120.38086
214.50974 1227.4355 120.38086
221.65645 1218.7871 144.95508
226.93391 1218.7871 144.95508
232.21156 1218.7871 144.95508
237.48901 1218.7871 144.95508
242.76645 1218.7871 144.95508
248.04411 1218.7871 144.95508
253.32158 1218.7871 144.95508
258.59924 1218.7871 144.95508
263.87668 1218.7871 144.95508
269.15411 1218.7871 144.95508
274.43176 1218.7871 144.95508
279.70923 1218.7871 144.95508
284.98691 1218.7871 144.95508
290.26434 1218.7871 144.95508
295.54181 1218.7871 144.95508
300.81946 1218.7871 144.95508
306.09692 1218.7871 144.95508
311.37454 1218.7871 144.95508
316.65201 1218.7871 144.95508
324.8172 1209.8062 170.47461
330.14221 1209.8062 170.47461
335.46698 1209.8062 170.47461
343.82175 1200.8252 195.99414
349.19388 1200.8252 195.99414
354.56601 1200.8252 195.99414
359.93835 1200.8252 195.99414
-337.76212 1213.9291 142.89307
-329.61261 1222.6194 118.33667
-324.38077 1222.6194 118.33667
-321.92957 1213.9291 142.89307
-316.65201 1213.9291 142.89307
-311.37445 1213.9291 142.89307
-303.45288 1222.6194 118.33667
-298.22101 1222.6194 118.33667
-292.98904 1222.6194 118.33667
-287.75708 1222.6194 118.33667
-282.52512 1222.6194 118.33667
-277.29312 1222.6194 118.33667
-272.06128 1222.6194 118.33667
-266.82932 1222.6194 118.33667
-261.59735 1222.6194 118.33667
-256.36539 1222.6194 118.33667
-251.13341 1222.6194 118.33667
-243.75897 1231.3097 93.780029
-238.57259 1231.3097 93.780029
-235.43761 1222.6194 118.33667
-230.20564 1222.6194 118.33667
-224.97366 1222.6194 118.33667
-219.74182 1222.6194 118.33667
-214.50984 1222.6194 118.33667
-209.27788 1222.6194 118.33667
-204.0459 1222.6194 118.33667
-198.81393 1222.6194 118.33667
-191.89537 1231.3097 93.780029
-183.55298 1248.022 46.555664
-176.9201 1256.3779 22.943604
-171.86523 1256.3779 22.943604
-166.81035 1256.3779 22.943604
-161.75557 1256.3779 22.943604
-156.70068 1256.3779 22.943604
-151.64581 1256.3779 22.943604
-146.59093 1256.3779 22.943604
-140.3578 1264.3997 0.27612305
-135.34511 1264.3997 0.27612305
-130.33231 1264.3997 0.27612305
-125.3195 1264.3997 0.27612305
-119.29678 1272.4216 -22.391357
-114.32607 1272.4216 -22.391357
-109.35544 1272.4216 -22.391357
-104.38472 1272.4216 -22.391357
-99.414001 1272.4216 -22.391357
-94.443283 1272.4216 -22.391357
-89.472572 1272.4216 -22.391357
-83.816391 1280.1091 -44.114502
-78.885994 1280.1091 -44.114502
-73.955605 1280.1091 -44.114502
-69.025208 1280.1091 -44.114502
-64.094818 1280.1091 -44.114502
-59.16452 1280.1091 -44.114502
-54.234131 1280.1091 -44.114502
-49.303734 1280.1091 -44.114502
-44.373341 1280.1091 -44.114502
-39.442951 1280.1091 -44.114502
-34.51265 1280.1091 -44.114502
-29.58226 1280.1091 -44.114502
-24.651867 1280.1091 -44.114502
-19.882782 1272.4216 -22.391357
-14.912063 1272.4216 -22.391357
-9.9414377 1272.4216 -22.391357
-4.9707189 1272.4216 -22.391357
0 1264.3997 0.27612305
5.0127034 1264.3997 0.27612305
10.025599 1264.3997 0.27612305
15.038302 1264.3997 0.27612305
20.051197 1264.3997 0.27612305
25.0639 1264.3997 0.27612305
30.076605 1264.3997 0.27612305
35.089497 1264.3997 0.27612305
40.102203 1264.3997 0.27612305
45.115097 1264.3997 0.27612305
50.1278 1264.3997 0.27612305
55.140507 1264.3997 0.27612305
60.1534 1264.3997 0.27612305
65.1661 1264.3997 0.27612305
70.178993 1264.3997 0.27612305
75.191704 1264.3997 0.27612305
79.531128 1272.4216 -22.391357
84.501938 1272.4216 -22.391357
90.230003 1264.3997 0.27612305
95.242905 1264.3997 0.27612305
100.2556 1264.3997 0.27612305
106.15199 1256.3779 22.943604
111.20696 1256.3779 22.943604
116.26175 1256.3779 22.943604
121.31673 1256.3779 22.943604
126.37151 1256.3779 22.943604
131.42628 1256.3779 22.943604
137.66476 1248.022 46.555664
142.76338 1248.022 46.555664
147.86218 1248.022 46.555664
152.9608 1248.022 46.555664
159.41826 1239.6658 70.167969
164.5609 1239.6658 70.167969
169.70334 1239.6658 70.167969
174.84598 1239.6658 70.167969
179.98843 1239.6658 70.167969
185.13089 1239.6658 70.167969
191.89537 1231.3097 93.780029
197.08165 1231.3097 93.780029
204.04601 1222.6194 118.33667
209.27788 1222.6194 118.33667
214.50974 1222.6194 118.33667
219.74182 1222.6194 118.33667
226.93391 1213.9291 142.89307
232.21156 1213.9291 142.89307
237.48901 1213.9291 142.89307
242.76645 1213.9291 142.89307
248.04411 1213.9291 142.89307
253.32158 1213.9291 142.89307
258.59924 1213.9291 142.89307
263.87668 1213.9291 142.89307
269.15411 1213.9291 142.89307
274.43176 1213.9291 142.89307
279.70923 1213.9291 142.89307
284.98691 1213.9291 142.89307
290.26434 1213.9291 142.89307
295.54181 1213.9291 142.89307
300.81946 1213.9291 142.89307
306.09692 1213.9291 142.89307
311.37454 1213.9291 142.89307
319.4924 1204.9045 168.39404
324.8172 1204.9045 168.39404
330.14221 1204.9045 168.39404
335.46698 1204.9045 168.39404
343.82175 1195.88 193.89526
349.19388 1195.88 193.89526
354.56601 1195.88 193.89526
363.2276 1186.5212 220.34082
-337.76212 1209.071 140.83105
-329.61261 1217.8035 116.29224
-324.38077 1217.8035 116.29224
-321.92957 1209.071 140.83105
-316.65201 1209.071 140.83105
-311.37445 1209.071 140.83105
-306.09692 1209.071 140.83105
-298.22101 1217.8035 116.29224
-292.98904 1217.8035 116.29224
-287.75708 1217.8035 116.29224
-282.52512 1217.8035 116.29224
-277.29312 1217.8035 116.29224
-272.06128 1217.8035 116.29224
-266.82932 1217.8035 116.29224
-261.59735 1217.8035 116.29224
-256.36539 1217.8035 116.29224
-251.13341 1217.8035 116.29224
-245.90155 1217.8035 116.29224
-240.66959 1217.8035 116.29224
-235.43761 1217.8035 116.29224
-232.21146 1209.071 140.83105
-224.97366 1217.8035 116.29224
-219.74182 1217.8035 116.29224
-216.37889 1209.071 140.83105
-209.27788 1217.8035 116.29224
-204.0459 1217.8035 116.29224
-198.81393 1217.8035 116.29224
-191.89537 1226.5356 91.753662
-181.97498 1251.725 20.968506
-176.9201 1251.725 20.968506
-171.86523 1251.725 20.968506
-166.81035 1251.725 20.968506
-161.75557 1251.725 20.968506
-156.70068 1251.725 20.968506
-151.64581 1251.725 20.968506
-146.59093 1251.725 20.968506
-141.53606 1251.725 20.968506
-136.48126 1251.725 20.968506
-130.33231 1259.7854 -1.6826172
-125.3195 1259.7854 -1.6826172
-119.29678 1267.8459 -24.333496
-114.32607 1267.8459 -24.333496
-109.35544 1267.8459 -24.333496
-104.38472 1267.8459 -24.333496
-99.414001 1267.8459 -24.333496
-94.443283 1267.8459 -24.333496
-89.472572 1267.8459 -24.333496
-84.501938 1267.8459 -24.333496
-79.531219 1267.8459 -24.333496
-74.560501 1267.8459 -24.333496
-69.025208 1275.5708 -46.041016
-64.094818 1275.5708 -46.041016
-59.16452 1275.5708 -46.041016
-54.234131 1275.5708 -46.041016
-49.303734 1275.5708 -46.041016
-44.373341 1275.5708 -46.041016
-39.442951 1275.5708 -46.041016
-34.51265 1275.5708 -46.041016
-29.58226 1275.5708 -46.041016
-24.651867 1275.5708 -46.041016
-20.051102 1259.7854 -1.6826172
-15.038302 1259.7854 -1.6826172
-9.9414377 1267.8459 -24.333496
-4.9707189 1267.8459 -24.333496
0 1259.7854 -1.6826172
5.0127034 1259.7854 -1.6826172
10.025599 1259.7854 -1.6826172
14.912063 1267.8459 -24.333496
19.882875 1267.8459 -24.333496
25.0639 1259.7854 -1.6826172
30.076605 1259.7854 -1.6826172
35.089497 1259.7854 -1.6826172
40.102203 1259.7854 -1.6826172
45.115097 1259.7854 -1.6826172
50.1278 1259.7854 -1.6826172
55.140507 1259.7854 -1.6826172
60.1534 1259.7854 -1.6826172
65.1661 1259.7854 -1.6826172
70.178993 1259.7854 -1.6826172
75.191704 1259.7854 -1.6826172
80.204407 1259.7854 -1.6826172
85.2173 1259.7854 -1.6826172
90.230003 1259.7854 -1.6826172
95.242905 1259.7854 -1.6826172
100.2556 1259.7854 -1.6826172
106.15199 1251.725 20.968506
111.20696 1251.725 20.968506
116.26175 1251.725 20.968506
122.36873 1243.3286 44.563477
127.46734 1243.3286 44.563477
132.56595 1243.3286 44.563477
137.66476 1243.3286 44.563477
142.76338 1243.3286 44.563477
147.86218 1243.3286 44.563477
154.2758 1234.9321 68.158447
159.41826 1234.9321 68.158447
164.5609 1234.9321 68.158447
169.70334 1234.9321 68.158447
174.84598 1234.9321 68.158447
179.98843 1234.9321 68.158447
185.13089 1234.9321 68.158447
191.89537 1226.5356 91.753662
197.08165 1226.5356 91.753662
204.04601 1217.8035 116.29224
209.27788 1217.8035 116.29224
214.50974 1217.8035 116.29224
219.74182 1217.8035 116.29224
224.97366 1217.8035 116.29224
230.20573 1217.8035 116.29224
235.43761 1217.8035 116.29224
240.66948 1217.8035 116.29224
248.04411 1209.071 140.83105
253.32158 1209.071 140.83105
258.59924 1209.071 140.83105
263.87668 1209.071 140.83105
269.15411 1209.071 140.83105
274.43176 1209.071 140.83105
279.70923 1209.071 140.83105
284.98691 1209.071 140.83105
290.26434 1209.071 140.83105
295.54181 1209.071 140.83105
300.81946 1209.071 140.83105
306.09692 1209.071 140.83105
311.37454 1209.071 140.83105
319.4924 1200.0031 166.31348
324.8172 1200.0031 166.31348
330.14221 1200.0031 166.31348
335.46698 1200.0031 166.31348
343.82175 1190.9348 191.79614
349.19388 1190.9348 191.79614
354.56601 1190.9348 191.79614
363.2276 1181.5309 218.22241
-343.03967 1204.2131 138.7688
-337.76212 1204.2131 138.7688
-332.48459 1204.2131 138.7688
-327.20712 1204.2131 138.7688
-321.92957 1204.2131 138.7688
-316.65201 1204.2131 138.7688
-311.37445 1204.2131 138.7688
-306.09692 1204.2131 138.7688
-300.81946 1204.2131 138.7688
-295.5419 1204.2131 138.7688
-287.75708 1212.9874 114.24805
-282.52512 1212.9874 114.24805
-277.29312 1212.9874 114.24805
-272.06128 1212.9874 114.24805
-266.82932 1212.9874 114.24805
-261.59735 1212.9874 114.24805
-256.36539 1212.9874 114.24805
-251.13341 1212.9874 114.24805
-245.90155 1212.9874 114.24805
-240.66959 1212.9874 114.24805
-235.43761 1212.9874 114.24805
-232.21146 1204.2131 138.7688
-226.93391 1204.2131 138.7688
-221.65645 1204.2131 138.7688
-216.37889 1204.2131 138.7688
-211.10133 1204.2131 138.7688
-205.82379 1204.2131 138.7688
-200.54623 1204.2131 138.7688
-187.02988 1247.072 18.993408
-181.97498 1247.072 18.993408
-176.9201 1247.072 18.993408
-171.86523 1247.072 18.993408
-166.81035 1247.072 18.993408
-161.75557 1247.072 18.993408
-156.70068 1247.072 18.993408
-151.64581 1247.072 18.993408
-146.59093 1247.072 18.993408
-141.53606 1247.072 18.993408
-136.48126 1247.072 18.993408
-131.42639 1247.072 18.993408
-125.3195 1255.1711 -3.6411133
-120.30671 1255.1711 -3.6411133
-114.32607 1263.2705 -26.275879
-109.35544 1263.2705 -26.275879
-104.38472 1263.2705 -26.275879
-99.414001 1263.2705 -26.275879
-94.443283 1263.2705 -26.275879
-89.472572 1263.2705 -26.275879
-84.501938 1263.2705 -26.275879
-79.531219 1263.2705 -26.275879
-74.560501 1263.2705 -26.275879
-69.589783 1263.2705 -26.275879
-64.094818 1271.0322 -47.967529
-59.16452 1271.0322 -47.967529
-54.234131 1271.0322 -47.967529
-49.303734 1271.0322 -47.967529
-44.373341 1271.0322 -47.967529
-39.442951 1271.0322 -47.967529
-34.51265 1271.0322 -47.967529
-29.58226 1271.0322 -47.967529
-24.651867 1271.0322 -47.967529
-20.051102 1255.1711 -3.6411133
-15.038302 1255.1711 -3.6411133
-9.9414377 1263.2705 -26.275879
-4.9707189 1263.2705 -26.275879
0 1255.1711 -3.6411133
5.0127034 1255.1711 -3.6411133
10.025599 1255.1711 -3.6411133
14.912063 1263.2705 -26.275879
19.882875 1263.2705 -26.275879
25.0639 1255.1711 -3.6411133
30.076605 1255.1711 -3.6411133
35.089497 1255.1711 -3.6411133
40.102203 1255.1711 -3.6411133
45.115097 1255.1711 -3.6411133
50.1278 1255.1711 -3.6411133
55.140507 1255.1711 -3.6411133
60.1534 1255.1711 -3.6411133
65.1661 1255.1711 -3.6411133
70.178993 1255.1711 -3.6411133
75.191704 1255.1711 -3.6411133
80.204407 1255.1711 -3.6411133
85.2173 1255.1711 -3.6411133
90.230003 1255.1711 -3.6411133
95.242905 1255.1711 -3.6411133
101.09721 1247.072 18.993408
106.15199 1247.072 18.993408
111.20696 1247.072 18.993408
116.26175 1247.072 18.993408
122.36873 1238.6353 42.571289
127.46734 1238.6353 42.571289
132.56595 1238.6353 42.571289
137.66476 1238.6353 42.571289
142.76338 1238.6353 42.571289
147.86218 1238.6353 42.571289
154.2758 1230.1984 66.14917
159.41826 1230.1984 66.14917
164.5609 1230.1984 66.14917
169.70334 1230.1984 66.14917
176.33632 1221.7616 89.727051
181.52261 1221.7616 89.727051
186.70889 1221.7616 89.727051
191.89537 1221.7616 89.727051
197.08165 1221.7616 89.727051
202.26811 1221.7616 89.727051
219.74182 1212.9874 114.24805
224.97366 1212.9874 114.24805
230.20573 1212.9874 114.24805
235.43761 1212.9874 114.24805
240.66948 1212.9874 114.24805
248.04411 1204.2131 138.7688
253.32158 1204.2131 138.7688
258.59924 1204.2131 138.7688
263.87668 1204.2131 138.7688
269.15411 1204.2131 138.7688
274.43176 1204.2131 138.7688
279.70923 1204.2131 138.7688
284.98691 1204.2131 138.7688
290.26434 1204.2131 138.7688
295.54181 1204.2131 138.7688
300.81946 1204.2131 138.7688
308.84262 1195.1014 164.23291
314.16763 1195.1014 164.23291
319.4924 1195.1014 164.23291
324.8172 1195.1014 164.23291
330.14221 1195.1014 164.23291
335.46698 1195.1014 164.23291
343.82175 1185.9897 189.69702
349.19388 1185.9897 189.69702
354.56601 1185.9897 189.69702
363.2276 1176.5405 216.10425
368.64883 1176.5405 216.10425
-340.07654 1208.1714 112.20361
-334.8446 1208.1714 112.20361
-332.48459 1199.3551 136.70679
-327.20712 1199.3551 136.70679
-321.92957 1199.3551 136.70679
-316.65201 1199.3551 136.70679
-311.37445 1199.3551 136.70679
-306.09692 1199.3551 136.70679
-300.81946 1199.3551 136.70679
-295.5419 1199.3551 136.70679
-287.75708 1208.1714 112.20361
-282.52512 1208.1714 112.20361
-277.29312 1208.1714 112.20361
-272.06128 1208.1714 112.20361
-266.82932 1208.1714 112.20361
-261.59735 1208.1714 112.20361
-256.36539 1208.1714 112.20361
-251.13341 1208.1714 112.20361
-245.90155 1208.1714 112.20361
-240.66959 1208.1714 112.20361
-237.48901 1199.3551 136.70679
-232.21146 1199.3551 136.70679
-226.93391 1199.3551 136.70679
-221.65645 1199.3551 136.70679
-218.31984 1190.2 162.15234
-212.99493 1190.2 162.15234
-181.97498 1242.4189 17.018311
-176.9201 1242.4189 17.018311
-171.86523 1242.4189 17.018311
-166.81035 1242.4189 17.018311
-161.75557 1242.4189 17.018311
-158.05951 1233.9418 40.579102
-151.64581 1242.4189 17.018311
-146.59093 1242.4189 17.018311
-141.53606 1242.4189 17.018311
-136.48126 1242.4189 17.018311
-131.42639 1242.4189 17.018311
-126.37151 1242.4189 17.018311
-120.30671 1250.5569 -5.5998535
-115.29391 1250.5569 -5.5998535
-110.2812 1250.5569 -5.5998535
-105.2684 1250.5569 -5.5998535
-99.414001 1258.6949 -28.218018
-94.443283 1258.6949 -28.218018
-89.472572 1258.6949 -28.218018
-84.501938 1258.6949 -28.218018
-79.531219 1258.6949 -28.218018
-74.560501 1258.6949 -28.218018
-69.589783 1258.6949 -28.218018
-64.094818 1266.4939 -49.893799
-59.16452 1266.4939 -49.893799
-54.234131 1266.4939 -49.893799
-49.303734 1266.4939 -49.893799
-44.373341 1266.4939 -49.893799
-39.442951 1266.4939 -49.893799
-34.51265 1266.4939 -49.893799
-29.58226 1266.4939 -49.893799
-24.8535 1258.6949 -28.218018
-20.051102 1250.5569 -5.5998535
-15.038302 1250.5569 -5.5998535
-9.9414377 1258.6949 -28.218018
-4.9707189 1258.6949 -28.218018
0 1250.5569 -5.5998535
5.0127034 1250.5569 -5.5998535
10.025599 1250.5569 -5.5998535
15.038302 1250.5569 -5.5998535
20.051197 1250.5569 -5.5998535
25.0639 1250.5569 -5.5998535
30.076605 1250.5569 -5.5998535
35.089497 1250.5569 -5.5998535
40.102203 1250.5569 -5.5998535
45.115097 1250.5569 -5.5998535
50.1278 1250.5569 -5.5998535
55.140507 1250.5569 -5.5998535
60.1534 1250.5569 -5.5998535
65.1661 1250.5569 -5.5998535
70.178993 1250.5569 -5.5998535
75.191704 1250.5569 -5.5998535
80.204407 1250.5569 -5.5998535
85.2173 1250.5569 -5.5998535
90.98745 1242.4189 17.018311
96.042427 1242.4189 17.018311
101.09721 1242.4189 17.018311
106.15199 1242.4189 17.018311
111.20696 1242.4189 17.018311
117.26991 1233.9418 40.579102
122.36873 1233.9418 40.579102
127.46734 1233.9418 40.579102
132.56595 1233.9418 40.579102
137.66476 1233.9418 40.579102
142.76338 1233.9418 40.579102
147.86218 1233.9418 40.579102
154.2758 1225.4646 64.139893
159.41826 1225.4646 64.139893
164.5609 1225.4646 64.139893
169.70334 1225.4646 64.139893
176.33632 1216.9875 87.700684
181.52261 1216.9875 87.700684
186.70889 1216.9875 87.700684
193.58208 1208.1714 112.20361
200.54623 1199.3551 136.70679
205.8239 1199.3551 136.70679
237.48901 1199.3551 136.70679
242.76645 1199.3551 136.70679
248.04411 1199.3551 136.70679
253.32158 1199.3551 136.70679
258.59924 1199.3551 136.70679
263.87668 1199.3551 136.70679
269.15411 1199.3551 136.70679
274.43176 1199.3551 136.70679
279.70923 1199.3551 136.70679
284.98691 1199.3551 136.70679
290.26434 1199.3551 136.70679
295.54181 1199.3551 136.70679
300.81946 1199.3551 136.70679
308.84262 1190.2 162.15234
314.16763 1190.2 162.15234
319.4924 1190.2 162.15234
324.8172 1190.2 162.15234
330.14221 1190.2 162.15234
335.46698 1190.2 162.15234
343.82175 1181.0446 187.5979
349.19388 1181.0446 187.5979
354.56601 1181.0446 187.5979
359.93835 1181.0446 187.5979
365.31049 1181.0446 187.5979
370.68283 1181.0446 187.5979
-348.31726 1194.4971 134.64478
-340.07654 1203.3553 110.15942
-334.8446 1203.3553 110.15942
-332.48459 1194.4971 134.64478
-327.20712 1194.4971 134.64478
-321.92957 1194.4971 134.64478
-316.65201 1194.4971 134.64478
-311.37445 1194.4971 134.64478
-303.45288 1203.3553 110.15942
-298.22101 1203.3553 110.15942
-295.5419 1194.4971 134.64478
-287.75708 1203.3553 110.15942
-282.52512 1203.3553 110.15942
-277.29312 1203.3553 110.15942
-272.06128 1203.3553 110.15942
-266.82932 1203.3553 110.15942
-261.59735 1203.3553 110.15942
-258.59912 1194.4971 134.64478
-251.13341 1203.3553 110.15942
-245.90155 1203.3553 110.15942
-242.76656 1194.4971 134.64478
-237.48901 1194.4971 134.64478
-232.21146 1194.4971 134.64478
-228.96953 1185.2983 160.07153
-223.64473 1185.2983 160.07153
-218.31984 1185.2983 160.07153
-212.99493 1185.2983 160.07153
-176.9201 1237.7659 15.043213
-171.86523 1237.7659 15.043213
-166.81035 1237.7659 15.043213
-161.75557 1237.7659 15.043213
-158.05951 1229.2484 38.586914
-151.64581 1237.7659 15.043213
-146.59093 1237.7659 15.043213
-141.53606 1237.7659 15.043213
-136.48126 1237.7659 15.043213
-131.42639 1237.7659 15.043213
-126.37151 1237.7659 15.043213
-120.30671 1245.9426 -7.5585938
-115.29391 1245.9426 -7.5585938
-110.2812 1245.9426 -7.5585938
-105.2684 1245.9426 -7.5585938
-99.414001 1254.1194 -30.160156
-94.443283 1254.1194 -30.160156
-89.472572 1254.1194 -30.160156
-84.501938 1254.1194 -30.160156
-79.531219 1254.1194 -30.160156
-74.560501 1254.1194 -30.160156
-69.589783 1254.1194 -30.160156
-64.094818 1261.9554 -51.820312
-59.16452 1261.9554 -51.820312
-54.234131 1261.9554 -51.820312
-49.303734 1261.9554 -51.820312
-44.373341 1261.9554 -51.820312
-39.442951 1261.9554 -51.820312
-34.51265 1261.9554 -51.820312
-29.824221 1254.1194 -30.160156
-24.8535 1254.1194 -30.160156
-20.051102 1245.9426 -7.5585938
-14.912063 1254.1194 -30.160156
-9.9414377 1254.1194 -30.160156
-4.9707189 1254.1194 -30.160156
0 1254.1194 -30.160156
5.0127034 1245.9426 -7.5585938
10.025599 1245.9426 -7.5585938
15.038302 1245.9426 -7.5585938
20.051197 1245.9426 -7.5585938
25.0639 1245.9426 -7.5585938
30.076605 1245.9426 -7.5585938
35.089497 1245.9426 -7.5585938
40.102203 1245.9426 -7.5585938
45.115097 1245.9426 -7.5585938
50.1278 1245.9426 -7.5585938
55.140507 1245.9426 -7.5585938
60.1534 1245.9426 -7.5585938
65.1661 1245.9426 -7.5585938
70.178993 1245.9426 -7.5585938
75.191704 1245.9426 -7.5585938
80.877686 1237.7659 15.043213
85.932655 1237.7659 15.043213
90.98745 1237.7659 15.043213
96.042427 1237.7659 15.043213
101.09721 1237.7659 15.043213
106.15199 1237.7659 15.043213
111.20696 1237.7659 15.043213
117.26991 1229.2484 38.586914
122.36873 1229.2484 38.586914
127.46734 1229.2484 38.586914
132.56595 1229.2484 38.586914
137.66476 1229.2484 38.586914
142.76338 1229.2484 38.586914
149.13335 1220.731 62.130615
154.2758 1220.731 62.130615
159.41826 1220.731 62.130615
164.5609 1220.731 62.130615
169.70334 1220.731 62.130615
176.33632 1212.2134 85.674072
183.11813 1203.3553 110.15942
188.35001 1203.3553 110.15942
195.26877 1194.4971 134.64478
200.54623 1194.4971 134.64478
242.76645 1194.4971 134.64478
248.04411 1194.4971 134.64478
253.32158 1194.4971 134.64478
258.59924 1194.4971 134.64478
263.87668 1194.4971 134.64478
269.15411 1194.4971 134.64478
274.43176 1194.4971 134.64478
279.70923 1194.4971 134.64478
284.98691 1194.4971 134.64478
290.26434 1194.4971 134.64478
295.54181 1194.4971 134.64478
300.81946 1194.4971 134.64478
308.84262 1185.2983 160.07153
314.16763 1185.2983 160.07153
319.4924 1185.2983 160.07153
324.8172 1185.2983 160.07153
330.14221 1185.2983 160.07153
335.46698 1185.2983 160.07153
340.79199 1185.2983 160.07153
349.19388 1176.0994 185.49878
354.56601 1176.0994 185.49878
359.93835 1176.0994 185.49878
365.31049 1176.0994 185.49878
370.68283 1176.0994 185.49878
-348.31726 1189.6392 132.58252
-340.07654 1198.5393 108.11523
-334.8446 1198.5393 108.11523
-329.61261 1198.5393 108.11523
-327.20712 1189.6392 132.58252
-321.92957 1189.6392 132.58252
-316.65201 1189.6392 132.58252
-311.37445 1189.6392 132.58252
-303.45288 1198.5393 108.11523
-298.22101 1198.5393 108.11523
-295.5419 1189.6392 132.58252
-287.75708 1198.5393 108.11523
-282.52512 1198.5393 108.11523
-277.29312 1198.5393 108.11523
-272.06128 1198.5393 108.11523
-266.82932 1198.5393 108.11523
-263.87668 1189.6392 132.58252
-258.59912 1189.6392 132.58252
-253.32158 1189.6392 132.58252
-248.04411 1189.6392 132.58252
-242.76656 1189.6392 132.58252
-237.48901 1189.6392 132.58252
-234.29442 1180.3967 157.99097
-228.96953 1180.3967 157.99097
-223.64473 1180.3967 157.99097
-218.31984 1180.3967 157.99097
-176.9201 1233.1129 13.068115
-171.86523 1233.1129 13.068115
-166.81035 1233.1129 13.068115
-163.15823 1224.5551 36.594727
-158.05951 1224.5551 36.594727
-152.9608 1224.5551 36.594727
-147.86209 1224.5551 36.594727
-142.76338 1224.5551 36.594727
-136.48126 1233.1129 13.068115
-131.42639 1233.1129 13.068115
-126.37151 1233.1129 13.068115
-121.31662 1233.1129 13.068115
-115.29391 1241.3284 -9.5170898
-110.2812 1241.3284 -9.5170898
-105.2684 1241.3284 -9.5170898
-99.414001 1249.5438 -32.102539
-94.443283 1249.5438 -32.102539
-89.472572 1249.5438 -32.102539
-84.501938 1249.5438 -32.102539
-79.531219 1249.5438 -32.102539
-74.560501 1249.5438 -32.102539
-69.589783 1249.5438 -32.102539
-64.094818 1257.417 -53.746826
-59.16452 1257.417 -53.746826
-54.234131 1257.417 -53.746826
-49.303734 1257.417 -53.746826
-44.373341 1257.417 -53.746826
-39.442951 1257.417 -53.746826
-34.51265 1257.417 -53.746826
-29.824221 1249.5438 -32.102539
-24.8535 1249.5438 -32.102539
-20.051102 1241.3284 -9.5170898
-14.912063 1249.5438 -32.102539
-9.9414377 1249.5438 -32.102539
-4.9707189 1249.5438 -32.102539
0 1249.5438 -32.102539
5.0127034 1241.3284 -9.5170898
10.025599 1241.3284 -9.5170898
15.038302 1241.3284 -9.5170898
20.051197 1241.3284 -9.5170898
25.0639 1241.3284 -9.5170898
30.076605 1241.3284 -9.5170898
35.089497 1241.3284 -9.5170898
40.102203 1241.3284 -9.5170898
45.115097 1241.3284 -9.5170898
50.548603 1233.1129 13.068115
55.603386 1233.1129 13.068115
60.658363 1233.1129 13.068115
65.713142 1233.1129 13.068115
70.76812 1233.1129 13.068115
75.822906 1233.1129 13.068115
80.877686 1233.1129 13.068115
85.932655 1233.1129 13.068115
90.98745 1233.1129 13.068115
96.042427 1233.1129 13.068115
101.09721 1233.1129 13.068115
106.15199 1233.1129 13.068115
111.20696 1233.1129 13.068115
117.26991 1224.5551 36.594727
122.36873 1224.5551 36.594727
127.46734 1224.5551 36.594727
132.56595 1224.5551 36.594727
137.66476 1224.5551 36.594727
142.76338 1224.5551 36.594727
149.13335 1215.9972 60.121094
154.2758 1215.9972 60.121094
159.41826 1215.9972 60.121094
165.96358 1207.4395 83.647705
171.14984 1207.4395 83.647705
177.88628 1198.5393 108.11523
184.71367 1189.6392 132.58252
189.99112 1189.6392 132.58252
197.02036 1180.3967 157.99097
202.34515 1180.3967 157.99097
248.04411 1189.6392 132.58252
253.32158 1189.6392 132.58252
260.91888 1180.3967 157.99097
263.87668 1189.6392 132.58252
269.15411 1189.6392 132.58252
274.43176 1189.6392 132.58252
279.70923 1189.6392 132.58252
284.98691 1189.6392 132.58252
290.26434 1189.6392 132.58252
295.54181 1189.6392 132.58252
300.81946 1189.6392 132.58252
308.84262 1180.3967 157.99097
314.16763 1180.3967 157.99097
319.4924 1180.3967 157.99097
324.8172 1180.3967 157.99097
330.14221 1180.3967 157.99097
335.46698 1180.3967 157.99097
340.79199 1180.3967 157.99097
346.11679 1180.3967 157.99097
351.44156 1180.3967 157.99097
356.76657 1180.3967 157.99097
362.09137 1180.3967 157.99097
370.68283 1171.1543 183.39966
376.05496 1171.1543 183.39966
-353.59479 1184.7811 130.52051
-348.31726 1184.7811 130.52051
-340.07654 1193.7233 106.0708
-334.8446 1193.7233 106.0708
-329.61261 1193.7233 106.0708
-327.20712 1184.7811 130.52051
-321.92957 1184.7811 130.52051
-316.65201 1184.7811 130.52051
-311.37445 1184.7811 130.52051
-303.45288 1193.7233 106.0708
-298.22101 1193.7233 106.0708
-292.98904 1193.7233 106.0708
-287.75708 1193.7233 106.0708
-282.52512 1193.7233 106.0708
-277.29312 1193.7233 106.0708
-272.06128 1193.7233 106.0708
-266.82932 1193.7233 106.0708
-263.87668 1184.7811 130.52051
-258.59912 1184.7811 130.52051
-253.32158 1184.7811 130.52051
-248.04411 1184.7811 130.52051
-242.76656 1184.7811 130.52051
-239.61931 1175.4952 155.9104
-234.29442 1175.4952 155.9104
-228.96953 1175.4952 155.9104
-225.63301 1166.2091 181.30054
-173.35556 1219.8617 34.602539
-168.25684 1219.8617 34.602539
-163.15823 1219.8617 34.602539
-158.05951 1219.8617 34.602539
-152.9608 1219.8617 34.602539
-147.86209 1219.8617 34.602539
-142.76338 1219.8617 34.602539
-136.48126 1228.46 11.093018
-131.42639 1228.46 11.093018
-126.37151 1228.46 11.093018
-121.31662 1228.46 11.093018
-116.26175 1228.46 11.093018
-110.2812 1236.7141 -11.47583
-105.2684 1236.7141 -11.47583
-100.2556 1236.7141 -11.47583
-94.443283 1244.9683 -34.044678
-89.472572 1244.9683 -34.044678
-84.501938 1244.9683 -34.044678
-79.531219 1244.9683 -34.044678
-74.560501 1244.9683 -34.044678
-69.589783 1244.9683 -34.044678
-64.619064 1244.9683 -34.044678
-59.648441 1244.9683 -34.044678
-54.234131 1252.8787 -55.67334
-49.303734 1252.8787 -55.67334
-44.373341 1252.8787 -55.67334
-39.442951 1252.8787 -55.67334
-34.51265 1252.8787 -55.67334
-29.824221 1244.9683 -34.044678
-24.8535 1244.9683 -34.044678
-20.051102 1236.7141 -11.47583
-15.038302 1236.7141 -11.47583
-10.025599 1236.7141 -11.47583
-5.0127993 1236.7141 -11.47583
0 1236.7141 -11.47583
5.0127034 1236.7141 -11.47583
10.025599 1236.7141 -11.47583
15.038302 1236.7141 -11.47583
20.051197 1236.7141 -11.47583
25.0639 1236.7141 -11.47583
30.076605 1236.7141 -11.47583
35.38406 1228.46 11.093018
40.102203 1236.7141 -11.47583
45.115097 1236.7141 -11.47583
50.548603 1228.46 11.093018
55.603386 1228.46 11.093018
60.658363 1228.46 11.093018
65.713142 1228.46 11.093018
70.76812 1228.46 11.093018
75.822906 1228.46 11.093018
80.877686 1228.46 11.093018
85.932655 1228.46 11.093018
91.776451 1219.8617 34.602539
96.875259 1219.8617 34.602539
101.97387 1219.8617 34.602539
107.07249 1219.8617 34.602539
112.1713 1219.8617 34.602539
117.26991 1219.8617 34.602539
122.36873 1219.8617 34.602539
127.46734 1219.8617 34.602539
132.56595 1219.8617 34.602539
137.66476 1219.8617 34.602539
142.76338 1219.8617 34.602539
149.13335 1211.2634 58.111816
154.2758 1211.2634 58.111816
160.7771 1202.6653 81.621094
165.96358 1202.6653 81.621094
171.14984 1202.6653 81.621094
177.88628 1193.7233 106.0708
186.37057 1175.4952 155.9104
191.69536 1175.4952 155.9104
195.26877 1184.7811 130.52051
200.54623 1184.7811 130.52051
248.04411 1184.7811 130.52051
253.32158 1184.7811 130.52051
260.91888 1175.4952 155.9104
266.24368 1175.4952 155.9104
269.15411 1184.7811 130.52051
274.43176 1184.7811 130.52051
282.21826 1175.4952 155.9104
284.98691 1184.7811 130.52051
290.26434 1184.7811 130.52051
295.54181 1184.7811 130.52051
300.81946 1184.7811 130.52051
308.84262 1175.4952 155.9104
314.16763 1175.4952 155.9104
319.4924 1175.4952 155.9104
324.8172 1175.4952 155.9104
330.14221 1175.4952 155.9104
335.46698 1175.4952 155.9104
340.79199 1175.4952 155.9104
346.11679 1175.4952 155.9104
351.44156 1175.4952 155.9104
356.76657 1175.4952 155.9104
362.09137 1175.4952 155.9104
370.68283 1166.2091 181.30054
376.05496 1166.2091 181.30054
384.91272 1156.5792 207.6311
-353.59479 1179.9231 128.4585
-348.31726 1179.9231 128.4585
-343.03967 1179.9231 128.4585
-337.76212 1179.9231 128.4585
-332.48459 1179.9231 128.4585
-327.20712 1179.9231 128.4585
-321.92957 1179.9231 128.4585
-316.65201 1179.9231 128.4585
-311.37445 1179.9231 128.4585
-306.09692 1179.9231 128.4585
-298.22101 1188.9072 104.02661
-292.98904 1188.9072 104.02661
-287.75708 1188.9072 104.02661
-282.52512 1188.9072 104.02661
-277.29312 1188.9072 104.02661
-272.06128 1188.9072 104.02661
-266.82932 1188.9072 104.02661
-263.87668 1179.9231 128.4585
-258.59912 1179.9231 128.4585
-253.32158 1179.9231 128.4585
-248.04411 1179.9231 128.4585
-242.76656 1179.9231 128.4585
-239.61931 1170.5936 153.82983
-234.29442 1170.5936 153.82983
-228.96953 1170.5936 153.82983
-223.64473 1170.5936 153.82983
-173.35556 1215.1683 32.610352
-168.25684 1215.1683 32.610352
-163.15823 1215.1683 32.610352
-158.05951 1215.1683 32.610352
-152.9608 1215.1683 32.610352
-147.86209 1215.1683 32.610352
-142.76338 1215.1683 32.610352
-136.48126 1223.8069 9.1179199
-131.42639 1223.8069 9.1179199
-126.37151 1223.8069 9.1179199
-121.31662 1223.8069 9.1179199
-116.26175 1223.8069 9.1179199
-111.20696 1223.8069 9.1179199
-105.2684 1232.0997 -13.434326
-100.2556 1232.0997 -13.434326
-95.242805 1232.0997 -13.434326
-90.230003 1232.0997 -13.434326
-84.501938 1240.3927 -35.986816
-79.531219 1240.3927 -35.986816
-75.191704 1232.0997 -13.434326
-69.589783 1240.3927 -35.986816
-64.619064 1240.3927 -35.986816
-59.648441 1240.3927 -35.986816
-54.677719 1240.3927 -35.986816
-49.707001 1240.3927 -35.986816
-44.736286 1240.3927 -35.986816
-39.765564 1240.3927 -35.986816
-34.794941 1240.3927 -35.986816
-29.824221 1240.3927 -35.986816
-24.8535 1240.3927 -35.986816
-20.051102 1232.0997 -13.434326
-15.038302 1232.0997 -13.434326
-10.025599 1232.0997 -13.434326
-5.0127993 1232.0997 -13.434326
0 1232.0997 -13.434326
5.0127034 1232.0997 -13.434326
10.025599 1232.0997 -13.434326
15.038302 1232.0997 -13.434326
