ply
format ascii 1.0
comment PCL generated
element vertex 1564
property float x
property float y
property float z
element camera 0
property float view_px
property float view_py
property float view_pz
property float x_axisx
property float x_axisy
property float x_axisz
property float y_axisx
property float y_axisy
property float y_axisz
property float z_axisx
property float z_axisy
property float z_axisz
property float focal
property float scalex
property float scaley
property float centerx
property float centery
property int viewportx
property int viewporty
property float k1
property float k2
end_header
-36.623669 943.28967 -0.23193359
-31.391701 943.28967 -0.23193359
-26.159735 943.28967 -0.23193359
-20.927767 943.28967 -0.23193359
-15.695801 943.28967 -0.23193359
-10.463933 943.28967 -0.23193359
-5.2319665 943.28967 -0.23193359
0 954.4137 -23.755371
5.1862807 954.4137 -23.755371
10.463933 943.28967 -0.23193359
15.559041 954.4137 -23.755371
20.74552 954.4137 -23.755371
26.159735 943.28967 -0.23193359
31.391602 943.28967 -0.23193359
36.623669 943.28967 -0.23193359
41.855534 943.28967 -0.23193359
47.087601 943.28967 -0.23193359
52.319469 943.28967 -0.23193359
57.551338 943.28967 -0.23193359
62.236362 954.4137 -23.755371
67.422646 954.4137 -23.755371
72.609123 954.4137 -23.755371
77.795403 954.4137 -23.755371
82.981682 954.4137 -23.755371
88.943138 943.28967 -0.23193359
94.175003 943.28967 -0.23193359
99.407066 943.28967 -0.23193359
104.63894 943.28967 -0.23193359
109.8708 943.28967 -0.23193359
115.10287 943.28967 -0.23193359
121.38322 932.16541 23.291504
126.66088 932.16541 23.291504
131.93834 932.16541 23.291504
137.21579 932.16541 23.291504
142.49345 932.16541 23.291504
147.7709 932.16541 23.291504
153.04855 932.16541 23.291504
158.326 932.16541 23.291504
165.071 920.61353 47.719482
170.396 920.61353 47.719482
175.72078 920.61353 47.719482
181.04578 920.61353 47.719482
186.37057 920.61353 47.719482
191.69536 920.61353 47.719482
198.77194 909.0614 72.147949
206.00961 897.08167 97.480957
211.43105 897.08167 97.480957
216.85228 897.08167 97.480957
222.2735 897.08167 97.480957
227.69493 897.08167 97.480957
278.0173 986.50269 -91.611572
280.71561 996.77112 -113.32544
285.72852 996.77112 -113.32544
288.30057 1007.0396 -135.03931
293.27139 1007.0396 -135.03931
298.242 1007.0396 -135.03931
305.77954 996.77112 -113.32544
308.18344 1007.0396 -135.03931
313.15408 1007.0396 -135.03931
320.81799 996.77112 -113.32544
325.83072 996.77112 -113.32544
330.84344 996.77112 -113.32544
335.85632 996.77112 -113.32544
340.86902 996.77112 -113.32544
345.8819 996.77112 -113.32544
350.89462 996.77112 -113.32544
355.90732 996.77112 -113.32544
363.94995 986.50269 -91.611572
369.00476 986.50269 -91.611572
370.9458 996.77112 -113.32544
375.95853 996.77112 -113.32544
384.16928 986.50269 -91.611572
392.59943 975.8064 -68.99292
401.11707 965.11011 -46.374023
-136.76001 880.06616 120.67627
-131.28958 880.06616 120.67627
-125.81916 880.06616 120.67627
-120.34885 880.06616 120.67627
-114.87842 880.06616 120.67627
-108.42614 892.09119 95.362549
-103.00481 892.09119 95.362549
-97.583481 892.09119 95.362549
-91.327667 904.11621 70.048828
-85.955437 904.11621 70.048828
-79.8731 915.71191 45.638916
-74.54821 915.71191 45.638916
-68.607895 927.30737 21.229492
-63.330441 927.30737 21.229492
-58.052891 927.30737 21.229492
-52.319469 938.47351 -2.276123
-47.087502 938.47351 -2.276123
-41.855534 938.47351 -2.276123
-36.623669 938.47351 -2.276123
-31.391701 938.47351 -2.276123
-26.159735 938.47351 -2.276123
-20.927767 938.47351 -2.276123
-15.695801 938.47351 -2.276123
-10.463933 938.47351 -2.276123
-5.2319665 938.47351 -2.276123
0 949.63965 -25.781738
5.1862807 949.63965 -25.781738
10.463933 938.47351 -2.276123
15.695801 938.47351 -2.276123
20.927866 938.47351 -2.276123
26.159735 938.47351 -2.276123
31.391602 938.47351 -2.276123
36.623669 938.47351 -2.276123
41.855534 938.47351 -2.276123
47.087601 938.47351 -2.276123
52.319469 938.47351 -2.276123
57.049881 949.63965 -25.781738
62.236362 949.63965 -25.781738
67.422646 949.63965 -25.781738
72.609123 949.63965 -25.781738
77.795403 949.63965 -25.781738
82.981682 949.63965 -25.781738
88.943138 938.47351 -2.276123
94.175003 938.47351 -2.276123
99.407066 938.47351 -2.276123
105.55067 927.30737 21.229492
110.82812 927.30737 21.229492
116.10578 927.30737 21.229492
121.38322 927.30737 21.229492
126.66088 927.30737 21.229492
131.93834 927.30737 21.229492
137.21579 927.30737 21.229492
142.49345 927.30737 21.229492
147.7709 927.30737 21.229492
153.04855 927.30737 21.229492
158.326 927.30737 21.229492
165.071 915.71191 45.638916
170.396 915.71191 45.638916
175.72078 915.71191 45.638916
181.04578 915.71191 45.638916
186.37057 915.71191 45.638916
191.69536 915.71191 45.638916
198.77194 904.11621 70.048828
206.00961 892.09119 95.362549
211.43105 892.09119 95.362549
216.85228 892.09119 95.362549
224.28632 880.06616 120.67627
229.75684 880.06616 120.67627
278.35913 1002.4639 -136.98169
283.32996 1002.4639 -136.98169
288.30057 1002.4639 -136.98169
295.75409 992.15674 -115.28418
300.76682 992.15674 -115.28418
305.77954 992.15674 -115.28418
310.79242 992.15674 -115.28418
315.80511 992.15674 -115.28418
320.81799 992.15674 -115.28418
325.83072 992.15674 -115.28418
330.84344 992.15674 -115.28418
335.85632 992.15674 -115.28418
340.86902 992.15674 -115.28418
345.8819 992.15674 -115.28418
350.89462 992.15674 -115.28418
355.90732 992.15674 -115.28418
360.92023 992.15674 -115.28418
365.93289 992.15674 -115.28418
370.9458 992.15674 -115.28418
375.95853 992.15674 -115.28418
380.97122 992.15674 -115.28418
389.22427 981.84961 -93.58667
401.11707 960.37622 -48.383545
-146.24205 837.0957 198.03613
-139.30234 850.02808 170.93481
-133.73022 850.02808 170.93481
-126.98864 862.5293 144.73682
-121.46747 862.5293 144.73682
-114.87842 875.03076 118.53882
-108.42614 887.10095 93.244385
-103.00481 887.10095 93.244385
-97.583481 887.10095 93.244385
-91.327667 899.17114 67.949707
-85.955437 899.17114 67.949707
-79.8731 910.8103 43.55835
-74.54821 910.8103 43.55835
-68.607895 922.44946 19.167236
-63.330441 922.44946 19.167236
-58.052891 922.44946 19.167236
-52.319469 933.65759 -4.3205566
-47.087502 933.65759 -4.3205566
-42.22023 922.44946 19.167236
-36.623669 933.65759 -4.3205566
-31.391701 933.65759 -4.3205566
-26.159735 933.65759 -4.3205566
-20.927767 933.65759 -4.3205566
-15.83256 922.44946 19.167236
-10.555108 922.44946 19.167236
-5.277554 922.44946 19.167236
0 933.65759 -4.3205566
5.2318668 933.65759 -4.3205566
10.463933 933.65759 -4.3205566
15.695801 933.65759 -4.3205566
20.927866 933.65759 -4.3205566
26.159735 933.65759 -4.3205566
31.391602 933.65759 -4.3205566
36.623669 933.65759 -4.3205566
41.855534 933.65759 -4.3205566
46.677322 944.8656 -27.80835
51.863602 944.8656 -27.80835
57.049881 944.8656 -27.80835
62.236362 944.8656 -27.80835
67.422646 944.8656 -27.80835
72.609123 944.8656 -27.80835
77.795403 944.8656 -27.80835
82.981682 944.8656 -27.80835
88.943138 933.65759 -4.3205566
94.175003 933.65759 -4.3205566
100.27322 922.44946 19.167236
105.55067 922.44946 19.167236
110.82812 922.44946 19.167236
116.10578 922.44946 19.167236
121.38322 922.44946 19.167236
126.66088 922.44946 19.167236
131.93834 922.44946 19.167236
137.21579 922.44946 19.167236
142.49345 922.44946 19.167236
147.7709 922.44946 19.167236
153.04855 922.44946 19.167236
158.326 922.44946 19.167236
165.071 910.8103 43.55835
170.396 910.8103 43.55835
175.72078 910.8103 43.55835
181.04578 910.8103 43.55835
186.37057 910.8103 43.55835
191.69536 910.8103 43.55835
198.77194 899.17114 67.949707
206.00961 887.10095 93.244385
211.43105 887.10095 93.244385
216.85228 887.10095 93.244385
222.2735 887.10095 93.244385
227.69493 887.10095 93.244385
278.35913 997.88843 -138.92383
283.32996 997.88843 -138.92383
288.30057 997.88843 -138.92383
295.75409 987.54248 -117.24292
300.76682 987.54248 -117.24292
305.77954 987.54248 -117.24292
310.79242 987.54248 -117.24292
315.80511 987.54248 -117.24292
320.81799 987.54248 -117.24292
325.83072 987.54248 -117.24292
330.84344 987.54248 -117.24292
335.85632 987.54248 -117.24292
340.86902 987.54248 -117.24292
345.8819 987.54248 -117.24292
350.89462 987.54248 -117.24292
355.90732 987.54248 -117.24292
360.92023 987.54248 -117.24292
365.93289 987.54248 -117.24292
370.9458 987.54248 -117.24292
375.95853 987.54248 -117.24292
380.97122 987.54248 -117.24292
389.22427 977.19666 -95.561768
-146.24205 831.91797 195.83838
-139.30234 844.8988 168.75757
-133.73022 844.8988 168.75757
-128.15811 844.8988 168.75757
-121.46747 857.4469 142.57959
-114.87842 869.99512 116.40137
-109.408 869.99512 116.40137
-103.00481 882.1106 91.125977
-97.583481 882.1106 91.125977
-92.162254 882.1106 91.125977
-85.955437 894.22595 65.850586
-79.8731 905.90869 41.477783
-74.54821 905.90869 41.477783
-69.223312 905.90869 41.477783
-63.330441 917.59143 17.105225
-58.052891 917.59143 17.105225
-52.775333 917.59143 17.105225
-47.49778 917.59143 17.105225
-42.22023 917.59143 17.105225
-36.623669 928.84143 -6.3647461
-31.391701 928.84143 -6.3647461
-26.159735 928.84143 -6.3647461
-20.927767 928.84143 -6.3647461
-15.83256 917.59143 17.105225
-10.555108 917.59143 17.105225
-5.277554 917.59143 17.105225
0 917.59143 17.105225
5.2774534 917.59143 17.105225
10.463933 928.84143 -6.3647461
15.695801 928.84143 -6.3647461
20.927866 928.84143 -6.3647461
26.159735 928.84143 -6.3647461
31.391602 928.84143 -6.3647461
36.623669 928.84143 -6.3647461
41.855534 928.84143 -6.3647461
46.677322 940.09143 -29.834717
51.863602 940.09143 -29.834717
57.049881 940.09143 -29.834717
62.236362 940.09143 -29.834717
67.422646 940.09143 -29.834717
72.609123 940.09143 -29.834717
77.795403 940.09143 -29.834717
83.711067 928.84143 -6.3647461
88.943138 928.84143 -6.3647461
94.175003 928.84143 -6.3647461
100.27322 917.59143 17.105225
105.55067 917.59143 17.105225
110.82812 917.59143 17.105225
116.10578 917.59143 17.105225
121.38322 917.59143 17.105225
126.66088 917.59143 17.105225
131.93834 917.59143 17.105225
137.21579 917.59143 17.105225
142.49345 917.59143 17.105225
147.7709 917.59143 17.105225
154.42142 905.90869 41.477783
159.7462 905.90869 41.477783
165.071 905.90869 41.477783
170.396 905.90869 41.477783
175.72078 905.90869 41.477783
181.04578 905.90869 41.477783
186.37057 905.90869 41.477783
191.69536 905.90869 41.477783
198.77194 894.22595 65.850586
206.00961 882.1106 91.125977
211.43105 882.1106 91.125977
216.85228 882.1106 91.125977
222.2735 882.1106 91.125977
227.69493 882.1106 91.125977
283.32996 993.31287 -140.86597
288.30057 993.31287 -140.86597
293.27139 993.31287 -140.86597
300.76682 982.9281 -119.20142
305.77954 982.9281 -119.20142
310.79242 982.9281 -119.20142
315.80511 982.9281 -119.20142
320.81799 982.9281 -119.20142
325.83072 982.9281 -119.20142
330.84344 982.9281 -119.20142
335.85632 982.9281 -119.20142
340.86902 982.9281 -119.20142
345.8819 982.9281 -119.20142
350.89462 982.9281 -119.20142
355.90732 982.9281 -119.20142
360.92023 982.9281 -119.20142
365.93289 982.9281 -119.20142
370.9458 982.9281 -119.20142
379.1145 972.54358 -97.536865
384.16928 972.54358 -97.536865
392.59943 961.7262 -74.969482
-151.86678 826.7406 193.64062
-146.24205 826.7406 193.64062
-140.61734 826.7406 193.64062
-133.73022 839.76978 166.58032
-128.15811 839.76978 166.58032
-122.58611 839.76978 166.58032
-114.87842 864.95972 114.26392
-109.408 864.95972 114.26392
-103.00481 877.12024 89.007812
-97.583481 877.12024 89.007812
-92.162254 877.12024 89.007812
-85.955437 889.28088 63.751465
-79.8731 901.0072 39.397217
-74.54821 901.0072 39.397217
-68.607895 912.73352 15.043213
-63.330441 912.73352 15.043213
-58.052891 912.73352 15.043213
-52.775333 912.73352 15.043213
-47.087502 924.02551 -8.4089355
-41.855534 924.02551 -8.4089355
-36.623669 924.02551 -8.4089355
-31.391701 924.02551 -8.4089355
-26.159735 924.02551 -8.4089355
-20.927767 924.02551 -8.4089355
-15.83256 912.73352 15.043213
-10.555108 912.73352 15.043213
-5.277554 912.73352 15.043213
0 912.73352 15.043213
5.2774534 912.73352 15.043213
10.555108 912.73352 15.043213
15.83256 912.73352 15.043213
21.110216 912.73352 15.043213
26.159735 924.02551 -8.4089355
31.391602 924.02551 -8.4089355
36.623669 924.02551 -8.4089355
41.855534 924.02551 -8.4089355
47.087601 924.02551 -8.4089355
52.319469 924.02551 -8.4089355
57.049881 935.3175 -31.861328
62.236362 935.3175 -31.861328
67.422646 935.3175 -31.861328
72.609123 935.3175 -31.861328
77.795403 935.3175 -31.861328
83.711067 924.02551 -8.4089355
88.943138 924.02551 -8.4089355
94.175003 924.02551 -8.4089355
100.27322 912.73352 15.043213
105.55067 912.73352 15.043213
110.82812 912.73352 15.043213
116.10578 912.73352 15.043213
121.38322 912.73352 15.043213
126.66088 912.73352 15.043213
131.93834 912.73352 15.043213
137.21579 912.73352 15.043213
142.49345 912.73352 15.043213
147.7709 912.73352 15.043213
154.42142 901.0072 39.397217
159.7462 901.0072 39.397217
165.071 901.0072 39.397217
170.396 901.0072 39.397217
175.72078 901.0072 39.397217
181.04578 901.0072 39.397217
186.37057 901.0072 39.397217
191.69536 901.0072 39.397217
200.58839 877.12024 89.007812
206.00961 877.12024 89.007812
211.43105 877.12024 89.007812
216.85228 877.12024 89.007812
224.28632 864.95972 114.26392
283.32996 988.7373 -142.80811
288.30057 988.7373 -142.80811
293.27139 988.7373 -142.80811
300.76682 978.31396 -121.16016
305.77954 978.31396 -121.16016
310.79242 978.31396 -121.16016
315.80511 978.31396 -121.16016
320.81799 978.31396 -121.16016
325.83072 978.31396 -121.16016
330.84344 978.31396 -121.16016
335.85632 978.31396 -121.16016
340.86902 978.31396 -121.16016
345.8819 978.31396 -121.16016
350.89462 978.31396 -121.16016
355.90732 978.31396 -121.16016
360.92023 978.31396 -121.16016
365.93289 978.31396 -121.16016
374.05975 967.89062 -99.511963
379.1145 967.89062 -99.511963
384.16928 967.89062 -99.511963
392.59943 957.03296 -76.96167
397.69806 957.03296 -76.96167
-151.86678 821.56299 191.44287
-146.24205 821.56299 191.44287
-140.61734 821.56299 191.44287
-134.99263 821.56299 191.44287
-129.3679 821.56299 191.44287
-122.58611 834.64062 164.40308
-117.01398 834.64062 164.40308
-110.42493 847.28223 138.26489
-103.93758 859.92407 112.12622
-98.467163 859.92407 112.12622
-92.162254 872.12988 86.889404
-85.955437 884.33557 61.652344
-80.583206 884.33557 61.652344
-74.54821 896.10559 37.31665
-68.607895 907.87549 12.980957
-63.330441 907.87549 12.980957
-58.052891 907.87549 12.980957
-52.775333 907.87549 12.980957
-47.087502 919.20947 -10.453369
-41.855534 919.20947 -10.453369
-36.623669 919.20947 -10.453369
-31.391701 919.20947 -10.453369
-26.159735 919.20947 -10.453369
-20.927767 919.20947 -10.453369
-15.83256 907.87549 12.980957
-10.555108 907.87549 12.980957
-5.277554 907.87549 12.980957
0 907.87549 12.980957
5.2774534 907.87549 12.980957
10.555108 907.87549 12.980957
15.83256 907.87549 12.980957
21.110216 907.87549 12.980957
26.159735 919.20947 -10.453369
31.391602 919.20947 -10.453369
36.623669 919.20947 -10.453369
41.855534 919.20947 -10.453369
47.087601 919.20947 -10.453369
52.319469 919.20947 -10.453369
57.551338 919.20947 -10.453369
62.783401 919.20947 -10.453369
68.015266 919.20947 -10.453369
73.247337 919.20947 -10.453369
78.479202 919.20947 -10.453369
83.711067 919.20947 -10.453369
88.943138 919.20947 -10.453369
94.175003 919.20947 -10.453369
99.407066 919.20947 -10.453369
105.55067 907.87549 12.980957
110.82812 907.87549 12.980957
116.10578 907.87549 12.980957
121.38322 907.87549 12.980957
126.66088 907.87549 12.980957
131.93834 907.87549 12.980957
137.21579 907.87549 12.980957
142.49345 907.87549 12.980957
147.7709 907.87549 12.980957
153.04855 907.87549 12.980957
158.326 907.87549 12.980957
163.60345 907.87549 12.980957
168.8811 907.87549 12.980957
174.15857 907.87549 12.980957
181.04578 896.10559 37.31665
186.37057 896.10559 37.31665
191.69536 896.10559 37.31665
200.58839 872.12988 86.889404
206.00961 872.12988 86.889404
211.43105 872.12988 86.889404
216.85228 872.12988 86.889404
224.28632 859.92407 112.12622
283.32996 984.16174 -144.75049
288.30057 984.16174 -144.75049
295.75409 973.69958 -123.1189
300.76682 973.69958 -123.1189
305.77954 973.69958 -123.1189
310.79242 973.69958 -123.1189
315.80511 973.69958 -123.1189
320.81799 973.69958 -123.1189
325.83072 973.69958 -123.1189
330.84344 973.69958 -123.1189
335.85632 973.69958 -123.1189
340.86902 973.69958 -123.1189
342.97839 984.16174 -144.75049
347.94901 984.16174 -144.75049
355.90732 973.69958 -123.1189
360.92023 973.69958 -123.1189
365.93289 973.69958 -123.1189
370.9458 973.69958 -123.1189
375.95853 973.69958 -123.1189
384.16928 963.23755 -101.48706
392.59943 952.33948 -78.954102
397.69806 952.33948 -78.954102
-153.28697 803.2594 216.26416
-147.60965 803.2594 216.26416
-140.61734 816.3855 189.24512
-134.99263 816.3855 189.24512
-129.3679 816.3855 189.24512
-123.7433 816.3855 189.24512
-117.01398 829.51147 162.22607
-110.42493 842.19995 136.10767
-103.93758 854.88867 109.98901
-98.467163 854.88867 109.98901
-92.996849 854.88867 109.98901
-86.740929 867.13965 84.77124
-80.583206 879.39062 59.553467
-74.54821 891.2041 35.236084
-69.223312 891.2041 35.236084
-63.330441 903.01746 10.918945
-58.052891 903.01746 10.918945
-52.775333 903.01746 10.918945
-47.49778 903.01746 10.918945
-41.855534 914.39343 -12.497559
-36.623669 914.39343 -12.497559
-31.391701 914.39343 -12.497559
-26.159735 914.39343 -12.497559
-20.927767 914.39343 -12.497559
-15.83256 903.01746 10.918945
-10.555108 903.01746 10.918945
-5.277554 903.01746 10.918945
0 903.01746 10.918945
5.2774534 903.01746 10.918945
10.555108 903.01746 10.918945
15.83256 903.01746 10.918945
20.927866 914.39343 -12.497559
26.159735 914.39343 -12.497559
31.391602 914.39343 -12.497559
36.623669 914.39343 -12.497559
41.855534 914.39343 -12.497559
47.087601 914.39343 -12.497559
52.319469 914.39343 -12.497559
57.049881 925.76929 -35.914062
62.236362 925.76929 -35.914062
67.422646 925.76929 -35.914062
73.247337 914.39343 -12.497559
78.479202 914.39343 -12.497559
83.711067 914.39343 -12.497559
88.943138 914.39343 -12.497559
94.175003 914.39343 -12.497559
99.407066 914.39343 -12.497559
105.55067 903.01746 10.918945
110.82812 903.01746 10.918945
116.10578 903.01746 10.918945
121.38322 903.01746 10.918945
126.66088 903.01746 10.918945
131.93834 903.01746 10.918945
137.21579 903.01746 10.918945
142.49345 903.01746 10.918945
147.7709 903.01746 10.918945
153.04855 903.01746 10.918945
158.326 903.01746 10.918945
163.60345 903.01746 10.918945
168.8811 903.01746 10.918945
174.15857 903.01746 10.918945
181.04578 891.2041 35.236084
186.37057 891.2041 35.236084
195.16696 867.13965 84.77124
200.58839 867.13965 84.77124
206.00961 867.13965 84.77124
213.34569 854.88867 109.98901
218.81601 854.88867 109.98901
224.28632 854.88867 109.98901
283.32996 979.58618 -146.69263
288.30057 979.58618 -146.69263
295.75409 969.08533 -125.07739
300.76682 969.08533 -125.07739
305.77954 969.08533 -125.07739
310.79242 969.08533 -125.07739
315.80511 969.08533 -125.07739
320.81799 969.08533 -125.07739
325.83072 969.08533 -125.07739
330.84344 969.08533 -125.07739
335.85632 969.08533 -125.07739
340.86902 969.08533 -125.07739
342.97839 979.58618 -146.69263
347.94901 979.58618 -146.69263
355.90732 969.08533 -125.07739
360.92023 969.08533 -125.07739
365.93289 969.08533 -125.07739
370.9458 969.08533 -125.07739
375.95853 969.08533 -125.07739
384.16928 958.58459 -103.46216
392.59943 947.64624 -80.946289
397.69806 947.64624 -80.946289
402.79688 947.64624 -80.946289
-153.28697 798.03333 214.0459
-147.60965 798.03333 214.0459
-140.61734 811.20776 187.04736
-134.99263 811.20776 187.04736
-129.3679 811.20776 187.04736
-123.7433 811.20776 187.04736
-117.01398 824.38232 160.04883
-110.42493 837.11768 133.9502
-103.93758 849.85303 107.85132
-98.467163 849.85303 107.85132
-92.996849 849.85303 107.85132
-86.740929 862.14917 82.653076
-81.319603 862.14917 82.653076
-75.210968 874.44531 57.454346
-69.223312 886.30249 33.155518
-63.898525 886.30249 33.155518
-58.052891 898.15942 8.8569336
-52.775333 898.15942 8.8569336
-47.49778 898.15942 8.8569336
-42.22023 898.15942 8.8569336
-36.623669 909.57739 -14.541992
-31.391701 909.57739 -14.541992
-26.159735 909.57739 -14.541992
-20.927767 909.57739 -14.541992
-15.83256 898.15942 8.8569336
-10.555108 898.15942 8.8569336
-5.277554 898.15942 8.8569336
0 898.15942 8.8569336
5.2774534 898.15942 8.8569336
10.555108 898.15942 8.8569336
15.83256 898.15942 8.8569336
20.927866 909.57739 -14.541992
26.159735 909.57739 -14.541992
31.391602 909.57739 -14.541992
36.623669 909.57739 -14.541992
41.855534 909.57739 -14.541992
47.087601 909.57739 -14.541992
52.319469 909.57739 -14.541992
57.049881 920.99524 -37.940674
62.236362 920.99524 -37.940674
67.422646 920.99524 -37.940674
73.247337 909.57739 -14.541992
78.479202 909.57739 -14.541992
83.711067 909.57739 -14.541992
88.943138 909.57739 -14.541992
94.175003 909.57739 -14.541992
99.407066 909.57739 -14.541992
104.63894 909.57739 -14.541992
110.82812 898.15942 8.8569336
116.10578 898.15942 8.8569336
121.38322 898.15942 8.8569336
126.66088 898.15942 8.8569336
131.93834 898.15942 8.8569336
137.21579 898.15942 8.8569336
142.49345 898.15942 8.8569336
147.7709 898.15942 8.8569336
153.04855 898.15942 8.8569336
158.326 898.15942 8.8569336
165.071 886.30249 33.155518
170.396 886.30249 33.155518
175.72078 886.30249 33.155518
181.04578 886.30249 33.155518
186.37057 886.30249 33.155518
195.16696 862.14917 82.653076
200.58839 862.14917 82.653076
206.00961 862.14917 82.653076
213.34569 849.85303 107.85132
218.81601 849.85303 107.85132
224.28632 849.85303 107.85132
285.72852 964.47095 -127.03613
290.74121 964.47095 -127.03613
295.75409 964.47095 -127.03613
300.76682 964.47095 -127.03613
305.77954 964.47095 -127.03613
310.79242 964.47095 -127.03613
315.80511 964.47095 -127.03613
320.81799 964.47095 -127.03613
325.83072 964.47095 -127.03613
330.84344 964.47095 -127.03613
335.85632 964.47095 -127.03613
340.86902 964.47095 -127.03613
342.97839 975.01062 -148.63477
347.94901 975.01062 -148.63477
355.90732 964.47095 -127.03613
360.92023 964.47095 -127.03613
365.93289 964.47095 -127.03613
374.05975 953.93152 -105.43726
379.1145 953.93152 -105.43726
384.16928 953.93152 -105.43726
389.22427 953.93152 -105.43726
394.27905 953.93152 -105.43726
402.79688 942.95276 -82.938477
-147.60965 792.80725 211.82764
-141.93234 792.80725 211.82764
-134.99263 806.03015 184.84961
-129.3679 806.03015 184.84961
-123.7433 806.03015 184.84961
-117.01398 819.25305 157.87158
-111.44187 819.25305 157.87158
-104.90366 832.03516 131.79297
-98.467163 844.8175 105.71387
-92.996849 844.8175 105.71387
-87.526421 844.8175 105.71387
-81.319603 857.15881 80.534668
-75.898277 857.15881 80.534668
-69.838737 869.50012 55.355225
-63.898525 881.40088 31.074707
-58.573627 881.40088 31.074707
-52.775333 893.30139 6.7946777
-47.49778 893.30139 6.7946777
-42.22023 893.30139 6.7946777
-36.623669 904.76123 -16.586182
-31.391701 904.76123 -16.586182
-26.159735 904.76123 -16.586182
-20.927767 904.76123 -16.586182
-15.83256 893.30139 6.7946777
-10.555108 893.30139 6.7946777
-5.277554 893.30139 6.7946777
0 893.30139 6.7946777
5.2774534 893.30139 6.7946777
10.555108 893.30139 6.7946777
15.83256 893.30139 6.7946777
21.110216 893.30139 6.7946777
26.387667 893.30139 6.7946777
31.391602 904.76123 -16.586182
36.623669 904.76123 -16.586182
41.855534 904.76123 -16.586182
47.087601 904.76123 -16.586182
52.319469 904.76123 -16.586182
57.551338 904.76123 -16.586182
62.783401 904.76123 -16.586182
68.015266 904.76123 -16.586182
73.247337 904.76123 -16.586182
78.479202 904.76123 -16.586182
83.711067 904.76123 -16.586182
88.943138 904.76123 -16.586182
94.175003 904.76123 -16.586182
99.407066 904.76123 -16.586182
104.63894 904.76123 -16.586182
110.82812 893.30139 6.7946777
116.10578 893.30139 6.7946777
121.38322 893.30139 6.7946777
126.66088 893.30139 6.7946777
131.93834 893.30139 6.7946777
137.21579 893.30139 6.7946777
142.49345 893.30139 6.7946777
147.7709 893.30139 6.7946777
154.42142 881.40088 31.074707
159.7462 881.40088 31.074707
165.071 881.40088 31.074707
170.396 881.40088 31.074707
175.72078 881.40088 31.074707
181.04578 881.40088 31.074707
186.37057 881.40088 31.074707
193.39961 869.50012 55.355225
198.77194 869.50012 55.355225
206.00961 857.15881 80.534668
213.34569 844.8175 105.71387
218.81601 844.8175 105.71387
224.28632 844.8175 105.71387
290.74121 959.85669 -128.99487
295.75409 959.85669 -128.99487
298.242 970.43506 -150.57715
303.21265 970.43506 -150.57715
310.79242 959.85669 -128.99487
315.80511 959.85669 -128.99487
320.81799 959.85669 -128.99487
325.83072 959.85669 -128.99487
330.84344 959.85669 -128.99487
335.85632 959.85669 -128.99487
340.86902 959.85669 -128.99487
345.8819 959.85669 -128.99487
350.89462 959.85669 -128.99487
355.90732 959.85669 -128.99487
360.92023 959.85669 -128.99487
365.93289 959.85669 -128.99487
374.05975 949.27844 -107.41235
379.1145 949.27844 -107.41235
384.16928 949.27844 -107.41235
389.22427 949.27844 -107.41235
394.27905 949.27844 -107.41235
402.79688 938.25928 -84.930664
407.89548 938.25928 -84.930664
-149.02284 773.86768 237.46533
-141.93234 787.58142 209.60938
-134.99263 800.85278 182.65186
-129.3679 800.85278 182.65186
-123.7433 800.85278 182.65186
-117.01398 814.12402 155.69434
-111.44187 814.12402 155.69434
-104.90366 826.953 129.6355
-98.467163 839.78198 103.57642
-92.996849 839.78198 103.57642
-87.526421 839.78198 103.57642
-82.056 839.78198 103.57642
-75.898277 852.16858 78.416504
-69.838737 864.55505 53.256104
-63.898525 876.49927 28.994141
-58.573627 876.49927 28.994141
-52.775333 888.44348 4.732666
-47.49778 888.44348 4.732666
-42.22023 888.44348 4.732666
-36.942772 888.44348 4.732666
-31.66522 888.44348 4.732666
-26.387667 888.44348 4.732666
-21.110115 888.44348 4.732666
-15.97458 876.49927 28.994141
-10.555108 888.44348 4.732666
-5.277554 888.44348 4.732666
0 888.44348 4.732666
5.2774534 888.44348 4.732666
10.555108 888.44348 4.732666
15.83256 888.44348 4.732666
21.110216 888.44348 4.732666
26.387667 888.44348 4.732666
31.665119 888.44348 4.732666
36.942772 888.44348 4.732666
42.22023 888.44348 4.732666
47.497883 888.44348 4.732666
52.319469 899.94531 -18.630371
57.551338 899.94531 -18.630371
62.783401 899.94531 -18.630371
68.015266 899.94531 -18.630371
73.247337 899.94531 -18.630371
78.479202 899.94531 -18.630371
84.44046 888.44348 4.732666
89.718109 888.44348 4.732666
94.99556 888.44348 4.732666
100.27322 888.44348 4.732666
105.55067 888.44348 4.732666
110.82812 888.44348 4.732666
116.10578 888.44348 4.732666
121.38322 888.44348 4.732666
126.66088 888.44348 4.732666
131.93834 888.44348 4.732666
137.21579 888.44348 4.732666
142.49345 888.44348 4.732666
147.7709 888.44348 4.732666
154.42142 876.49927 28.994141
159.7462 876.49927 28.994141
165.071 876.49927 28.994141
170.396 876.49927 28.994141
175.72078 876.49927 28.994141
181.04578 876.49927 28.994141
186.37057 876.49927 28.994141
193.39961 864.55505 53.256104
198.77194 864.55505 53.256104
207.87517 839.78198 103.57642
213.34569 839.78198 103.57642
220.84987 826.953 129.6355
226.37105 826.953 129.6355
290.74121 955.24243 -130.95337
295.75409 955.24243 -130.95337
298.242 965.8595 -152.51929
303.21265 965.8595 -152.51929
310.79242 955.24243 -130.95337
315.80511 955.24243 -130.95337
320.81799 955.24243 -130.95337
325.83072 955.24243 -130.95337
330.84344 955.24243 -130.95337
335.85632 955.24243 -130.95337
340.86902 955.24243 -130.95337
345.8819 955.24243 -130.95337
350.89462 955.24243 -130.95337
355.90732 955.24243 -130.95337
360.92023 955.24243 -130.95337
365.93289 955.24243 -130.95337
374.05975 944.62549 -109.38745
379.1145 944.62549 -109.38745
384.16928 944.62549 -109.38745
389.22427 944.62549 -109.38745
394.27905 944.62549 -109.38745
402.79688 933.56604 -86.922852
407.89548 933.56604 -86.922852
-149.02284 768.59155 235.22583
-141.93234 782.35535 207.39087
-134.99263 795.67505 180.4541
-129.3679 795.67505 180.4541
-123.7433 795.67505 180.4541
-117.01398 808.99487 153.51709
-111.44187 808.99487 153.51709
-104.90366 821.87061 127.47827
-98.467163 834.74634 101.43896
-92.996849 834.74634 101.43896
-87.526421 834.74634 101.43896
-82.056 834.74634 101.43896
-76.585587 834.74634 101.43896
-70.476952 847.1781 76.298096
-65.055725 847.1781 76.298096
-59.634396 847.1781 76.298096
-53.722134 859.60986 51.156982
-47.92384 871.59766 26.913574
-42.598946 871.59766 26.913574
-37.274155 871.59766 26.913574
-31.66522 883.58545 2.6704102
-26.387667 883.58545 2.6704102
-21.110115 883.58545 2.6704102
-15.97458 871.59766 26.913574
-10.555108 883.58545 2.6704102
-5.277554 883.58545 2.6704102
0 883.58545 2.6704102
5.2774534 883.58545 2.6704102
10.555108 883.58545 2.6704102
15.83256 883.58545 2.6704102
21.110216 883.58545 2.6704102
26.387667 883.58545 2.6704102
31.665119 883.58545 2.6704102
36.942772 883.58545 2.6704102
42.22023 883.58545 2.6704102
47.497883 883.58545 2.6704102
52.775333 883.58545 2.6704102
58.052788 883.58545 2.6704102
63.330441 883.58545 2.6704102
68.607895 883.58545 2.6704102
73.885544 883.58545 2.6704102
79.163002 883.58545 2.6704102
84.44046 883.58545 2.6704102
89.718109 883.58545 2.6704102
94.99556 883.58545 2.6704102
100.27322 883.58545 2.6704102
105.55067 883.58545 2.6704102
110.82812 883.58545 2.6704102
116.10578 883.58545 2.6704102
121.38322 883.58545 2.6704102
126.66088 883.58545 2.6704102
131.93834 883.58545 2.6704102
137.21579 883.58545 2.6704102
142.49345 883.58545 2.6704102
149.09642 871.59766 26.913574
154.42142 871.59766 26.913574
159.7462 871.59766 26.913574
165.071 871.59766 26.913574
170.396 871.59766 26.913574
175.72078 871.59766 26.913574
181.04578 871.59766 26.913574
186.37057 871.59766 26.913574
193.39961 859.60986 51.156982
198.77194 859.60986 51.156982
207.87517 834.74634 101.43896
213.34569 834.74634 101.43896
220.84987 821.87061 127.47827
290.74121 950.62805 -132.91211
295.75409 950.62805 -132.91211
298.242 961.28394 -154.46143
303.21265 961.28394 -154.46143
310.79242 950.62805 -132.91211
315.80511 950.62805 -132.91211
320.81799 950.62805 -132.91211
325.83072 950.62805 -132.91211
330.84344 950.62805 -132.91211
335.85632 950.62805 -132.91211
340.86902 950.62805 -132.91211
345.8819 950.62805 -132.91211
350.89462 950.62805 -132.91211
355.90732 950.62805 -132.91211
360.92023 950.62805 -132.91211
365.93289 950.62805 -132.91211
374.05975 939.97241 -111.36255
379.1145 939.97241 -111.36255
384.16928 939.97241 -111.36255
389.22427 939.97241 -111.36255
394.27905 939.97241 -111.36255
399.33405 939.97241 -111.36255
404.38882 939.97241 -111.36255
409.44357 939.97241 -111.36255
-147.60965 777.12939 205.17261
-141.93234 777.12939 205.17261
-134.99263 790.49756 178.25659
-129.3679 790.49756 178.25659
-123.7433 790.49756 178.25659
-117.01398 803.86572 151.34009
-111.44187 803.86572 151.34009
-104.90366 816.78833 125.32104
-98.467163 829.71094 99.301514
-92.996849 829.71094 99.301514
-87.526421 829.71094 99.301514
-82.056 829.71094 99.301514
-76.585587 829.71094 99.301514
-71.115158 829.71094 99.301514
-65.055725 842.18787 74.179932
-59.634396 842.18787 74.179932
-54.21307 842.18787 74.179932
-48.349903 854.66479 49.057861
-42.598946 866.69617 24.833008
-37.274155 866.69617 24.833008
-31.949263 866.69617 24.833008
-26.387667 878.72754 0.60839844
-21.110115 878.72754 0.60839844
-15.97458 866.69617 24.833008
-10.555108 878.72754 0.60839844
-5.277554 878.72754 0.60839844
0 878.72754 0.60839844
5.3247924 866.69617 24.833008
10.555108 878.72754 0.60839844
15.83256 878.72754 0.60839844
21.110216 878.72754 0.60839844
26.387667 878.72754 0.60839844
31.665119 878.72754 0.60839844
36.942772 878.72754 0.60839844
42.22023 878.72754 0.60839844
47.497883 878.72754 0.60839844
52.775333 878.72754 0.60839844
58.052788 878.72754 0.60839844
63.330441 878.72754 0.60839844
68.607895 878.72754 0.60839844
73.885544 878.72754 0.60839844
79.163002 878.72754 0.60839844
84.44046 878.72754 0.60839844
89.718109 878.72754 0.60839844
94.99556 878.72754 0.60839844
100.27322 878.72754 0.60839844
105.55067 878.72754 0.60839844
110.82812 878.72754 0.60839844
116.10578 878.72754 0.60839844
121.38322 878.72754 0.60839844
126.66088 878.72754 0.60839844
131.93834 878.72754 0.60839844
138.44662 866.69617 24.833008
143.77162 866.69617 24.833008
149.09642 866.69617 24.833008
154.42142 866.69617 24.833008
159.7462 866.69617 24.833008
165.071 866.69617 24.833008
170.396 866.69617 24.833008
175.72078 866.69617 24.833008
182.65533 854.66479 49.057861
188.02748 854.66479 49.057861
193.39961 854.66479 49.057861
198.77194 854.66479 49.057861
206.00961 842.18787 74.179932
213.34569 829.71094 99.301514
290.74121 946.01392 -134.87061
295.75409 946.01392 -134.87061
300.76682 946.01392 -134.87061
305.77954 946.01392 -134.87061
310.79242 946.01392 -134.87061
315.80511 946.01392 -134.87061
320.81799 946.01392 -134.87061
325.83072 946.01392 -134.87061
330.84344 946.01392 -134.87061
335.85632 946.01392 -134.87061
340.86902 946.01392 -134.87061
345.8819 946.01392 -134.87061
350.89462 946.01392 -134.87061
355.90732 946.01392 -134.87061
360.92023 946.01392 -134.87061
365.93289 946.01392 -134.87061
374.05975 935.31946 -113.33765
379.1145 935.31946 -113.33765
384.16928 935.31946 -113.33765
389.22427 935.31946 -113.33765
394.27905 935.31946 -113.33765
399.33405 935.31946 -113.33765
404.38882 935.31946 -113.33765
409.44357 935.31946 -113.33765
-147.60965 771.90344 202.95435
-141.93234 771.90344 202.95435
-136.25502 771.90344 202.95435
-129.3679 785.31995 176.05859
-123.7433 785.31995 176.05859
-118.11858 785.31995 176.05859
-112.49387 785.31995 176.05859
-104.90366 811.70593 123.16357
-99.382401 811.70593 123.16357
-93.861237 811.70593 123.16357
-88.339973 811.70593 123.16357
-82.056 824.67529 97.164062
-76.585587 824.67529 97.164062
-71.115158 824.67529 97.164062
-65.644844 824.67529 97.164062
-60.174423 824.67529 97.164062
-54.21307 837.19751 72.061523
-48.349903 849.71948 46.95874
-42.977669 849.71948 46.95874
-37.605534 849.71948 46.95874
-31.949263 861.79456 22.752441
-26.624367 861.79456 22.752441
-21.299473 861.79456 22.752441
-15.97458 861.79456 22.752441
-10.649788 861.79456 22.752441
-5.277554 873.86938 -1.4536133
0 873.86938 -1.4536133
5.2774534 873.86938 -1.4536133
10.555108 873.86938 -1.4536133
15.83256 873.86938 -1.4536133
21.110216 873.86938 -1.4536133
26.387667 873.86938 -1.4536133
31.665119 873.86938 -1.4536133
36.942772 873.86938 -1.4536133
42.22023 873.86938 -1.4536133
47.497883 873.86938 -1.4536133
52.775333 873.86938 -1.4536133
58.052788 873.86938 -1.4536133
63.330441 873.86938 -1.4536133
68.607895 873.86938 -1.4536133
73.885544 873.86938 -1.4536133
79.163002 873.86938 -1.4536133
84.44046 873.86938 -1.4536133
89.718109 873.86938 -1.4536133
94.99556 873.86938 -1.4536133
100.27322 873.86938 -1.4536133
105.55067 873.86938 -1.4536133
110.82812 873.86938 -1.4536133
116.10578 873.86938 -1.4536133
122.47205 861.79456 22.752441
127.79705 861.79456 22.752441
133.12184 861.79456 22.752441
138.44662 861.79456 22.752441
143.77162 861.79456 22.752441
149.09642 861.79456 22.752441
154.42142 861.79456 22.752441
159.7462 861.79456 22.752441
165.071 861.79456 22.752441
170.396 861.79456 22.752441
175.72078 861.79456 22.752441
182.65533 849.71948 46.95874
188.02748 849.71948 46.95874
193.39961 849.71948 46.95874
198.77194 849.71948 46.95874
206.00961 837.19751 72.061523
298.23685 930.66638 -115.31274
300.76682 941.39954 -136.82935
305.77954 941.39954 -136.82935
310.79242 941.39954 -136.82935
315.80511 941.39954 -136.82935
320.81799 941.39954 -136.82935
325.83072 941.39954 -136.82935
330.84344 941.39954 -136.82935
335.85632 941.39954 -136.82935
340.86902 941.39954 -136.82935
345.8819 941.39954 -136.82935
350.89462 941.39954 -136.82935
355.90732 941.39954 -136.82935
360.92023 941.39954 -136.82935
365.93289 941.39954 -136.82935
370.9458 941.39954 -136.82935
375.95853 941.39954 -136.82935
384.16928 930.66638 -115.31274
389.22427 930.66638 -115.31274
394.27905 930.66638 -115.31274
399.33405 930.66638 -115.31274
407.89548 919.48584 -92.899414
412.99408 919.48584 -92.899414
-140.61734 780.14246 173.86108
-134.99263 780.14246 173.86108
-129.3679 780.14246 173.86108
-123.7433 780.14246 173.86108
-118.11858 780.14246 173.86108
-112.49387 780.14246 173.86108
-106.86916 780.14246 173.86108
-99.382401 806.62366 121.00635
-93.861237 806.62366 121.00635
-88.339973 806.62366 121.00635
-82.818703 806.62366 121.00635
-76.585587 819.63989 95.026611
-71.115158 819.63989 95.026611
-65.644844 819.63989 95.026611
-60.174423 819.63989 95.026611
-54.21307 832.20715 69.943359
-48.349903 844.77454 44.859863
-42.977669 844.77454 44.859863
-37.605534 844.77454 44.859863
-31.949263 856.89307 20.671875
-26.624367 856.89307 20.671875
-21.299473 856.89307 20.671875
-15.97458 856.89307 20.671875
-10.649788 856.89307 20.671875
-5.277554 869.01147 -3.515625
0 869.01147 -3.515625
5.2774534 869.01147 -3.515625
10.555108 869.01147 -3.515625
15.83256 869.01147 -3.515625
21.110216 869.01147 -3.515625
26.387667 869.01147 -3.515625
31.665119 869.01147 -3.515625
36.942772 869.01147 -3.515625
42.22023 869.01147 -3.515625
47.497883 869.01147 -3.515625
52.775333 869.01147 -3.515625
58.052788 869.01147 -3.515625
63.330441 869.01147 -3.515625
68.607895 869.01147 -3.515625
73.885544 869.01147 -3.515625
79.163002 869.01147 -3.515625
84.44046 869.01147 -3.515625
89.718109 869.01147 -3.515625
94.99556 869.01147 -3.515625
100.27322 869.01147 -3.515625
105.55067 869.01147 -3.515625
110.82812 869.01147 -3.515625
116.10578 869.01147 -3.515625
122.47205 856.89307 20.671875
127.79705 856.89307 20.671875
133.12184 856.89307 20.671875
138.44662 856.89307 20.671875
143.77162 856.89307 20.671875
149.09642 856.89307 20.671875
154.42142 856.89307 20.671875
159.7462 856.89307 20.671875
165.071 856.89307 20.671875
170.396 856.89307 20.671875
177.283 844.77454 44.859863
182.65533 844.77454 44.859863
188.02748 844.77454 44.859863
193.39961 844.77454 44.859863
198.77194 844.77454 44.859863
206.00961 832.20715 69.943359
300.76682 936.78528 -138.78809
305.77954 936.78528 -138.78809
310.79242 936.78528 -138.78809
315.80511 936.78528 -138.78809
320.81799 936.78528 -138.78809
325.83072 936.78528 -138.78809
330.84344 936.78528 -138.78809
335.85632 936.78528 -138.78809
340.86902 936.78528 -138.78809
345.8819 936.78528 -138.78809
350.89462 936.78528 -138.78809
355.90732 936.78528 -138.78809
360.92023 936.78528 -138.78809
365.93289 936.78528 -138.78809
370.9458 936.78528 -138.78809
375.95853 936.78528 -138.78809
380.97122 936.78528 -138.78809
389.22427 926.01343 -117.28784
394.27905 926.01343 -117.28784
399.33405 926.01343 -117.28784
407.89548 914.79248 -94.891602
412.99408 914.79248 -94.891602
418.0929 914.79248 -94.891602
-140.61734 774.96484 171.66333
-134.99263 774.96484 171.66333
-129.3679 774.96484 171.66333
-123.7433 774.96484 171.66333
-118.11858 774.96484 171.66333
-112.49387 774.96484 171.66333
-106.86916 774.96484 171.66333
-99.382401 801.54126 118.84888
-93.861237 801.54126 118.84888
-88.339973 801.54126 118.84888
-82.818703 801.54126 118.84888
-77.297432 801.54126 118.84888
-71.776169 801.54126 118.84888
-65.644844 814.60425 92.88916
-60.174423 814.60425 92.88916
-54.21307 827.2168 67.824951
-48.349903 839.82935 42.760742
-42.977669 839.82935 42.760742
-37.605534 839.82935 42.760742
-31.949263 851.99146 18.591309
-26.624367 851.99146 18.591309
-21.299473 851.99146 18.591309
-15.97458 851.99146 18.591309
-10.649788 851.99146 18.591309
-5.277554 864.15344 -5.5778809
0 864.15344 -5.5778809
5.2774534 864.15344 -5.5778809
10.555108 864.15344 -5.5778809
15.83256 864.15344 -5.5778809
21.110216 864.15344 -5.5778809
26.387667 864.15344 -5.5778809
31.665119 864.15344 -5.5778809
36.942772 864.15344 -5.5778809
42.22023 864.15344 -5.5778809
47.497883 864.15344 -5.5778809
52.775333 864.15344 -5.5778809
58.052788 864.15344 -5.5778809
63.330441 864.15344 -5.5778809
68.607895 864.15344 -5.5778809
73.885544 864.15344 -5.5778809
79.163002 864.15344 -5.5778809
84.44046 864.15344 -5.5778809
89.718109 864.15344 -5.5778809
94.99556 864.15344 -5.5778809
101.17268 851.99146 18.591309
106.49747 851.99146 18.591309
111.82227 851.99146 18.591309
117.14725 851.99146 18.591309
122.47205 851.99146 18.591309
127.79705 851.99146 18.591309
133.12184 851.99146 18.591309
138.44662 851.99146 18.591309
143.77162 851.99146 18.591309
149.09642 851.99146 18.591309
154.42142 851.99146 18.591309
159.7462 851.99146 18.591309
165.071 851.99146 18.591309
171.91087 839.82935 42.760742
177.283 839.82935 42.760742
182.65533 839.82935 42.760742
188.02748 839.82935 42.760742
193.39961 839.82935 42.760742
198.77194 839.82935 42.760742
206.00961 827.2168 67.824951
298.242 942.98169 -162.23022
303.21265 942.98169 -162.23022
308.18344 942.98169 -162.23022
315.80511 932.1709 -140.74658
320.81799 932.1709 -140.74658
325.83072 932.1709 -140.74658
330.84344 932.1709 -140.74658
335.85632 932.1709 -140.74658
340.86902 932.1709 -140.74658
345.8819 932.1709 -140.74658
350.89462 932.1709 -140.74658
355.90732 932.1709 -140.74658
360.92023 932.1709 -140.74658
365.93289 932.1709 -140.74658
370.9458 932.1709 -140.74658
375.95853 932.1709 -140.74658
380.97122 932.1709 -140.74658
389.22427 921.36035 -119.26294
394.27905 921.36035 -119.26294
399.33405 921.36035 -119.26294
404.38882 921.36035 -119.26294
412.99408 910.09912 -96.884033
418.0929 910.09912 -96.884033
-140.61734 769.78735 169.46558
-134.99263 769.78735 169.46558
-129.3679 769.78735 169.46558
-123.7433 769.78735 169.46558
-118.11858 769.78735 169.46558
-112.49387 769.78735 169.46558
-106.86916 769.78735 169.46558
-101.24444 769.78735 169.46558
-95.619835 769.78735 169.46558
-89.995117 769.78735 169.46558
-84.370399 769.78735 169.46558
-77.297432 796.45898 116.69165
-71.776169 796.45898 116.69165
-65.644844 809.56885 90.751709
-60.174423 809.56885 90.751709
-54.21307 822.22656 65.706787
-48.79174 822.22656 65.706787
-42.977669 834.88416 40.661621
-37.605534 834.88416 40.661621
-32.233299 834.88416 40.661621
-26.624367 847.08984 16.510742
-21.299473 847.08984 16.510742
-15.97458 847.08984 16.510742
-10.649788 847.08984 16.510742
-5.324894 847.08984 16.510742
0 859.29553 -7.6398926
5.2774534 859.29553 -7.6398926
10.555108 859.29553 -7.6398926
15.83256 859.29553 -7.6398926
21.110216 859.29553 -7.6398926
26.387667 859.29553 -7.6398926
31.665119 859.29553 -7.6398926
37.274155 847.08984 16.510742
42.22023 859.29553 -7.6398926
47.497883 859.29553 -7.6398926
52.775333 859.29553 -7.6398926
58.052788 859.29553 -7.6398926
63.898525 847.08984 16.510742
68.607895 859.29553 -7.6398926
73.885544 859.29553 -7.6398926
79.163002 859.29553 -7.6398926
84.44046 859.29553 -7.6398926
89.718109 859.29553 -7.6398926
95.847679 847.08984 16.510742
101.17268 847.08984 16.510742
106.49747 847.08984 16.510742
111.82227 847.08984 16.510742
117.14725 847.08984 16.510742
122.47205 847.08984 16.510742
127.79705 847.08984 16.510742
133.12184 847.08984 16.510742
138.44662 847.08984 16.510742
143.77162 847.08984 16.510742
149.09642 847.08984 16.510742
154.42142 847.08984 16.510742
159.7462 847.08984 16.510742
165.071 847.08984 16.510742
171.91087 834.88416 40.661621
177.283 834.88416 40.661621
182.65533 834.88416 40.661621
188.02748 834.88416 40.661621
196.93433 809.56885 90.751709
202.40485 809.56885 90.751709
207.87517 809.56885 90.751709
298.242 938.40625 -164.17261
303.21265 938.40625 -164.17261
308.18344 938.40625 -164.17261
315.80511 927.55676 -142.70532
320.81799 927.55676 -142.70532
325.83072 927.55676 -142.70532
330.84344 927.55676 -142.70532
335.85632 927.55676 -142.70532
340.86902 927.55676 -142.70532
345.8819 927.55676 -142.70532
350.89462 927.55676 -142.70532
355.90732 927.55676 -142.70532
360.92023 927.55676 -142.70532
365.93289 927.55676 -142.70532
370.9458 927.55676 -142.70532
375.95853 927.55676 -142.70532
384.16928 916.7074 -121.23804
389.22427 916.7074 -121.23804
394.27905 916.7074 -121.23804
399.33405 916.7074 -121.23804
404.38882 916.7074 -121.23804
412.99408 905.40576 -98.876221
418.0929 905.40576 -98.876221
-140.61734 764.60974 167.26782
-134.99263 764.60974 167.26782
-129.3679 764.60974 167.26782
-123.7433 764.60974 167.26782
-118.11858 764.60974 167.26782
-112.49387 764.60974 167.26782
-106.86916 764.60974 167.26782
-101.24444 764.60974 167.26782
-95.619835 764.60974 167.26782
-89.995117 764.60974 167.26782
-84.370399 764.60974 167.26782
-78.009285 778.21997 140.4541
-72.437172 778.21997 140.4541
-66.255005 791.37659 114.53442
-60.174423 804.5332 88.614258
-54.704002 804.5332 88.614258
-48.79174 817.23608 63.588623
-43.370415 817.23608 63.588623
-37.605534 829.93896 38.5625
-32.233299 829.93896 38.5625
-26.387667 854.4375 -9.7021484
-21.110115 854.4375 -9.7021484
-15.97458 842.18823 14.430176
-10.649788 842.18823 14.430176
-5.324894 842.18823 14.430176
0 854.4375 -9.7021484
5.2774534 854.4375 -9.7021484
10.555108 854.4375 -9.7021484
15.83256 854.4375 -9.7021484
21.110216 854.4375 -9.7021484
26.387667 854.4375 -9.7021484
31.665119 854.4375 -9.7021484
37.274155 842.18823 14.430176
42.598946 842.18823 14.430176
47.923943 842.18823 14.430176
52.775333 854.4375 -9.7021484
58.052788 854.4375 -9.7021484
63.898525 842.18823 14.430176
68.607895 854.4375 -9.7021484
73.885544 854.4375 -9.7021484
79.163002 854.4375 -9.7021484
84.44046 854.4375 -9.7021484
90.522888 842.18823 14.430176
95.847679 842.18823 14.430176
101.17268 842.18823 14.430176
106.49747 842.18823 14.430176
111.82227 842.18823 14.430176
117.14725 842.18823 14.430176
122.47205 842.18823 14.430176
127.79705 842.18823 14.430176
133.12184 842.18823 14.430176
139.67747 829.93896 38.5625
145.04982 829.93896 38.5625
150.42194 829.93896 38.5625
155.79427 829.93896 38.5625
161.16641 829.93896 38.5625
166.53854 829.93896 38.5625
171.91087 829.93896 38.5625
177.283 829.93896 38.5625
182.65533 829.93896 38.5625
189.74574 817.23608 63.588623
196.93433 804.5332 88.614258
202.40485 804.5332 88.614258
207.87517 804.5332 88.614258
298.242 933.83057 -166.11475
303.21265 933.83057 -166.11475
308.18344 933.83057 -166.11475
315.80511 922.94238 -144.66406
320.81799 922.94238 -144.66406
325.83072 922.94238 -144.66406
333.6207 912.05432 -123.21313
338.67566 912.05432 -123.21313
340.86902 922.94238 -144.66406
345.8819 922.94238 -144.66406
350.89462 922.94238 -144.66406
355.90732 922.94238 -144.66406
360.92023 922.94238 -144.66406
365.93289 922.94238 -144.66406
370.9458 922.94238 -144.66406
375.95853 922.94238 -144.66406
384.16928 912.05432 -123.21313
389.22427 912.05432 -123.21313
394.27905 912.05432 -123.21313
399.33405 912.05432 -123.21313
407.89548 900.7124 -100.86841
412.99408 900.7124 -100.86841
418.0929 900.7124 -100.86841
-146.24205 759.43225 165.07007
-140.61734 759.43225 165.07007
-134.99263 759.43225 165.07007
-129.3679 759.43225 165.07007
-123.7433 759.43225 165.07007
-118.11858 759.43225 165.07007
-112.49387 759.43225 165.07007
-106.86916 759.43225 165.07007
-101.24444 759.43225 165.07007
-95.619835 759.43225 165.07007
-89.995117 759.43225 165.07007
-84.370399 759.43225 165.07007
-78.009285 773.09094 138.27686
-72.437172 773.09094 138.27686
-66.865166 773.09094 138.27686
-60.174423 799.4978 86.476807
-54.704002 799.4978 86.476807
-48.79174 812.24585 61.470215
-43.370415 812.24585 61.470215
-37.949188 812.24585 61.470215
-32.233299 824.9939 36.463379
-26.387667 849.57959 -11.76416
-21.110115 849.57959 -11.76416
-15.97458 837.28674 12.349609
-10.649788 837.28674 12.349609
-5.324894 837.28674 12.349609
0 849.57959 -11.76416
5.2774534 849.57959 -11.76416
10.555108 849.57959 -11.76416
15.83256 849.57959 -11.76416
21.110216 849.57959 -11.76416
26.387667 849.57959 -11.76416
31.665119 849.57959 -11.76416
37.274155 837.28674 12.349609
42.598946 837.28674 12.349609
47.923943 837.28674 12.349609
52.775333 849.57959 -11.76416
58.052788 849.57959 -11.76416
63.898525 837.28674 12.349609
69.223312 837.28674 12.349609
73.885544 849.57959 -11.76416
79.163002 849.57959 -11.76416
84.44046 849.57959 -11.76416
90.522888 837.28674 12.349609
95.847679 837.28674 12.349609
101.17268 837.28674 12.349609
106.49747 837.28674 12.349609
111.82227 837.28674 12.349609
117.14725 837.28674 12.349609
122.47205 837.28674 12.349609
127.79705 837.28674 12.349609
133.12184 837.28674 12.349609
138.44662 837.28674 12.349609
