ply
format ascii 1.0
comment PCL generated
element vertex 1580
property float x
property float y
property float z
element camera 0
property float view_px
property float view_py
property float view_pz
property float x_axisx
property float x_axisy
property float x_axisz
property float y_axisx
property float y_axisy
property float y_axisz
property float z_axisx
property float z_axisy
property float z_axisz
property float focal
property float scalex
property float scaley
property float centerx
property float centery
property int viewportx
property int viewporty
property float k1
property float k2
end_header
44.373436 1566.0305 77.251953
49.303734 1566.0305 77.251953
54.677624 1560.6815 99.967773
59.648441 1560.6815 99.967773
65.1661 1555.1 123.6709
71.381783 1543.7043 172.06543
76.4804 1543.7043 172.06543
81.579018 1543.7043 172.06543
86.677826 1543.7043 172.06543
91.776451 1543.7043 172.06543
96.875259 1543.7043 172.06543
101.97387 1543.7043 172.06543
107.07249 1543.7043 172.06543
112.1713 1543.7043 172.06543
117.26991 1543.7043 172.06543
-117.26991 1539.011 170.07324
-112.1713 1539.011 170.07324
-107.07259 1539.011 170.07324
-101.09721 1544.8655 145.39917
-96.04232 1544.8655 145.39917
-90.98745 1544.8655 145.39917
-85.932655 1544.8655 145.39917
-80.877785 1544.8655 145.39917
-76.4804 1539.011 170.07324
-71.381691 1539.011 170.07324
-66.282974 1539.011 170.07324
-60.658363 1544.8655 145.39917
-54.677719 1556.1058 98.025391
-49.707001 1556.1058 98.025391
-44.373341 1561.4919 75.325439
-39.120335 1566.8781 52.625244
-34.230366 1566.8781 52.625244
-29.58226 1561.4919 75.325439
-24.651867 1561.4919 75.325439
-19.721476 1561.4919 75.325439
-14.791082 1561.4919 75.325439
-9.8607845 1561.4919 75.325439
-4.8900657 1566.8781 52.625244
0 1566.8781 52.625244
4.9302983 1561.4919 75.325439
9.7801313 1566.8781 52.625244
14.670103 1566.8781 52.625244
19.721569 1561.4919 75.325439
24.651867 1561.4919 75.325439
29.582165 1561.4919 75.325439
34.51265 1561.4919 75.325439
39.442951 1561.4919 75.325439
44.373436 1561.4919 75.325439
49.707001 1556.1058 98.025391
54.677624 1556.1058 98.025391
60.1534 1550.4856 121.7124
65.713142 1544.8655 145.39917
71.381783 1539.011 170.07324
76.4804 1539.011 170.07324
81.579018 1539.011 170.07324
86.677826 1539.011 170.07324
91.776451 1539.011 170.07324
96.875259 1539.011 170.07324
101.97387 1539.011 170.07324
107.07249 1539.011 170.07324
112.1713 1539.011 170.07324
117.26991 1539.011 170.07324
123.42072 1533.1565 194.74731
-121.31662 1540.2124 143.42407
-116.26175 1540.2124 143.42407
-112.1713 1534.3176 168.08105
-107.07259 1534.3176 168.08105
-101.97387 1534.3176 168.08105
-96.875153 1534.3176 168.08105
-90.98745 1540.2124 143.42407
-85.932655 1540.2124 143.42407
-81.579117 1534.3176 168.08105
-76.4804 1534.3176 168.08105
-71.381691 1534.3176 168.08105
-66.282974 1534.3176 168.08105
-60.658363 1540.2124 143.42407
-55.140602 1545.8713 119.75366
-49.707001 1551.5303 96.083252
-44.373341 1556.9535 73.398926
-39.120335 1562.3767 50.7146
-34.230366 1562.3767 50.7146
-29.58226 1556.9535 73.398926
-24.651867 1556.9535 73.398926
-19.721476 1556.9535 73.398926
-14.791082 1556.9535 73.398926
-9.8607845 1556.9535 73.398926
-4.9303923 1556.9535 73.398926
0 1556.9535 73.398926
4.9302983 1556.9535 73.398926
9.8607845 1556.9535 73.398926
14.791082 1556.9535 73.398926
19.721569 1556.9535 73.398926
24.651867 1556.9535 73.398926
29.582165 1556.9535 73.398926
34.51265 1556.9535 73.398926
39.442951 1556.9535 73.398926
44.373436 1556.9535 73.398926
49.707001 1551.5303 96.083252
54.677624 1551.5303 96.083252
60.658363 1540.2124 143.42407
65.713142 1540.2124 143.42407
71.381783 1534.3176 168.08105
76.4804 1534.3176 168.08105
81.579018 1534.3176 168.08105
86.677826 1534.3176 168.08105
91.776451 1534.3176 168.08105
96.875259 1534.3176 168.08105
101.97387 1534.3176 168.08105
107.07249 1534.3176 168.08105
112.1713 1534.3176 168.08105
117.26991 1534.3176 168.08105
123.42072 1528.4227 192.73804
128.56317 1528.4227 192.73804
-127.46734 1529.6243 166.08887
-121.31662 1535.5594 141.44897
-116.26175 1535.5594 141.44897
-112.1713 1529.6243 166.08887
-107.07259 1529.6243 166.08887
-101.97387 1529.6243 166.08887
-96.875153 1529.6243 166.08887
-91.776451 1529.6243 166.08887
-86.677826 1529.6243 166.08887
-81.579117 1529.6243 166.08887
-76.4804 1529.6243 166.08887
-71.381691 1529.6243 166.08887
-66.282974 1529.6243 166.08887
-60.658363 1535.5594 141.44897
-55.603481 1535.5594 141.44897
-49.707001 1546.9548 94.141113
-44.736286 1546.9548 94.141113
-39.442951 1552.415 71.472412
-34.51265 1552.415 71.472412
-29.58226 1552.415 71.472412
-24.651867 1552.415 71.472412
-19.721476 1552.415 71.472412
-14.791082 1552.415 71.472412
-9.8607845 1552.415 71.472412
-4.9303923 1552.415 71.472412
0 1552.415 71.472412
4.9302983 1552.415 71.472412
9.8607845 1552.415 71.472412
14.791082 1552.415 71.472412
19.721569 1552.415 71.472412
24.651867 1552.415 71.472412
29.582165 1552.415 71.472412
34.51265 1552.415 71.472412
39.442951 1552.415 71.472412
44.373436 1552.415 71.472412
49.707001 1546.9548 94.141113
55.603386 1535.5594 141.44897
60.658363 1535.5594 141.44897
66.282974 1529.6243 166.08887
71.381783 1529.6243 166.08887
76.4804 1529.6243 166.08887
81.579018 1529.6243 166.08887
86.677826 1529.6243 166.08887
91.776451 1529.6243 166.08887
96.875259 1529.6243 166.08887
101.97387 1529.6243 166.08887
107.99298 1523.6891 190.72852
113.13563 1523.6891 190.72852
118.27808 1523.6891 190.72852
123.42072 1523.6891 190.72852
128.56317 1523.6891 190.72852
133.70561 1523.6891 190.72852
140.03175 1517.7539 215.36841
-131.42639 1530.9064 139.47388
-126.37151 1530.9064 139.47388
-122.36862 1524.9309 164.09668
-117.26991 1524.9309 164.09668
-112.1713 1524.9309 164.09668
-107.07259 1524.9309 164.09668
-101.97387 1524.9309 164.09668
-96.875153 1524.9309 164.09668
-91.776451 1524.9309 164.09668
-86.677826 1524.9309 164.09668
-81.579117 1524.9309 164.09668
-76.4804 1524.9309 164.09668
-71.381691 1524.9309 164.09668
-66.282974 1524.9309 164.09668
-60.658363 1530.9064 139.47388
-55.603481 1530.9064 139.47388
-49.707001 1542.3793 92.19873
-44.736286 1542.3793 92.19873
-39.442951 1547.8767 69.546143
-34.51265 1547.8767 69.546143
-29.58226 1547.8767 69.546143
-24.8535 1542.3793 92.19873
-19.721476 1547.8767 69.546143
-14.791082 1547.8767 69.546143
-9.9414377 1542.3793 92.19873
-4.9707189 1542.3793 92.19873
0 1547.8767 69.546143
4.9302983 1547.8767 69.546143
9.8607845 1547.8767 69.546143
14.791082 1547.8767 69.546143
19.721569 1547.8767 69.546143
24.651867 1547.8767 69.546143
29.582165 1547.8767 69.546143
34.794941 1542.3793 92.19873
40.102203 1536.6427 115.83643
45.493816 1530.9064 139.47388
50.548603 1530.9064 139.47388
55.603386 1530.9064 139.47388
60.658363 1530.9064 139.47388
66.282974 1524.9309 164.09668
71.381783 1524.9309 164.09668
76.4804 1524.9309 164.09668
81.579018 1524.9309 164.09668
86.677826 1524.9309 164.09668
91.776451 1524.9309 164.09668
96.875259 1524.9309 164.09668
101.97387 1524.9309 164.09668
107.99298 1518.9553 188.71924
113.13563 1518.9553 188.71924
118.27808 1518.9553 188.71924
123.42072 1518.9553 188.71924
128.56317 1518.9553 188.71924
133.70561 1518.9553 188.71924
140.03175 1512.9799 213.3418
-136.48126 1526.2534 137.49902
-131.42639 1526.2534 137.49902
-126.37151 1526.2534 137.49902
-122.36862 1520.2375 162.10449
-117.26991 1520.2375 162.10449
-112.1713 1520.2375 162.10449
-107.07259 1520.2375 162.10449
-101.97387 1520.2375 162.10449
-96.875153 1520.2375 162.10449
-91.776451 1520.2375 162.10449
-86.677826 1520.2375 162.10449
-80.877785 1526.2534 137.49902
-75.822906 1526.2534 137.49902
-71.381691 1520.2375 162.10449
-65.713142 1526.2534 137.49902
-60.658363 1526.2534 137.49902
-55.603481 1526.2534 137.49902
-50.1278 1532.0284 113.87769
-44.736286 1537.8037 90.256592
-39.442951 1543.3383 67.619629
-34.51265 1543.3383 67.619629
-29.824221 1537.8037 90.256592
-24.8535 1537.8037 90.256592
-19.882782 1537.8037 90.256592
-14.912063 1537.8037 90.256592
-9.9414377 1537.8037 90.256592
-4.9707189 1537.8037 90.256592
0 1537.8037 90.256592
4.970624 1537.8037 90.256592
9.9414377 1537.8037 90.256592
14.912063 1537.8037 90.256592
19.882875 1537.8037 90.256592
24.8535 1537.8037 90.256592
29.824125 1537.8037 90.256592
34.794941 1537.8037 90.256592
40.102203 1532.0284 113.87769
45.493816 1526.2534 137.49902
50.548603 1526.2534 137.49902
56.085552 1520.2375 162.10449
61.184364 1520.2375 162.10449
66.282974 1520.2375 162.10449
71.381783 1520.2375 162.10449
76.4804 1520.2375 162.10449
81.579018 1520.2375 162.10449
86.677826 1520.2375 162.10449
91.776451 1520.2375 162.10449
96.875259 1520.2375 162.10449
101.97387 1520.2375 162.10449
107.99298 1514.2217 186.70996
113.13563 1514.2217 186.70996
118.27808 1514.2217 186.70996
123.42072 1514.2217 186.70996
128.56317 1514.2217 186.70996
133.70561 1514.2217 186.70996
140.03175 1508.2058 211.31543
145.21805 1508.2058 211.31543
151.72653 1501.9493 236.90503
-146.59093 1521.6003 135.52393
-141.53606 1521.6003 135.52393
-136.48126 1521.6003 135.52393
-131.42639 1521.6003 135.52393
-126.37151 1521.6003 135.52393
-122.36862 1515.5442 160.1123
-117.26991 1515.5442 160.1123
-112.1713 1515.5442 160.1123
-107.07259 1515.5442 160.1123
-101.97387 1515.5442 160.1123
-96.875153 1515.5442 160.1123
-91.776451 1515.5442 160.1123
-86.677826 1515.5442 160.1123
-80.877785 1521.6003 135.52393
-75.822906 1521.6003 135.52393
-71.381691 1515.5442 160.1123
-65.713142 1521.6003 135.52393
-60.658363 1521.6003 135.52393
-55.603481 1521.6003 135.52393
-50.1278 1527.4142 111.91919
-44.736286 1533.2281 88.314453
-39.765564 1533.2281 88.314453
-34.794941 1533.2281 88.314453
-29.824221 1533.2281 88.314453
-24.8535 1533.2281 88.314453
-19.882782 1533.2281 88.314453
-14.912063 1533.2281 88.314453
-9.9414377 1533.2281 88.314453
-4.9707189 1533.2281 88.314453
0 1533.2281 88.314453
4.970624 1533.2281 88.314453
9.9414377 1533.2281 88.314453
14.912063 1533.2281 88.314453
19.882875 1533.2281 88.314453
24.8535 1533.2281 88.314453
29.824125 1533.2281 88.314453
35.089497 1527.4142 111.91919
40.438843 1521.6003 135.52393
45.888317 1515.5442 160.1123
50.986935 1515.5442 160.1123
56.085552 1515.5442 160.1123
61.184364 1515.5442 160.1123
66.282974 1515.5442 160.1123
71.381783 1515.5442 160.1123
76.4804 1515.5442 160.1123
81.579018 1515.5442 160.1123
86.677826 1515.5442 160.1123
91.776451 1515.5442 160.1123
96.875259 1515.5442 160.1123
101.97387 1515.5442 160.1123
107.99298 1509.4879 184.70068
113.13563 1509.4879 184.70068
118.27808 1509.4879 184.70068
123.42072 1509.4879 184.70068
128.56317 1509.4879 184.70068
133.70561 1509.4879 184.70068
140.03175 1503.4316 209.28906
145.21805 1503.4316 209.28906
151.72653 1497.1333 234.86084
155.59081 1503.4316 209.28906
160.7771 1503.4316 209.28906
167.42235 1497.1333 234.86084
-152.9608 1510.8508 158.11987
-146.59093 1516.9473 133.54883
-141.53606 1516.9473 133.54883
-136.48126 1516.9473 133.54883
-131.42639 1516.9473 133.54883
-126.37151 1516.9473 133.54883
-122.36862 1510.8508 158.11987
-117.26991 1510.8508 158.11987
-112.1713 1510.8508 158.11987
-107.07259 1510.8508 158.11987
-101.97387 1510.8508 158.11987
-96.875153 1510.8508 158.11987
-91.776451 1510.8508 158.11987
-86.677826 1510.8508 158.11987
-81.579117 1510.8508 158.11987
-75.822906 1516.9473 133.54883
-70.768028 1516.9473 133.54883
-66.282974 1510.8508 158.11987
-60.658363 1516.9473 133.54883
-55.603481 1516.9473 133.54883
-50.548603 1516.9473 133.54883
-45.115002 1522.7999 109.96045
-40.102203 1522.7999 109.96045
-35.089497 1522.7999 109.96045
-30.0767 1522.7999 109.96045
-25.0639 1522.7999 109.96045
-19.882782 1528.6526 86.372314
-14.912063 1528.6526 86.372314
-9.9414377 1528.6526 86.372314
-5.0127993 1522.7999 109.96045
0 1528.6526 86.372314
4.970624 1528.6526 86.372314
9.9414377 1528.6526 86.372314
14.912063 1528.6526 86.372314
19.882875 1528.6526 86.372314
25.0639 1522.7999 109.96045
30.076605 1522.7999 109.96045
35.089497 1522.7999 109.96045
40.438843 1516.9473 133.54883
45.888317 1510.8508 158.11987
50.986935 1510.8508 158.11987
56.085552 1510.8508 158.11987
61.184364 1510.8508 158.11987
66.282974 1510.8508 158.11987
71.381783 1510.8508 158.11987
76.4804 1510.8508 158.11987
81.579018 1510.8508 158.11987
86.677826 1510.8508 158.11987
91.776451 1510.8508 158.11987
96.875259 1510.8508 158.11987
101.97387 1510.8508 158.11987
107.07249 1510.8508 158.11987
113.13563 1504.7542 182.69116
118.27808 1504.7542 182.69116
123.42072 1504.7542 182.69116
128.56317 1504.7542 182.69116
133.70561 1504.7542 182.69116
140.03175 1498.6576 207.26245
145.21805 1498.6576 207.26245
150.40451 1498.6576 207.26245
155.59081 1498.6576 207.26245
160.7771 1498.6576 207.26245
167.42235 1492.3173 232.81641
172.65421 1492.3173 232.81641
177.88628 1492.3173 232.81641
-179.98843 1500.0205 180.68188
-174.8459 1500.0205 180.68188
-169.70334 1500.0205 180.68188
-164.5609 1500.0205 180.68188
-159.41835 1500.0205 180.68188
-152.9608 1506.1573 156.12769
-147.86209 1506.1573 156.12769
-142.76338 1506.1573 156.12769
-137.66476 1506.1573 156.12769
-132.56606 1506.1573 156.12769
-127.46734 1506.1573 156.12769
-122.36862 1506.1573 156.12769
-117.26991 1506.1573 156.12769
-112.1713 1506.1573 156.12769
-107.07259 1506.1573 156.12769
-101.97387 1506.1573 156.12769
-96.875153 1506.1573 156.12769
-90.98745 1512.2943 131.57373
-85.932655 1512.2943 131.57373
-80.877785 1512.2943 131.57373
-75.822906 1512.2943 131.57373
-70.768028 1512.2943 131.57373
-65.713142 1512.2943 131.57373
-60.658363 1512.2943 131.57373
-55.603481 1512.2943 131.57373
-50.548603 1512.2943 131.57373
-45.115002 1518.1855 108.00171
-40.102203 1518.1855 108.00171
-35.089497 1518.1855 108.00171
-30.0767 1518.1855 108.00171
-25.0639 1518.1855 108.00171
-20.051102 1518.1855 108.00171
-15.038302 1518.1855 108.00171
-10.025599 1518.1855 108.00171
-5.0127993 1518.1855 108.00171
0 1518.1855 108.00171
5.0127034 1518.1855 108.00171
10.025599 1518.1855 108.00171
15.038302 1518.1855 108.00171
20.051197 1518.1855 108.00171
25.0639 1518.1855 108.00171
30.076605 1518.1855 108.00171
35.38406 1512.2943 131.57373
40.438843 1512.2943 131.57373
45.888317 1506.1573 156.12769
50.986935 1506.1573 156.12769
56.085552 1506.1573 156.12769
61.184364 1506.1573 156.12769
66.282974 1506.1573 156.12769
71.381783 1506.1573 156.12769
76.4804 1506.1573 156.12769
81.579018 1506.1573 156.12769
86.677826 1506.1573 156.12769
91.776451 1506.1573 156.12769
96.875259 1506.1573 156.12769
101.97387 1506.1573 156.12769
107.07249 1506.1573 156.12769
113.13563 1500.0205 180.68188
118.27808 1500.0205 180.68188
123.42072 1500.0205 180.68188
128.56317 1500.0205 180.68188
133.70561 1500.0205 180.68188
140.03175 1493.8835 205.23608
145.21805 1493.8835 205.23608
150.40451 1493.8835 205.23608
155.59081 1493.8835 205.23608
160.7771 1493.8835 205.23608
165.96358 1493.8835 205.23608
171.14984 1493.8835 205.23608
177.88628 1487.5012 230.77222
183.11813 1487.5012 230.77222
186.70889 1493.8835 205.23608
191.89537 1493.8835 205.23608
197.08165 1493.8835 205.23608
200.55862 1500.0205 180.68188
205.70108 1500.0205 180.68188
-188.6517 1501.464 154.1355
-183.55298 1501.464 154.1355
-179.98843 1495.2867 178.67261
-174.8459 1495.2867 178.67261
-169.70334 1495.2867 178.67261
-164.5609 1495.2867 178.67261
-158.05951 1501.464 154.1355
-152.9608 1501.464 154.1355
-147.86209 1501.464 154.1355
-142.76338 1501.464 154.1355
-136.48126 1507.6414 129.59863
-131.42639 1507.6414 129.59863
-126.37151 1507.6414 129.59863
-121.31662 1507.6414 129.59863
-117.26991 1501.464 154.1355
-112.1713 1501.464 154.1355
-107.07259 1501.464 154.1355
-101.97387 1501.464 154.1355
-96.875153 1501.464 154.1355
-90.98745 1507.6414 129.59863
-85.932655 1507.6414 129.59863
-80.877785 1507.6414 129.59863
-75.822906 1507.6414 129.59863
-70.768028 1507.6414 129.59863
-65.713142 1507.6414 129.59863
-60.658363 1507.6414 129.59863
-55.603481 1507.6414 129.59863
-50.548603 1507.6414 129.59863
-45.493725 1507.6414 129.59863
-40.102203 1513.5713 106.04321
-35.089497 1513.5713 106.04321
-30.0767 1513.5713 106.04321
-25.0639 1513.5713 106.04321
-20.051102 1513.5713 106.04321
-15.038302 1513.5713 106.04321
-10.025599 1513.5713 106.04321
-5.0548792 1507.6414 129.59863
0 1507.6414 129.59863
5.0547829 1507.6414 129.59863
10.109758 1507.6414 129.59863
15.038302 1513.5713 106.04321
20.051197 1513.5713 106.04321
25.274302 1507.6414 129.59863
30.329084 1507.6414 129.59863
35.38406 1507.6414 129.59863
40.789509 1501.464 154.1355
45.888317 1501.464 154.1355
50.986935 1501.464 154.1355
56.085552 1501.464 154.1355
61.184364 1501.464 154.1355
66.282974 1501.464 154.1355
71.381783 1501.464 154.1355
76.4804 1501.464 154.1355
81.579018 1501.464 154.1355
86.677826 1501.464 154.1355
91.776451 1501.464 154.1355
96.875259 1501.464 154.1355
101.97387 1501.464 154.1355
107.07249 1501.464 154.1355
112.1713 1501.464 154.1355
117.26991 1501.464 154.1355
123.42072 1495.2867 178.67261
128.56317 1495.2867 178.67261
133.70561 1495.2867 178.67261
140.03175 1489.1095 203.20947
145.21805 1489.1095 203.20947
150.40451 1489.1095 203.20947
155.59081 1489.1095 203.20947
160.7771 1489.1095 203.20947
165.96358 1489.1095 203.20947
171.14984 1489.1095 203.20947
176.33632 1489.1095 203.20947
181.52261 1489.1095 203.20947
186.70889 1489.1095 203.20947
191.89537 1489.1095 203.20947
197.08165 1489.1095 203.20947
200.55862 1495.2867 178.67261
205.70108 1495.2867 178.67261
209.04636 1501.464 154.1355
214.14517 1501.464 154.1355
219.24377 1501.464 154.1355
224.34259 1501.464 154.1355
-188.6517 1496.7706 152.14331
-183.55298 1496.7706 152.14331
-179.98843 1490.553 176.66309
-174.8459 1490.553 176.66309
-168.25684 1496.7706 152.14331
-163.15823 1496.7706 152.14331
-158.05951 1496.7706 152.14331
-152.9608 1496.7706 152.14331
-147.86209 1496.7706 152.14331
-142.76338 1496.7706 152.14331
-136.48126 1502.9883 127.62354
-131.42639 1502.9883 127.62354
-126.37151 1502.9883 127.62354
-121.31662 1502.9883 127.62354
-116.26175 1502.9883 127.62354
-111.20696 1502.9883 127.62354
-106.15208 1502.9883 127.62354
-101.09721 1502.9883 127.62354
-96.04232 1502.9883 127.62354
-90.98745 1502.9883 127.62354
-85.932655 1502.9883 127.62354
-80.877785 1502.9883 127.62354
-75.822906 1502.9883 127.62354
-70.768028 1502.9883 127.62354
-65.713142 1502.9883 127.62354
-60.658363 1502.9883 127.62354
-55.603481 1502.9883 127.62354
-50.548603 1502.9883 127.62354
-45.493725 1502.9883 127.62354
-40.102203 1508.957 104.08447
-35.089497 1508.957 104.08447
-30.329182 1502.9883 127.62354
-25.274302 1502.9883 127.62354
-20.051102 1508.957 104.08447
-15.038302 1508.957 104.08447
-10.109758 1502.9883 127.62354
-5.0548792 1502.9883 127.62354
0 1502.9883 127.62354
5.0547829 1502.9883 127.62354
10.109758 1502.9883 127.62354
15.164542 1502.9883 127.62354
20.219517 1502.9883 127.62354
25.274302 1502.9883 127.62354
30.329084 1502.9883 127.62354
35.38406 1502.9883 127.62354
40.789509 1496.7706 152.14331
45.888317 1496.7706 152.14331
50.986935 1496.7706 152.14331
56.085552 1496.7706 152.14331
61.184364 1496.7706 152.14331
66.282974 1496.7706 152.14331
71.381783 1496.7706 152.14331
76.4804 1496.7706 152.14331
81.579018 1496.7706 152.14331
86.677826 1496.7706 152.14331
91.776451 1496.7706 152.14331
96.875259 1496.7706 152.14331
101.97387 1496.7706 152.14331
107.07249 1496.7706 152.14331
112.1713 1496.7706 152.14331
117.26991 1496.7706 152.14331
122.36873 1496.7706 152.14331
128.56317 1490.553 176.66309
133.70561 1490.553 176.66309
138.84827 1490.553 176.66309
143.99071 1490.553 176.66309
150.40451 1484.3354 201.18311
155.59081 1484.3354 201.18311
160.7771 1484.3354 201.18311
165.96358 1484.3354 201.18311
171.14984 1484.3354 201.18311
176.33632 1484.3354 201.18311
181.52261 1484.3354 201.18311
186.70889 1484.3354 201.18311
191.89537 1484.3354 201.18311
197.08165 1484.3354 201.18311
200.55862 1490.553 176.66309
205.70108 1490.553 176.66309
209.04636 1496.7706 152.14331
214.14517 1496.7706 152.14331
219.24377 1496.7706 152.14331
224.34259 1496.7706 152.14331
231.41371 1490.553 176.66309
-193.75031 1492.0773 150.15112
-188.6517 1492.0773 150.15112
-183.55298 1492.0773 150.15112
-178.45427 1492.0773 150.15112
-174.8459 1485.8193 174.65381
-168.25684 1492.0773 150.15112
-163.15823 1492.0773 150.15112
-158.05951 1492.0773 150.15112
-152.9608 1492.0773 150.15112
-147.86209 1492.0773 150.15112
-142.76338 1492.0773 150.15112
-136.48126 1498.3352 125.64844
-131.42639 1498.3352 125.64844
-126.37151 1498.3352 125.64844
-121.31662 1498.3352 125.64844
-116.26175 1498.3352 125.64844
-111.20696 1498.3352 125.64844
-106.15208 1498.3352 125.64844
-101.09721 1498.3352 125.64844
-96.04232 1498.3352 125.64844
-90.98745 1498.3352 125.64844
-85.932655 1498.3352 125.64844
-80.877785 1498.3352 125.64844
-75.822906 1498.3352 125.64844
-70.768028 1498.3352 125.64844
-65.713142 1498.3352 125.64844
-60.658363 1498.3352 125.64844
-55.603481 1498.3352 125.64844
-50.548603 1498.3352 125.64844
-45.493725 1498.3352 125.64844
-40.438843 1498.3352 125.64844
-35.38406 1498.3352 125.64844
-30.329182 1498.3352 125.64844
-25.274302 1498.3352 125.64844
-20.219421 1498.3352 125.64844
-15.164542 1498.3352 125.64844
-10.109758 1498.3352 125.64844
-5.0548792 1498.3352 125.64844
0 1498.3352 125.64844
5.0986156 1492.0773 150.15112
10.197426 1492.0773 150.15112
15.296041 1492.0773 150.15112
20.394852 1492.0773 150.15112
25.493467 1492.0773 150.15112
30.592083 1492.0773 150.15112
35.690891 1492.0773 150.15112
40.789509 1492.0773 150.15112
45.888317 1492.0773 150.15112
50.986935 1492.0773 150.15112
56.085552 1492.0773 150.15112
61.184364 1492.0773 150.15112
66.282974 1492.0773 150.15112
71.381783 1492.0773 150.15112
76.4804 1492.0773 150.15112
81.579018 1492.0773 150.15112
86.677826 1492.0773 150.15112
91.776451 1492.0773 150.15112
96.875259 1492.0773 150.15112
101.97387 1492.0773 150.15112
107.07249 1492.0773 150.15112
112.1713 1492.0773 150.15112
117.26991 1492.0773 150.15112
122.36873 1492.0773 150.15112
127.46734 1492.0773 150.15112
133.70561 1485.8193 174.65381
138.84827 1485.8193 174.65381
143.99071 1485.8193 174.65381
149.13335 1485.8193 174.65381
154.2758 1485.8193 174.65381
159.41826 1485.8193 174.65381
165.96358 1479.5613 199.15649
171.14984 1479.5613 199.15649
176.33632 1479.5613 199.15649
181.52261 1479.5613 199.15649
186.70889 1479.5613 199.15649
190.27354 1485.8193 174.65381
195.41597 1485.8193 174.65381
200.55862 1485.8193 174.65381
205.70108 1485.8193 174.65381
210.84354 1485.8193 174.65381
215.98618 1485.8193 174.65381
219.24377 1492.0773 150.15112
224.34259 1492.0773 150.15112
231.41371 1485.8193 174.65381
-193.75031 1487.3839 148.15894
-188.6517 1487.3839 148.15894
-183.55298 1487.3839 148.15894
-178.45427 1487.3839 148.15894
-173.35556 1487.3839 148.15894
-168.25684 1487.3839 148.15894
-163.15823 1487.3839 148.15894
-158.05951 1487.3839 148.15894
-152.9608 1487.3839 148.15894
-147.86209 1487.3839 148.15894
-142.76338 1487.3839 148.15894
-136.48126 1493.6823 123.67334
-131.42639 1493.6823 123.67334
-126.37151 1493.6823 123.67334
-121.31662 1493.6823 123.67334
-116.26175 1493.6823 123.67334
-111.20696 1493.6823 123.67334
-106.15208 1493.6823 123.67334
-101.09721 1493.6823 123.67334
-96.04232 1493.6823 123.67334
-90.98745 1493.6823 123.67334
-85.932655 1493.6823 123.67334
-80.877785 1493.6823 123.67334
-75.822906 1493.6823 123.67334
-70.768028 1493.6823 123.67334
-65.713142 1493.6823 123.67334
-60.658363 1493.6823 123.67334
-55.603481 1493.6823 123.67334
-50.548603 1493.6823 123.67334
-45.493725 1493.6823 123.67334
-40.438843 1493.6823 123.67334
-35.38406 1493.6823 123.67334
-30.329182 1493.6823 123.67334
-25.274302 1493.6823 123.67334
-20.219421 1493.6823 123.67334
-15.164542 1493.6823 123.67334
-10.197426 1487.3839 148.15894
-5.0987129 1487.3839 148.15894
0 1487.3839 148.15894
5.0986156 1487.3839 148.15894
10.197426 1487.3839 148.15894
15.296041 1487.3839 148.15894
20.394852 1487.3839 148.15894
25.493467 1487.3839 148.15894
30.592083 1487.3839 148.15894
35.690891 1487.3839 148.15894
40.789509 1487.3839 148.15894
45.888317 1487.3839 148.15894
50.986935 1487.3839 148.15894
56.085552 1487.3839 148.15894
61.184364 1487.3839 148.15894
66.282974 1487.3839 148.15894
71.381783 1487.3839 148.15894
76.4804 1487.3839 148.15894
81.579018 1487.3839 148.15894
86.677826 1487.3839 148.15894
91.776451 1487.3839 148.15894
96.875259 1487.3839 148.15894
101.97387 1487.3839 148.15894
107.07249 1487.3839 148.15894
112.1713 1487.3839 148.15894
117.26991 1487.3839 148.15894
122.36873 1487.3839 148.15894
127.46734 1487.3839 148.15894
133.70561 1481.0856 172.64453
138.84827 1481.0856 172.64453
143.99071 1481.0856 172.64453
149.13335 1481.0856 172.64453
154.2758 1481.0856 172.64453
159.41826 1481.0856 172.64453
164.5609 1481.0856 172.64453
169.70334 1481.0856 172.64453
174.84598 1481.0856 172.64453
179.98843 1481.0856 172.64453
185.13089 1481.0856 172.64453
190.27354 1481.0856 172.64453
195.41597 1481.0856 172.64453
200.55862 1481.0856 172.64453
205.70108 1481.0856 172.64453
210.84354 1481.0856 172.64453
215.98618 1481.0856 172.64453
221.12862 1481.0856 172.64453
226.27126 1481.0856 172.64453
231.41371 1481.0856 172.64453
-203.94774 1482.6906 146.16675
-198.84903 1482.6906 146.16675
-193.75031 1482.6906 146.16675
-188.6517 1482.6906 146.16675
-183.55298 1482.6906 146.16675
-178.45427 1482.6906 146.16675
-173.35556 1482.6906 146.16675
-168.25684 1482.6906 146.16675
-163.15823 1482.6906 146.16675
-158.05951 1482.6906 146.16675
-152.9608 1482.6906 146.16675
-147.86209 1482.6906 146.16675
-141.53606 1489.0292 121.69824
-136.48126 1489.0292 121.69824
-131.42639 1489.0292 121.69824
-126.37151 1489.0292 121.69824
-121.31662 1489.0292 121.69824
-116.26175 1489.0292 121.69824
-111.20696 1489.0292 121.69824
-106.15208 1489.0292 121.69824
-101.09721 1489.0292 121.69824
-96.04232 1489.0292 121.69824
-90.98745 1489.0292 121.69824
-85.932655 1489.0292 121.69824
-80.877785 1489.0292 121.69824
-75.822906 1489.0292 121.69824
-70.768028 1489.0292 121.69824
-65.713142 1489.0292 121.69824
-60.658363 1489.0292 121.69824
-55.603481 1489.0292 121.69824
-50.548603 1489.0292 121.69824
-45.493725 1489.0292 121.69824
-40.438843 1489.0292 121.69824
-35.38406 1489.0292 121.69824
-30.592182 1482.6906 146.16675
-25.493467 1482.6906 146.16675
-20.394754 1482.6906 146.16675
-15.296041 1482.6906 146.16675
-10.197426 1482.6906 146.16675
-5.0987129 1482.6906 146.16675
0 1482.6906 146.16675
5.0986156 1482.6906 146.16675
10.197426 1482.6906 146.16675
15.296041 1482.6906 146.16675
20.394852 1482.6906 146.16675
25.493467 1482.6906 146.16675
30.592083 1482.6906 146.16675
35.690891 1482.6906 146.16675
40.789509 1482.6906 146.16675
45.888317 1482.6906 146.16675
50.986935 1482.6906 146.16675
56.085552 1482.6906 146.16675
61.184364 1482.6906 146.16675
66.282974 1482.6906 146.16675
71.381783 1482.6906 146.16675
76.4804 1482.6906 146.16675
81.579018 1482.6906 146.16675
86.677826 1482.6906 146.16675
91.776451 1482.6906 146.16675
96.875259 1482.6906 146.16675
101.97387 1482.6906 146.16675
107.07249 1482.6906 146.16675
112.1713 1482.6906 146.16675
117.26991 1482.6906 146.16675
122.36873 1482.6906 146.16675
127.46734 1482.6906 146.16675
133.70561 1476.3518 170.63525
138.84827 1476.3518 170.63525
143.99071 1476.3518 170.63525
149.13335 1476.3518 170.63525
154.2758 1476.3518 170.63525
159.41826 1476.3518 170.63525
164.5609 1476.3518 170.63525
169.70334 1476.3518 170.63525
174.84598 1476.3518 170.63525
179.98843 1476.3518 170.63525
185.13089 1476.3518 170.63525
190.27354 1476.3518 170.63525
195.41597 1476.3518 170.63525
200.55862 1476.3518 170.63525
205.70108 1476.3518 170.63525
210.84354 1476.3518 170.63525
215.98618 1476.3518 170.63525
223.01344 1470.0132 195.10376
228.19992 1470.0132 195.10376
235.43761 1463.4211 220.55078
-203.94774 1477.9972 144.17456
-198.84903 1477.9972 144.17456
-193.75031 1477.9972 144.17456
-188.6517 1477.9972 144.17456
-183.55298 1477.9972 144.17456
-178.45427 1477.9972 144.17456
-173.35556 1477.9972 144.17456
-168.25684 1477.9972 144.17456
-163.15823 1477.9972 144.17456
-158.05951 1477.9972 144.17456
-152.9608 1477.9972 144.17456
-147.86209 1477.9972 144.17456
-141.53606 1484.3762 119.72314
-136.48126 1484.3762 119.72314
-131.42639 1484.3762 119.72314
-126.37151 1484.3762 119.72314
-121.31662 1484.3762 119.72314
-116.26175 1484.3762 119.72314
-111.20696 1484.3762 119.72314
-106.15208 1484.3762 119.72314
-101.09721 1484.3762 119.72314
-96.04232 1484.3762 119.72314
-90.98745 1484.3762 119.72314
-85.932655 1484.3762 119.72314
-80.877785 1484.3762 119.72314
-75.822906 1484.3762 119.72314
-70.178902 1490.4999 96.25
-65.1661 1490.4999 96.25
-60.658363 1484.3762 119.72314
-55.603481 1484.3762 119.72314
-50.548603 1484.3762 119.72314
-45.493725 1484.3762 119.72314
-40.438843 1484.3762 119.72314
-35.38406 1484.3762 119.72314
-30.592182 1477.9972 144.17456
-25.493467 1477.9972 144.17456
-20.394754 1477.9972 144.17456
-15.296041 1477.9972 144.17456
-10.197426 1477.9972 144.17456
-5.0987129 1477.9972 144.17456
0 1477.9972 144.17456
5.0986156 1477.9972 144.17456
10.197426 1477.9972 144.17456
15.296041 1477.9972 144.17456
20.219517 1484.3762 119.72314
25.274302 1484.3762 119.72314
30.329084 1484.3762 119.72314
35.38406 1484.3762 119.72314
40.789509 1477.9972 144.17456
45.888317 1477.9972 144.17456
50.986935 1477.9972 144.17456
56.085552 1477.9972 144.17456
61.184364 1477.9972 144.17456
66.282974 1477.9972 144.17456
71.381783 1477.9972 144.17456
75.822906 1484.3762 119.72314
80.877686 1484.3762 119.72314
86.677826 1477.9972 144.17456
91.776451 1477.9972 144.17456
96.875259 1477.9972 144.17456
101.97387 1477.9972 144.17456
107.07249 1477.9972 144.17456
112.1713 1477.9972 144.17456
117.26991 1477.9972 144.17456
122.36873 1477.9972 144.17456
127.46734 1477.9972 144.17456
133.70561 1471.6182 168.62573
137.66476 1477.9972 144.17456
142.76338 1477.9972 144.17456
149.13335 1471.6182 168.62573
154.2758 1471.6182 168.62573
159.41826 1471.6182 168.62573
164.5609 1471.6182 168.62573
169.70334 1471.6182 168.62573
174.84598 1471.6182 168.62573
179.98843 1471.6182 168.62573
185.13089 1471.6182 168.62573
190.27354 1471.6182 168.62573
195.41597 1471.6182 168.62573
200.55862 1471.6182 168.62573
205.70108 1471.6182 168.62573
210.84354 1471.6182 168.62573
215.98618 1471.6182 168.62573
223.01344 1465.2391 193.07715
228.19992 1465.2391 193.07715
235.43761 1458.6051 218.50659
242.76645 1451.9709 243.93579
-210.84361 1466.8845 166.61646
-203.94774 1473.3038 142.18213
-198.84903 1473.3038 142.18213
-193.75031 1473.3038 142.18213
-188.6517 1473.3038 142.18213
-183.55298 1473.3038 142.18213
-178.45427 1473.3038 142.18213
-173.35556 1473.3038 142.18213
-168.25684 1473.3038 142.18213
-163.15823 1473.3038 142.18213
-158.05951 1473.3038 142.18213
-152.9608 1473.3038 142.18213
-146.59093 1479.7231 117.74805
-141.53606 1479.7231 117.74805
-136.48126 1479.7231 117.74805
-131.42639 1479.7231 117.74805
-126.37151 1479.7231 117.74805
-121.31662 1479.7231 117.74805
-116.26175 1479.7231 117.74805
-111.20696 1479.7231 117.74805
-106.15208 1479.7231 117.74805
-101.09721 1479.7231 117.74805
-96.04232 1479.7231 117.74805
-90.98745 1479.7231 117.74805
-85.932655 1479.7231 117.74805
-80.877785 1479.7231 117.74805
-75.191704 1485.8856 94.29126
-70.178902 1485.8856 94.29126
-65.1661 1485.8856 94.29126
-60.658363 1479.7231 117.74805
-55.603481 1479.7231 117.74805
-50.548603 1479.7231 117.74805
-45.493725 1479.7231 117.74805
-40.438843 1479.7231 117.74805
-35.38406 1479.7231 117.74805
-30.592182 1473.3038 142.18213
-25.493467 1473.3038 142.18213
-20.394754 1473.3038 142.18213
-15.296041 1473.3038 142.18213
-10.197426 1473.3038 142.18213
-5.0987129 1473.3038 142.18213
0 1473.3038 142.18213
5.0986156 1473.3038 142.18213
10.197426 1473.3038 142.18213
15.296041 1473.3038 142.18213
20.219517 1479.7231 117.74805
25.274302 1479.7231 117.74805
30.329084 1479.7231 117.74805
35.38406 1479.7231 117.74805
40.789509 1473.3038 142.18213
45.888317 1473.3038 142.18213
50.986935 1473.3038 142.18213
56.085552 1473.3038 142.18213
60.658363 1479.7231 117.74805
65.713142 1479.7231 117.74805
70.76812 1479.7231 117.74805
75.822906 1479.7231 117.74805
80.877686 1479.7231 117.74805
86.677826 1473.3038 142.18213
91.776451 1473.3038 142.18213
96.875259 1473.3038 142.18213
101.97387 1473.3038 142.18213
107.07249 1473.3038 142.18213
112.1713 1473.3038 142.18213
117.26991 1473.3038 142.18213
122.36873 1473.3038 142.18213
127.46734 1473.3038 142.18213
132.56595 1473.3038 142.18213
137.66476 1473.3038 142.18213
142.76338 1473.3038 142.18213
147.86218 1473.3038 142.18213
152.9608 1473.3038 142.18213
159.41826 1466.8845 166.61646
164.5609 1466.8845 166.61646
169.70334 1466.8845 166.61646
174.84598 1466.8845 166.61646
179.98843 1466.8845 166.61646
185.13089 1466.8845 166.61646
190.27354 1466.8845 166.61646
195.41597 1466.8845 166.61646
200.55862 1466.8845 166.61646
205.70108 1466.8845 166.61646
210.84354 1466.8845 166.61646
215.98618 1466.8845 166.61646
223.01344 1460.4651 191.05078
228.19992 1460.4651 191.05078
235.43761 1453.7891 216.46216
242.76645 1447.1129 241.87378
-210.84361 1462.1506 164.60718
-203.94774 1468.6104 140.18994
-198.84903 1468.6104 140.18994
-193.75031 1468.6104 140.18994
-188.6517 1468.6104 140.18994
-183.55298 1468.6104 140.18994
-178.45427 1468.6104 140.18994
-173.35556 1468.6104 140.18994
-168.25684 1468.6104 140.18994
-163.15823 1468.6104 140.18994
-158.05951 1468.6104 140.18994
-152.9608 1468.6104 140.18994
-146.59093 1475.0701 115.77295
-141.53606 1475.0701 115.77295
-136.48126 1475.0701 115.77295
-131.42639 1475.0701 115.77295
-126.37151 1475.0701 115.77295
-120.30671 1481.2712 92.33252
-115.29391 1481.2712 92.33252
-110.2812 1481.2712 92.33252
-106.15208 1475.0701 115.77295
-101.09721 1475.0701 115.77295
-96.04232 1475.0701 115.77295
-90.98745 1475.0701 115.77295
-85.932655 1475.0701 115.77295
-80.877785 1475.0701 115.77295
-75.191704 1481.2712 92.33252
-70.178902 1481.2712 92.33252
-65.1661 1481.2712 92.33252
-60.1534 1481.2712 92.33252
-55.603481 1475.0701 115.77295
-50.548603 1475.0701 115.77295
-45.493725 1475.0701 115.77295
-40.438843 1475.0701 115.77295
-35.38406 1475.0701 115.77295
-30.592182 1468.6104 140.18994
-25.493467 1468.6104 140.18994
-20.394754 1468.6104 140.18994
-15.296041 1468.6104 140.18994
-10.197426 1468.6104 140.18994
-5.0987129 1468.6104 140.18994
0 1468.6104 140.18994
5.0986156 1468.6104 140.18994
10.197426 1468.6104 140.18994
15.296041 1468.6104 140.18994
20.394852 1468.6104 140.18994
25.493467 1468.6104 140.18994
30.592083 1468.6104 140.18994
35.690891 1468.6104 140.18994
40.789509 1468.6104 140.18994
45.888317 1468.6104 140.18994
50.986935 1468.6104 140.18994
55.603386 1475.0701 115.77295
60.658363 1475.0701 115.77295
65.713142 1475.0701 115.77295
70.76812 1475.0701 115.77295
75.822906 1475.0701 115.77295
80.877686 1475.0701 115.77295
85.932655 1475.0701 115.77295
91.776451 1468.6104 140.18994
96.875259 1468.6104 140.18994
101.97387 1468.6104 140.18994
107.07249 1468.6104 140.18994
112.1713 1468.6104 140.18994
117.26991 1468.6104 140.18994
122.36873 1468.6104 140.18994
127.46734 1468.6104 140.18994
132.56595 1468.6104 140.18994
137.66476 1468.6104 140.18994
142.76338 1468.6104 140.18994
147.86218 1468.6104 140.18994
152.9608 1468.6104 140.18994
158.05943 1468.6104 140.18994
164.5609 1462.1506 164.60718
169.70334 1462.1506 164.60718
174.84598 1462.1506 164.60718
179.98843 1462.1506 164.60718
185.13089 1462.1506 164.60718
190.27354 1462.1506 164.60718
195.41597 1462.1506 164.60718
200.55862 1462.1506 164.60718
205.70108 1462.1506 164.60718
210.84354 1462.1506 164.60718
215.98618 1462.1506 164.60718
223.01344 1455.6909 189.02417
228.19992 1455.6909 189.02417
235.43761 1448.9729 214.41797
240.66948 1448.9729 214.41797
248.04411 1442.2549 239.81152
-215.98618 1457.417 162.59766
-210.84361 1457.417 162.59766
-203.94774 1463.917 138.19775
-198.84903 1463.917 138.19775
-193.75031 1463.917 138.19775
-188.6517 1463.917 138.19775
-183.55298 1463.917 138.19775
-178.45427 1463.917 138.19775
-173.35556 1463.917 138.19775
-168.25684 1463.917 138.19775
-163.15823 1463.917 138.19775
-158.05951 1463.917 138.19775
-152.9608 1463.917 138.19775
-146.59093 1470.4171 113.79785
-141.53606 1470.4171 113.79785
-136.48126 1470.4171 113.79785
-130.33231 1476.657 90.374023
-125.3195 1476.657 90.374023
-120.30671 1476.657 90.374023
-115.29391 1476.657 90.374023
-110.2812 1476.657 90.374023
-106.15208 1470.4171 113.79785
-101.09721 1470.4171 113.79785
-96.04232 1470.4171 113.79785
-90.98745 1470.4171 113.79785
-85.932655 1470.4171 113.79785
-80.877785 1470.4171 113.79785
-75.191704 1476.657 90.374023
-70.178902 1476.657 90.374023
-65.1661 1476.657 90.374023
-60.1534 1476.657 90.374023
-55.140602 1476.657 90.374023
-50.1278 1476.657 90.374023
-45.493725 1470.4171 113.79785
-40.438843 1470.4171 113.79785
-35.38406 1470.4171 113.79785
-30.592182 1463.917 138.19775
-25.493467 1463.917 138.19775
-20.394754 1463.917 138.19775
-15.296041 1463.917 138.19775
-10.197426 1463.917 138.19775
-5.0987129 1463.917 138.19775
0 1463.917 138.19775
5.0986156 1463.917 138.19775
10.197426 1463.917 138.19775
15.296041 1463.917 138.19775
20.394852 1463.917 138.19775
25.493467 1463.917 138.19775
30.592083 1463.917 138.19775
35.690891 1463.917 138.19775
40.789509 1463.917 138.19775
45.888317 1463.917 138.19775
50.986935 1463.917 138.19775
55.603386 1470.4171 113.79785
60.658363 1470.4171 113.79785
65.713142 1470.4171 113.79785
70.76812 1470.4171 113.79785
75.822906 1470.4171 113.79785
80.877686 1470.4171 113.79785
85.932655 1470.4171 113.79785
91.776451 1463.917 138.19775
96.875259 1463.917 138.19775
101.97387 1463.917 138.19775
107.07249 1463.917 138.19775
112.1713 1463.917 138.19775
117.26991 1463.917 138.19775
122.36873 1463.917 138.19775
127.46734 1463.917 138.19775
132.56595 1463.917 138.19775
137.66476 1463.917 138.19775
142.76338 1463.917 138.19775
147.86218 1463.917 138.19775
152.9608 1463.917 138.19775
158.05943 1463.917 138.19775
163.15823 1463.917 138.19775
168.25684 1463.917 138.19775
174.84598 1457.417 162.59766
179.98843 1457.417 162.59766
185.13089 1457.417 162.59766
190.27354 1457.417 162.59766
195.41597 1457.417 162.59766
200.55862 1457.417 162.59766
205.70108 1457.417 162.59766
210.84354 1457.417 162.59766
215.98618 1457.417 162.59766
221.12862 1457.417 162.59766
228.19992 1450.917 186.9978
233.38622 1450.917 186.9978
238.57249 1450.917 186.9978
245.90155 1444.157 212.37354
253.32158 1437.3969 237.74951
-215.98618 1452.6832 160.58838
-210.84361 1452.6832 160.58838
-203.94774 1459.2236 136.20557
-198.84903 1459.2236 136.20557
-193.75031 1459.2236 136.20557
-188.6517 1459.2236 136.20557
-183.55298 1459.2236 136.20557
-178.45427 1459.2236 136.20557
-173.35556 1459.2236 136.20557
-168.25684 1459.2236 136.20557
-163.15823 1459.2236 136.20557
-158.05951 1459.2236 136.20557
-152.9608 1459.2236 136.20557
-146.59093 1465.764 111.82275
-141.53606 1465.764 111.82275
-136.48126 1465.764 111.82275
-130.33231 1472.0427 88.415283
-125.3195 1472.0427 88.415283
-120.30671 1472.0427 88.415283
-115.29391 1472.0427 88.415283
-110.2812 1472.0427 88.415283
-106.15208 1465.764 111.82275
-101.09721 1465.764 111.82275
-96.04232 1465.764 111.82275
-90.98745 1465.764 111.82275
-85.2173 1472.0427 88.415283
-80.204498 1472.0427 88.415283
-75.191704 1472.0427 88.415283
-70.178902 1472.0427 88.415283
-65.1661 1472.0427 88.415283
-60.1534 1472.0427 88.415283
-55.140602 1472.0427 88.415283
-50.1278 1472.0427 88.415283
-45.493725 1465.764 111.82275
-40.438843 1465.764 111.82275
-35.38406 1465.764 111.82275
-30.592182 1459.2236 136.20557
-25.493467 1459.2236 136.20557
-20.394754 1459.2236 136.20557
-15.296041 1459.2236 136.20557
-10.197426 1459.2236 136.20557
-5.0987129 1459.2236 136.20557
0 1459.2236 136.20557
5.0986156 1459.2236 136.20557
10.197426 1459.2236 136.20557
15.296041 1459.2236 136.20557
20.219517 1465.764 111.82275
25.274302 1465.764 111.82275
30.592083 1459.2236 136.20557
35.690891 1459.2236 136.20557
40.789509 1459.2236 136.20557
45.888317 1459.2236 136.20557
50.986935 1459.2236 136.20557
55.603386 1465.764 111.82275
60.658363 1465.764 111.82275
65.713142 1465.764 111.82275
70.76812 1465.764 111.82275
75.822906 1465.764 111.82275
80.877686 1465.764 111.82275
86.677826 1459.2236 136.20557
91.776451 1459.2236 136.20557
96.875259 1459.2236 136.20557
101.97387 1459.2236 136.20557
107.07249 1459.2236 136.20557
112.1713 1459.2236 136.20557
117.26991 1459.2236 136.20557
122.36873 1459.2236 136.20557
127.46734 1459.2236 136.20557
132.56595 1459.2236 136.20557
137.66476 1459.2236 136.20557
142.76338 1459.2236 136.20557
147.86218 1459.2236 136.20557
152.9608 1459.2236 136.20557
158.05943 1459.2236 136.20557
163.15823 1459.2236 136.20557
168.25684 1459.2236 136.20557
174.84598 1452.6832 160.58838
179.98843 1452.6832 160.58838
185.13089 1452.6832 160.58838
190.27354 1452.6832 160.58838
195.41597 1452.6832 160.58838
200.55862 1452.6832 160.58838
205.70108 1452.6832 160.58838
210.84354 1452.6832 160.58838
215.98618 1452.6832 160.58838
221.12862 1452.6832 160.58838
228.19992 1446.1428 184.97119
233.38622 1446.1428 184.97119
238.57249 1446.1428 184.97119
243.75897 1446.1428 184.97119
251.13341 1439.3409 210.32935
-221.12862 1447.9495 158.5791
-215.98618 1447.9495 158.5791
-210.84361 1447.9495 158.5791
-203.94774 1454.5303 134.21338
-198.84903 1454.5303 134.21338
-193.75031 1454.5303 134.21338
-188.6517 1454.5303 134.21338
-183.55298 1454.5303 134.21338
-178.45427 1454.5303 134.21338
-173.35556 1454.5303 134.21338
-168.25684 1454.5303 134.21338
-163.15823 1454.5303 134.21338
-158.05951 1454.5303 134.21338
-152.9608 1454.5303 134.21338
-146.59093 1461.1111 109.84766
-141.53606 1461.1111 109.84766
-136.48126 1461.1111 109.84766
-130.33231 1467.4285 86.456543
-125.3195 1467.4285 86.456543
-120.30671 1467.4285 86.456543
-115.29391 1467.4285 86.456543
-110.2812 1467.4285 86.456543
-106.15208 1461.1111 109.84766
-101.09721 1461.1111 109.84766
-96.04232 1461.1111 109.84766
-90.98745 1461.1111 109.84766
-85.2173 1467.4285 86.456543
-80.204498 1467.4285 86.456543
-75.191704 1467.4285 86.456543
-70.178902 1467.4285 86.456543
-65.1661 1467.4285 86.456543
-60.1534 1467.4285 86.456543
-55.140602 1467.4285 86.456543
-50.1278 1467.4285 86.456543
-45.115002 1467.4285 86.456543
-40.438843 1461.1111 109.84766
-35.38406 1461.1111 109.84766
-30.592182 1454.5303 134.21338
-25.493467 1454.5303 134.21338
-20.394754 1454.5303 134.21338
-15.296041 1454.5303 134.21338
-10.197426 1454.5303 134.21338
-5.0987129 1454.5303 134.21338
0 1454.5303 134.21338
5.0986156 1454.5303 134.21338
10.197426 1454.5303 134.21338
15.296041 1454.5303 134.21338
20.219517 1461.1111 109.84766
25.274302 1461.1111 109.84766
30.592083 1454.5303 134.21338
35.690891 1454.5303 134.21338
40.789509 1454.5303 134.21338
45.888317 1454.5303 134.21338
50.548603 1461.1111 109.84766
55.603386 1461.1111 109.84766
60.658363 1461.1111 109.84766
65.713142 1461.1111 109.84766
70.76812 1461.1111 109.84766
75.822906 1461.1111 109.84766
80.877686 1461.1111 109.84766
86.677826 1454.5303 134.21338
91.776451 1454.5303 134.21338
96.875259 1454.5303 134.21338
101.97387 1454.5303 134.21338
107.07249 1454.5303 134.21338
112.1713 1454.5303 134.21338
117.26991 1454.5303 134.21338
122.36873 1454.5303 134.21338
127.46734 1454.5303 134.21338
132.56595 1454.5303 134.21338
137.66476 1454.5303 134.21338
142.76338 1454.5303 134.21338
147.86218 1454.5303 134.21338
152.9608 1454.5303 134.21338
158.05943 1454.5303 134.21338
163.15823 1454.5303 134.21338
169.70334 1447.9495 158.5791
174.84598 1447.9495 158.5791
179.98843 1447.9495 158.5791
185.13089 1447.9495 158.5791
190.27354 1447.9495 158.5791
195.41597 1447.9495 158.5791
200.55862 1447.9495 158.5791
205.70108 1447.9495 158.5791
210.84354 1447.9495 158.5791
215.98618 1447.9495 158.5791
221.12862 1447.9495 158.5791
228.19992 1441.3688 182.94482
231.41371 1447.9495 158.5791
236.55617 1447.9495 158.5791
243.75897 1441.3688 182.94482
251.13341 1434.5249 208.28516
-221.12862 1443.2158 156.56982
-215.98618 1443.2158 156.56982
-209.04645 1449.8369 132.22119
-203.94774 1449.8369 132.22119
-198.84903 1449.8369 132.22119
-193.75031 1449.8369 132.22119
-188.6517 1449.8369 132.22119
-183.55298 1449.8369 132.22119
-178.45427 1449.8369 132.22119
-173.35556 1449.8369 132.22119
-168.25684 1449.8369 132.22119
-163.15823 1449.8369 132.22119
-158.05951 1449.8369 132.22119
-151.64581 1456.458 107.87256
-146.59093 1456.458 107.87256
-141.53606 1456.458 107.87256
-136.48126 1456.458 107.87256
-130.33231 1462.8142 84.498047
-125.3195 1462.8142 84.498047
-120.30671 1462.8142 84.498047
-115.29391 1462.8142 84.498047
-110.2812 1462.8142 84.498047
-105.2684 1462.8142 84.498047
-100.2556 1462.8142 84.498047
-95.242805 1462.8142 84.498047
-90.230003 1462.8142 84.498047
-85.2173 1462.8142 84.498047
-80.204498 1462.8142 84.498047
-75.191704 1462.8142 84.498047
-70.178902 1462.8142 84.498047
-65.1661 1462.8142 84.498047
-60.1534 1462.8142 84.498047
-55.140602 1462.8142 84.498047
-50.1278 1462.8142 84.498047
-45.115002 1462.8142 84.498047
-40.102203 1462.8142 84.498047
-35.38406 1456.458 107.87256
-30.592182 1449.8369 132.22119
-25.493467 1449.8369 132.22119
-20.394754 1449.8369 132.22119
-15.296041 1449.8369 132.22119
-10.197426 1449.8369 132.22119
-5.0548792 1456.458 107.87256
0 1456.458 107.87256
5.0986156 1449.8369 132.22119
10.197426 1449.8369 132.22119
15.296041 1449.8369 132.22119
20.394852 1449.8369 132.22119
25.493467 1449.8369 132.22119
30.592083 1449.8369 132.22119
35.690891 1449.8369 132.22119
40.789509 1449.8369 132.22119
45.493816 1456.458 107.87256
50.548603 1456.458 107.87256
55.603386 1456.458 107.87256
60.658363 1456.458 107.87256
65.713142 1456.458 107.87256
70.76812 1456.458 107.87256
75.822906 1456.458 107.87256
80.877686 1456.458 107.87256
86.677826 1449.8369 132.22119
91.776451 1449.8369 132.22119
96.875259 1449.8369 132.22119
101.97387 1449.8369 132.22119
107.07249 1449.8369 132.22119
112.1713 1449.8369 132.22119
117.26991 1449.8369 132.22119
122.36873 1449.8369 132.22119
127.46734 1449.8369 132.22119
132.56595 1449.8369 132.22119
137.66476 1449.8369 132.22119
142.76338 1449.8369 132.22119
147.86218 1449.8369 132.22119
152.9608 1449.8369 132.22119
158.05943 1449.8369 132.22119
163.15823 1449.8369 132.22119
168.25684 1449.8369 132.22119
174.84598 1443.2158 156.56982
179.98843 1443.2158 156.56982
185.13089 1443.2158 156.56982
190.27354 1443.2158 156.56982
195.41597 1443.2158 156.56982
200.55862 1443.2158 156.56982
205.70108 1443.2158 156.56982
210.84354 1443.2158 156.56982
215.98618 1443.2158 156.56982
221.12862 1443.2158 156.56982
226.27126 1443.2158 156.56982
231.41371 1443.2158 156.56982
236.55617 1443.2158 156.56982
243.75897 1436.5947 180.91846
251.13341 1429.7089 206.24072
258.59924 1422.8229 231.56323
266.24368 1415.6722 257.85962
-221.12862 1438.4821 154.5603
-214.14517 1445.1436 130.229
-209.04645 1445.1436 130.229
-203.94774 1445.1436 130.229
-198.84903 1445.1436 130.229
-193.75031 1445.1436 130.229
-188.6517 1445.1436 130.229
-183.55298 1445.1436 130.229
-178.45427 1445.1436 130.229
-173.35556 1445.1436 130.229
-168.25684 1445.1436 130.229
-163.15823 1445.1436 130.229
-158.05951 1445.1436 130.229
-151.64581 1451.8049 105.89746
-146.59093 1451.8049 105.89746
-141.53606 1451.8049 105.89746
-136.48126 1451.8049 105.89746
-130.33231 1458.1998 82.539307
-125.3195 1458.1998 82.539307
-120.30671 1458.1998 82.539307
-115.29391 1458.1998 82.539307
-110.2812 1458.1998 82.539307
-105.2684 1458.1998 82.539307
-100.2556 1458.1998 82.539307
-95.242805 1458.1998 82.539307
-90.230003 1458.1998 82.539307
-85.2173 1458.1998 82.539307
-80.204498 1458.1998 82.539307
-75.191704 1458.1998 82.539307
-70.178902 1458.1998 82.539307
-64.619064 1464.5948 59.181396
-59.648441 1464.5948 59.181396
-55.140602 1458.1998 82.539307
-50.1278 1458.1998 82.539307
-45.115002 1458.1998 82.539307
-40.102203 1458.1998 82.539307
-35.089497 1458.1998 82.539307
-30.329182 1451.8049 105.89746
-25.493467 1445.1436 130.229
-20.394754 1445.1436 130.229
-15.296041 1445.1436 130.229
-10.197426 1445.1436 130.229
-5.0548792 1451.8049 105.89746
0 1451.8049 105.89746
5.0986156 1445.1436 130.229
10.197426 1445.1436 130.229
15.296041 1445.1436 130.229
20.394852 1445.1436 130.229
25.493467 1445.1436 130.229
