ply
format ascii 1.0
comment PCL generated
element vertex 1575
property float x
property float y
property float z
element camera 0
property float view_px
property float view_py
property float view_pz
property float x_axisx
property float x_axisy
property float x_axisz
property float y_axisx
property float y_axisy
property float y_axisz
property float z_axisx
property float z_axisy
property float z_axisz
property float focal
property float scalex
property float scaley
property float centerx
property float centery
property int viewportx
property int viewporty
property float k1
property float k2
end_header
-20.570087 1055.0508 -8.1965332
-15.427542 1055.0508 -8.1965332
-10.285093 1055.0508 -8.1965332
-5.1425467 1055.0508 -8.1965332
0 1055.0508 -8.1965332
5.1424484 1055.0508 -8.1965332
10.285093 1055.0508 -8.1965332
15.427542 1055.0508 -8.1965332
20.570187 1055.0508 -8.1965332
25.712635 1055.0508 -8.1965332
30.855083 1055.0508 -8.1965332
35.997726 1055.0508 -8.1965332
41.140175 1055.0508 -8.1965332
46.282822 1055.0508 -8.1965332
51.863602 1045.121 14.747559
57.049881 1045.121 14.747559
62.236362 1045.121 14.747559
68.015266 1034.7942 38.609375
72.609123 1045.121 14.747559
77.795403 1045.121 14.747559
83.711067 1034.7942 38.609375
88.943138 1034.7942 38.609375
94.175003 1034.7942 38.609375
99.407066 1034.7942 38.609375
104.63894 1034.7942 38.609375
109.8708 1034.7942 38.609375
115.10287 1034.7942 38.609375
121.38322 1024.4673 62.471436
126.66088 1024.4673 62.471436
131.93834 1024.4673 62.471436
137.21579 1024.4673 62.471436
142.49345 1024.4673 62.471436
147.7709 1024.4673 62.471436
153.04855 1024.4673 62.471436
158.326 1024.4673 62.471436
163.60345 1024.4673 62.471436
170.396 1013.7433 87.250977
175.72078 1013.7433 87.250977
181.04578 1013.7433 87.250977
188.02748 1003.0193 112.03076
193.39961 1003.0193 112.03076
198.77194 1003.0193 112.03076
206.00961 991.89807 137.72803
213.34569 980.77686 163.42529
218.81601 980.77686 163.42529
224.28632 980.77686 163.42529
338.4494 1003.0193 112.03076
343.82175 1003.0193 112.03076
352.38495 991.89807 137.72803
354.56601 1003.0193 112.03076
359.93835 1003.0193 112.03076
368.64883 991.89807 137.72803
374.07025 991.89807 137.72803
379.49149 991.89807 137.72803
384.91272 991.89807 137.72803
390.33414 991.89807 137.72803
395.75537 991.89807 137.72803
401.17679 991.89807 137.72803
402.91602 1003.0193 112.03076
408.28815 1003.0193 112.03076
413.66049 1003.0193 112.03076
419.03259 1003.0193 112.03076
424.40497 1003.0193 112.03076
429.77707 1003.0193 112.03076
443.10236 980.77686 163.42529
-408.28824 998.07397 109.93164
-402.91602 998.07397 109.93164
-397.54379 998.07397 109.93164
-392.17154 998.07397 109.93164
-383.39093 1008.8417 85.170166
-378.06604 1008.8417 85.170166
-372.74115 1008.8417 85.170166
-364.14978 1019.6093 60.40918
-358.87225 1019.6093 60.40918
-353.59479 1019.6093 60.40918
-348.31726 1019.6093 60.40918
-343.03967 1019.6093 60.40918
-337.76212 1019.6093 60.40918
-332.48459 1019.6093 60.40918
-327.20712 1019.6093 60.40918
-321.92957 1019.6093 60.40918
-316.65201 1019.6093 60.40918
-311.37445 1019.6093 60.40918
-306.09692 1019.6093 60.40918
-300.81946 1019.6093 60.40918
-295.5419 1019.6093 60.40918
-177.283 998.07397 109.93164
-171.91087 998.07397 109.93164
-165.07111 1008.8417 85.170166
-159.7462 1008.8417 85.170166
-154.42131 1008.8417 85.170166
-147.7709 1019.6093 60.40918
-142.49345 1019.6093 60.40918
-137.21588 1019.6093 60.40918
-130.79868 1029.9781 36.565186
-125.5667 1029.9781 36.565186
-120.33474 1029.9781 36.565186
-115.10287 1029.9781 36.565186
-109.87091 1029.9781 36.565186
-104.63894 1029.9781 36.565186
-99.406967 1029.9781 36.565186
-93.354446 1040.3469 12.721191
-88.168159 1040.3469 12.721191
-82.280449 1050.3169 -10.205811
-77.137901 1050.3169 -10.205811
-71.995354 1050.3169 -10.205811
-66.852806 1050.3169 -10.205811
-61.710361 1050.3169 -10.205811
-56.567814 1050.3169 -10.205811
-51.42527 1050.3169 -10.205811
-46.282722 1050.3169 -10.205811
-41.140175 1050.3169 -10.205811
-35.690891 1060.287 -33.133057
-30.592182 1060.287 -33.133057
-25.712635 1050.3169 -10.205811
-20.570087 1050.3169 -10.205811
-15.427542 1050.3169 -10.205811
-10.285093 1050.3169 -10.205811
-5.1863799 1040.3469 12.721191
0 1040.3469 12.721191
5.1862807 1040.3469 12.721191
10.37276 1040.3469 12.721191
15.559041 1040.3469 12.721191
20.74552 1040.3469 12.721191
25.712635 1050.3169 -10.205811
30.855083 1050.3169 -10.205811
35.997726 1050.3169 -10.205811
41.140175 1050.3169 -10.205811
46.282822 1050.3169 -10.205811
51.863602 1040.3469 12.721191
57.049881 1040.3469 12.721191
62.236362 1040.3469 12.721191
68.015266 1029.9781 36.565186
73.247337 1029.9781 36.565186
78.479202 1029.9781 36.565186
83.711067 1029.9781 36.565186
88.943138 1029.9781 36.565186
94.175003 1029.9781 36.565186
99.407066 1029.9781 36.565186
104.63894 1029.9781 36.565186
109.8708 1029.9781 36.565186
116.10578 1019.6093 60.40918
121.38322 1019.6093 60.40918
126.66088 1019.6093 60.40918
131.93834 1019.6093 60.40918
137.21579 1019.6093 60.40918
142.49345 1019.6093 60.40918
147.7709 1019.6093 60.40918
153.04855 1019.6093 60.40918
158.326 1019.6093 60.40918
165.071 1008.8417 85.170166
170.396 1008.8417 85.170166
175.72078 1008.8417 85.170166
182.65533 998.07397 109.93164
188.02748 998.07397 109.93164
193.39961 998.07397 109.93164
200.58839 986.90759 135.60986
207.87517 975.74121 161.28784
213.34569 975.74121 161.28784
220.84987 964.1759 187.8833
226.37105 964.1759 187.8833
231.89241 964.1759 187.8833
338.4494 998.07397 109.93164
343.82175 998.07397 109.93164
352.38495 986.90759 135.60986
354.56601 998.07397 109.93164
359.93835 998.07397 109.93164
368.64883 986.90759 135.60986
374.07025 986.90759 135.60986
379.49149 986.90759 135.60986
384.91272 986.90759 135.60986
390.33414 986.90759 135.60986
395.75537 986.90759 135.60986
401.17679 986.90759 135.60986
402.91602 998.07397 109.93164
408.28815 998.07397 109.93164
413.66049 998.07397 109.93164
419.03259 998.07397 109.93164
428.28333 986.90759 135.60986
433.70456 986.90759 135.60986
443.10236 975.74121 161.28784
448.57285 975.74121 161.28784
454.04318 975.74121 161.28784
-408.28824 993.12891 107.83252
-402.91602 993.12891 107.83252
-397.54379 993.12891 107.83252
-392.17154 993.12891 107.83252
-383.39093 1003.9402 83.0896
-378.06604 1003.9402 83.0896
-372.74115 1003.9402 83.0896
-364.14978 1014.7513 58.347168
-358.87225 1014.7513 58.347168
-353.59479 1014.7513 58.347168
-348.31726 1014.7513 58.347168
-343.03967 1014.7513 58.347168
-337.76212 1014.7513 58.347168
-332.48459 1014.7513 58.347168
-327.20712 1014.7513 58.347168
-321.92957 1014.7513 58.347168
-316.65201 1014.7513 58.347168
-311.37445 1014.7513 58.347168
-306.09692 1014.7513 58.347168
-300.81946 1014.7513 58.347168
-295.5419 1014.7513 58.347168
-177.283 993.12891 107.83252
-171.91087 993.12891 107.83252
-165.07111 1003.9402 83.0896
-159.7462 1003.9402 83.0896
-154.42131 1003.9402 83.0896
-147.7709 1014.7513 58.347168
-142.49345 1014.7513 58.347168
-137.21588 1014.7513 58.347168
-131.93834 1014.7513 58.347168
-125.5667 1025.1622 34.520996
-120.33474 1025.1622 34.520996
-115.10287 1025.1622 34.520996
-109.87091 1025.1622 34.520996
-104.63894 1025.1622 34.520996
-99.406967 1025.1622 34.520996
-93.354446 1035.5729 10.69458
-88.168159 1035.5729 10.69458
-82.981789 1035.5729 10.69458
-77.137901 1045.5833 -12.215332
-71.995354 1045.5833 -12.215332
-66.852806 1045.5833 -12.215332
-61.710361 1045.5833 -12.215332
-56.567814 1045.5833 -12.215332
-51.42527 1045.5833 -12.215332
-46.282722 1045.5833 -12.215332
-41.140175 1045.5833 -12.215332
-35.997726 1045.5833 -12.215332
-30.855181 1045.5833 -12.215332
-25.712635 1045.5833 -12.215332
-20.570087 1045.5833 -12.215332
-15.559041 1035.5729 10.69458
-10.37276 1035.5729 10.69458
-5.1863799 1035.5729 10.69458
0 1035.5729 10.69458
5.1862807 1035.5729 10.69458
10.37276 1035.5729 10.69458
15.559041 1035.5729 10.69458
20.74552 1035.5729 10.69458
25.712635 1045.5833 -12.215332
30.855083 1045.5833 -12.215332
35.997726 1045.5833 -12.215332
41.140175 1045.5833 -12.215332
46.282822 1045.5833 -12.215332
51.863602 1035.5729 10.69458
57.049881 1035.5729 10.69458
62.236362 1035.5729 10.69458
68.015266 1025.1622 34.520996
73.247337 1025.1622 34.520996
78.479202 1025.1622 34.520996
83.711067 1025.1622 34.520996
88.943138 1025.1622 34.520996
94.175003 1025.1622 34.520996
100.27322 1014.7513 58.347168
104.63894 1025.1622 34.520996
109.8708 1025.1622 34.520996
115.10287 1025.1622 34.520996
121.38322 1014.7513 58.347168
126.66088 1014.7513 58.347168
131.93834 1014.7513 58.347168
137.21579 1014.7513 58.347168
142.49345 1014.7513 58.347168
147.7709 1014.7513 58.347168
154.42142 1003.9402 83.0896
159.7462 1003.9402 83.0896
165.071 1003.9402 83.0896
170.396 1003.9402 83.0896
177.283 993.12891 107.83252
182.65533 993.12891 107.83252
188.02748 993.12891 107.83252
195.16696 981.91736 133.49146
200.58839 981.91736 133.49146
207.87517 970.70581 159.15039
215.3287 959.09363 185.72607
220.84987 959.09363 185.72607
226.37105 959.09363 185.72607
231.89241 959.09363 185.72607
346.96371 981.91736 133.49146
352.38495 981.91736 133.49146
357.80618 981.91736 133.49146
363.2276 981.91736 133.49146
368.64883 981.91736 133.49146
374.07025 981.91736 133.49146
379.49149 981.91736 133.49146
384.91272 981.91736 133.49146
390.33414 981.91736 133.49146
395.75537 981.91736 133.49146
401.17679 981.91736 133.49146
402.91602 993.12891 107.83252
408.28815 993.12891 107.83252
413.66049 993.12891 107.83252
419.03259 993.12891 107.83252
424.40497 993.12891 107.83252
433.70456 981.91736 133.49146
443.10236 970.70581 159.15039
448.57285 970.70581 159.15039
454.04318 970.70581 159.15039
-404.6904 999.03857 81.009033
-399.36551 999.03857 81.009033
-394.04062 999.03857 81.009033
-388.71573 999.03857 81.009033
-383.39093 999.03857 81.009033
-374.70493 1009.8933 56.285156
-369.42734 1009.8933 56.285156
-364.14978 1009.8933 56.285156
-358.87225 1009.8933 56.285156
-353.59479 1009.8933 56.285156
-348.31726 1009.8933 56.285156
-343.03967 1009.8933 56.285156
-337.76212 1009.8933 56.285156
-332.48459 1009.8933 56.285156
-327.20712 1009.8933 56.285156
-321.92957 1009.8933 56.285156
-316.65201 1009.8933 56.285156
-311.37445 1009.8933 56.285156
-306.09692 1009.8933 56.285156
-300.81946 1009.8933 56.285156
-298.19293 999.03857 81.009033
-287.75708 1020.3461 32.476562
-282.52512 1020.3461 32.476562
-171.91087 988.18372 105.7334
-165.07111 999.03857 81.009033
-159.7462 999.03857 81.009033
-154.42131 999.03857 81.009033
-147.7709 1009.8933 56.285156
-142.49345 1009.8933 56.285156
-137.21588 1009.8933 56.285156
-131.93834 1009.8933 56.285156
-126.66079 1009.8933 56.285156
-121.38322 1009.8933 56.285156
-115.10287 1020.3461 32.476562
-109.87091 1020.3461 32.476562
-104.63894 1020.3461 32.476562
-99.406967 1020.3461 32.476562
-94.175003 1020.3461 32.476562
-88.168159 1030.7987 8.6682129
-82.981789 1030.7987 8.6682129
-77.795403 1030.7987 8.6682129
-71.995354 1040.8495 -14.224609
-66.852806 1040.8495 -14.224609
-61.710361 1040.8495 -14.224609
-56.567814 1040.8495 -14.224609
-51.42527 1040.8495 -14.224609
-46.282722 1040.8495 -14.224609
-41.140175 1040.8495 -14.224609
-35.997726 1040.8495 -14.224609
-30.855181 1040.8495 -14.224609
-25.931801 1030.7987 8.6682129
-20.74542 1030.7987 8.6682129
-15.559041 1030.7987 8.6682129
-10.37276 1030.7987 8.6682129
-5.1863799 1030.7987 8.6682129
0 1030.7987 8.6682129
5.1862807 1030.7987 8.6682129
10.37276 1030.7987 8.6682129
15.559041 1030.7987 8.6682129
20.74552 1030.7987 8.6682129
25.931801 1030.7987 8.6682129
31.118082 1030.7987 8.6682129
36.304562 1030.7987 8.6682129
41.490841 1030.7987 8.6682129
46.677322 1030.7987 8.6682129
51.863602 1030.7987 8.6682129
57.049881 1030.7987 8.6682129
62.236362 1030.7987 8.6682129
68.015266 1020.3461 32.476562
73.247337 1020.3461 32.476562
78.479202 1020.3461 32.476562
83.711067 1020.3461 32.476562
88.943138 1020.3461 32.476562
94.175003 1020.3461 32.476562
100.27322 1009.8933 56.285156
104.63894 1020.3461 32.476562
109.8708 1020.3461 32.476562
115.10287 1020.3461 32.476562
121.38322 1009.8933 56.285156
126.66088 1009.8933 56.285156
131.93834 1009.8933 56.285156
137.21579 1009.8933 56.285156
142.49345 1009.8933 56.285156
149.09642 999.03857 81.009033
154.42142 999.03857 81.009033
159.7462 999.03857 81.009033
165.071 999.03857 81.009033
171.91087 988.18372 105.7334
177.283 988.18372 105.7334
182.65533 988.18372 105.7334
189.74574 976.927 131.37329
195.16696 976.927 131.37329
202.40485 965.67017 157.01294
207.87517 965.67017 157.01294
215.3287 954.01123 183.5686
220.84987 954.01123 183.5686
228.45575 942.35242 210.12427
352.38495 976.927 131.37329
357.80618 976.927 131.37329
363.2276 976.927 131.37329
368.64883 976.927 131.37329
374.07025 976.927 131.37329
379.49149 976.927 131.37329
384.91272 976.927 131.37329
390.33414 976.927 131.37329
395.75537 976.927 131.37329
397.54388 988.18372 105.7334
402.91602 988.18372 105.7334
408.28815 988.18372 105.7334
413.66049 988.18372 105.7334
419.03259 988.18372 105.7334
424.40497 988.18372 105.7334
433.70456 976.927 131.37329
439.12576 976.927 131.37329
448.57285 965.67017 157.01294
454.04318 965.67017 157.01294
-401.09259 1005.0354 54.2229
-395.815 1005.0354 54.2229
-390.53745 1005.0354 54.2229
-385.25992 1005.0354 54.2229
-379.98245 1005.0354 54.2229
-374.70493 1005.0354 54.2229
-369.42734 1005.0354 54.2229
-364.14978 1005.0354 54.2229
-358.87225 1005.0354 54.2229
-353.59479 1005.0354 54.2229
-348.31726 1005.0354 54.2229
-343.03967 1005.0354 54.2229
-337.76212 1005.0354 54.2229
-332.48459 1005.0354 54.2229
-327.20712 1005.0354 54.2229
-321.92957 1005.0354 54.2229
-316.65201 1005.0354 54.2229
-311.37445 1005.0354 54.2229
-308.84262 994.13708 78.928467
-303.51782 994.13708 78.928467
-298.19293 994.13708 78.928467
-287.75708 1015.5302 30.432373
-282.52512 1015.5302 30.432373
-171.91087 983.23865 103.63428
-165.07111 994.13708 78.928467
-159.7462 994.13708 78.928467
-154.42131 994.13708 78.928467
-147.7709 1005.0354 54.2229
-142.49345 1005.0354 54.2229
-137.21588 1005.0354 54.2229
-131.93834 1005.0354 54.2229
-126.66079 1005.0354 54.2229
-121.38322 1005.0354 54.2229
-115.10287 1015.5302 30.432373
-109.87091 1015.5302 30.432373
-104.63894 1015.5302 30.432373
-99.406967 1015.5302 30.432373
-94.175003 1015.5302 30.432373
-88.168159 1026.0248 6.6418457
-82.981789 1026.0248 6.6418457
-77.795403 1026.0248 6.6418457
-71.995354 1036.1158 -16.233887
-66.852806 1036.1158 -16.233887
-61.710361 1036.1158 -16.233887
-56.567814 1036.1158 -16.233887
-51.863602 1026.0248 6.6418457
-46.677223 1026.0248 6.6418457
-41.140175 1036.1158 -16.233887
-35.997726 1036.1158 -16.233887
-31.118181 1026.0248 6.6418457
-25.931801 1026.0248 6.6418457
-20.74542 1026.0248 6.6418457
-15.695801 1015.5302 30.432373
-10.463933 1015.5302 30.432373
-5.2319665 1015.5302 30.432373
0 1015.5302 30.432373
5.2318668 1015.5302 30.432373
10.463933 1015.5302 30.432373
15.695801 1015.5302 30.432373
20.927866 1015.5302 30.432373
25.931801 1026.0248 6.6418457
31.118082 1026.0248 6.6418457
36.304562 1026.0248 6.6418457
41.490841 1026.0248 6.6418457
46.677322 1026.0248 6.6418457
51.863602 1026.0248 6.6418457
57.551338 1015.5302 30.432373
62.783401 1015.5302 30.432373
68.015266 1015.5302 30.432373
73.247337 1015.5302 30.432373
78.479202 1015.5302 30.432373
83.711067 1015.5302 30.432373
88.943138 1015.5302 30.432373
94.175003 1015.5302 30.432373
100.27322 1005.0354 54.2229
104.63894 1015.5302 30.432373
109.8708 1015.5302 30.432373
116.10578 1005.0354 54.2229
121.38322 1005.0354 54.2229
126.66088 1005.0354 54.2229
131.93834 1005.0354 54.2229
137.21579 1005.0354 54.2229
142.49345 1005.0354 54.2229
149.09642 994.13708 78.928467
154.42142 994.13708 78.928467
159.7462 994.13708 78.928467
165.071 994.13708 78.928467
171.91087 983.23865 103.63428
177.283 983.23865 103.63428
182.65533 983.23865 103.63428
189.74574 971.93665 129.25488
195.16696 971.93665 129.25488
202.40485 960.63477 154.87549
207.87517 960.63477 154.87549
215.3287 948.92896 181.41138
220.84987 948.92896 181.41138
226.37105 948.92896 181.41138
357.80618 971.93665 129.25488
363.2276 971.93665 129.25488
368.64883 971.93665 129.25488
374.07025 971.93665 129.25488
379.49149 971.93665 129.25488
384.91272 971.93665 129.25488
386.79941 983.23865 103.63428
392.17154 983.23865 103.63428
397.54388 983.23865 103.63428
402.91602 983.23865 103.63428
408.28815 983.23865 103.63428
413.66049 983.23865 103.63428
419.03259 983.23865 103.63428
424.40497 983.23865 103.63428
433.70456 971.93665 129.25488
439.12576 971.93665 129.25488
448.57285 960.63477 154.87549
454.04318 960.63477 154.87549
-406.37012 1000.1772 52.160889
-401.09259 1000.1772 52.160889
-395.815 1000.1772 52.160889
-390.53745 1000.1772 52.160889
-385.25992 1000.1772 52.160889
-379.98245 1000.1772 52.160889
-374.70493 1000.1772 52.160889
-369.42734 1000.1772 52.160889
-364.14978 1000.1772 52.160889
-358.87225 1000.1772 52.160889
-353.59479 1000.1772 52.160889
-348.31726 1000.1772 52.160889
-343.03967 1000.1772 52.160889
-337.76212 1000.1772 52.160889
-332.48459 1000.1772 52.160889
-327.20712 1000.1772 52.160889
-321.92957 1000.1772 52.160889
-316.65201 1000.1772 52.160889
-311.37445 1000.1772 52.160889
-306.09692 1000.1772 52.160889
-303.51782 989.23547 76.8479
-171.91087 978.29346 101.53516
-165.07111 989.23547 76.8479
-159.7462 989.23547 76.8479
-154.42131 989.23547 76.8479
-147.7709 1000.1772 52.160889
-142.49345 1000.1772 52.160889
-137.21588 1000.1772 52.160889
-131.93834 1000.1772 52.160889
-126.66079 1000.1772 52.160889
-121.38322 1000.1772 52.160889
-115.10287 1010.714 28.387939
-109.87091 1010.714 28.387939
-104.63894 1010.714 28.387939
-99.406967 1010.714 28.387939
-94.175003 1010.714 28.387939
-88.168159 1021.2506 4.6152344
-82.981789 1021.2506 4.6152344
-77.795403 1021.2506 4.6152344
-72.609024 1021.2506 4.6152344
-66.852806 1031.3821 -18.243408
-61.710361 1031.3821 -18.243408
-57.04998 1021.2506 4.6152344
-51.863602 1021.2506 4.6152344
-46.677223 1021.2506 4.6152344
-41.490841 1021.2506 4.6152344
-36.304562 1021.2506 4.6152344
-31.118181 1021.2506 4.6152344
-25.931801 1021.2506 4.6152344
-20.74542 1021.2506 4.6152344
-15.695801 1010.714 28.387939
-10.463933 1010.714 28.387939
-5.2319665 1010.714 28.387939
0 1010.714 28.387939
5.2318668 1010.714 28.387939
10.463933 1010.714 28.387939
15.695801 1010.714 28.387939
20.927866 1010.714 28.387939
26.159735 1010.714 28.387939
31.118082 1021.2506 4.6152344
36.304562 1021.2506 4.6152344
41.490841 1021.2506 4.6152344
46.677322 1021.2506 4.6152344
51.863602 1021.2506 4.6152344
57.551338 1010.714 28.387939
62.783401 1010.714 28.387939
68.015266 1010.714 28.387939
73.247337 1010.714 28.387939
78.479202 1010.714 28.387939
84.44046 1000.1772 52.160889
89.718109 1000.1772 52.160889
94.99556 1000.1772 52.160889
100.27322 1000.1772 52.160889
105.55067 1000.1772 52.160889
110.82812 1000.1772 52.160889
116.10578 1000.1772 52.160889
121.38322 1000.1772 52.160889
126.66088 1000.1772 52.160889
131.93834 1000.1772 52.160889
137.21579 1000.1772 52.160889
142.49345 1000.1772 52.160889
149.09642 989.23547 76.8479
154.42142 989.23547 76.8479
159.7462 989.23547 76.8479
165.071 989.23547 76.8479
171.91087 978.29346 101.53516
177.283 978.29346 101.53516
182.65533 978.29346 101.53516
189.74574 966.94629 127.13672
195.16696 966.94629 127.13672
202.40485 955.59912 152.73804
209.80733 943.84656 179.25391
215.3287 943.84656 179.25391
220.84987 943.84656 179.25391
226.37105 943.84656 179.25391
363.2276 966.94629 127.13672
368.64883 966.94629 127.13672
374.07025 966.94629 127.13672
376.05496 978.29346 101.53516
381.42706 978.29346 101.53516
386.79941 978.29346 101.53516
392.17154 978.29346 101.53516
397.54388 978.29346 101.53516
402.91602 978.29346 101.53516
408.28815 978.29346 101.53516
413.66049 978.29346 101.53516
419.03259 978.29346 101.53516
424.40497 978.29346 101.53516
433.70456 966.94629 127.13672
439.12576 966.94629 127.13672
448.57285 955.59912 152.73804
454.04318 955.59912 152.73804
459.51367 955.59912 152.73804
-401.09259 995.31934 50.098877
-395.815 995.31934 50.098877
-390.53745 995.31934 50.098877
-385.25992 995.31934 50.098877
-379.98245 995.31934 50.098877
-374.70493 995.31934 50.098877
-369.42734 995.31934 50.098877
-364.14978 995.31934 50.098877
-358.87225 995.31934 50.098877
-353.59479 995.31934 50.098877
-348.31726 995.31934 50.098877
-343.03967 995.31934 50.098877
-337.76212 995.31934 50.098877
-332.48459 995.31934 50.098877
-327.20712 995.31934 50.098877
-321.92957 995.31934 50.098877
-316.65201 995.31934 50.098877
-311.37445 995.31934 50.098877
-306.09692 995.31934 50.098877
-171.91087 973.34839 99.436035
-165.07111 984.33398 74.767334
-159.7462 984.33398 74.767334
-154.42131 984.33398 74.767334
-147.7709 995.31934 50.098877
-142.49345 995.31934 50.098877
-137.21588 995.31934 50.098877
-131.93834 995.31934 50.098877
-126.66079 995.31934 50.098877
-121.38322 995.31934 50.098877
-115.10287 1005.8981 26.34375
-109.87091 1005.8981 26.34375
-104.63894 1005.8981 26.34375
-99.406967 1005.8981 26.34375
-94.175003 1005.8981 26.34375
-88.168159 1016.4767 2.5888672
-82.981789 1016.4767 2.5888672
-77.795403 1016.4767 2.5888672
-72.609024 1016.4767 2.5888672
-67.422646 1016.4767 2.5888672
-62.236362 1016.4767 2.5888672
-57.04998 1016.4767 2.5888672
-51.863602 1016.4767 2.5888672
-46.677223 1016.4767 2.5888672
-41.490841 1016.4767 2.5888672
-36.304562 1016.4767 2.5888672
-31.118181 1016.4767 2.5888672
-26.159735 1005.8981 26.34375
-20.927767 1005.8981 26.34375
-15.695801 1005.8981 26.34375
-10.463933 1005.8981 26.34375
-5.2319665 1005.8981 26.34375
0 1005.8981 26.34375
5.2318668 1005.8981 26.34375
10.463933 1005.8981 26.34375
15.695801 1005.8981 26.34375
20.927866 1005.8981 26.34375
26.159735 1005.8981 26.34375
31.391602 1005.8981 26.34375
36.623669 1005.8981 26.34375
41.855534 1005.8981 26.34375
47.087601 1005.8981 26.34375
52.319469 1005.8981 26.34375
57.551338 1005.8981 26.34375
63.330441 995.31934 50.098877
68.607895 995.31934 50.098877
73.885544 995.31934 50.098877
79.163002 995.31934 50.098877
84.44046 995.31934 50.098877
89.718109 995.31934 50.098877
94.99556 995.31934 50.098877
100.27322 995.31934 50.098877
105.55067 995.31934 50.098877
110.82812 995.31934 50.098877
116.10578 995.31934 50.098877
121.38322 995.31934 50.098877
126.66088 995.31934 50.098877
131.93834 995.31934 50.098877
137.21579 995.31934 50.098877
142.49345 995.31934 50.098877
149.09642 984.33398 74.767334
154.42142 984.33398 74.767334
159.7462 984.33398 74.767334
165.071 984.33398 74.767334
171.91087 973.34839 99.436035
177.283 973.34839 99.436035
184.32451 961.95605 125.01855
189.74574 961.95605 125.01855
196.93433 950.56372 150.60059
202.40485 950.56372 150.60059
207.87517 950.56372 150.60059
215.3287 938.7644 177.09668
220.84987 938.7644 177.09668
226.37105 938.7644 177.09668
363.2276 961.95605 125.01855
368.64883 961.95605 125.01855
370.68283 973.34839 99.436035
376.05496 973.34839 99.436035
381.42706 973.34839 99.436035
386.79941 973.34839 99.436035
392.17154 973.34839 99.436035
394.04071 984.33398 74.767334
399.36551 984.33398 74.767334
404.69031 984.33398 74.767334
413.66049 973.34839 99.436035
419.03259 973.34839 99.436035
424.40497 973.34839 99.436035
429.77707 973.34839 99.436035
439.12576 961.95605 125.01855
444.54721 961.95605 125.01855
454.04318 950.56372 150.60059
459.51367 950.56372 150.60059
-401.09259 990.4613 48.036621
-395.815 990.4613 48.036621
-390.53745 990.4613 48.036621
-385.25992 990.4613 48.036621
-379.98245 990.4613 48.036621
-374.70493 990.4613 48.036621
-369.42734 990.4613 48.036621
-364.14978 990.4613 48.036621
-358.87225 990.4613 48.036621
-353.59479 990.4613 48.036621
-348.31726 990.4613 48.036621
-343.03967 990.4613 48.036621
-337.76212 990.4613 48.036621
-332.48459 990.4613 48.036621
-327.20712 990.4613 48.036621
-321.92957 990.4613 48.036621
-316.65201 990.4613 48.036621
-311.37445 990.4613 48.036621
-306.09692 990.4613 48.036621
-171.91087 968.4032 97.336914
-165.07111 979.43225 72.686768
-159.7462 979.43225 72.686768
-154.42131 979.43225 72.686768
-147.7709 990.4613 48.036621
-142.49345 990.4613 48.036621
-137.21588 990.4613 48.036621
-131.93834 990.4613 48.036621
-126.66079 990.4613 48.036621
-121.38322 990.4613 48.036621
-115.10287 1001.082 24.299561
-109.87091 1001.082 24.299561
-104.63894 1001.082 24.299561
-99.406967 1001.082 24.299561
-94.175003 1001.082 24.299561
-88.168159 1011.7025 0.56225586
-82.981789 1011.7025 0.56225586
-77.795403 1011.7025 0.56225586
-72.609024 1011.7025 0.56225586
-67.422646 1011.7025 0.56225586
-62.236362 1011.7025 0.56225586
-57.04998 1011.7025 0.56225586
-51.863602 1011.7025 0.56225586
-46.677223 1011.7025 0.56225586
-41.490841 1011.7025 0.56225586
-36.304562 1011.7025 0.56225586
-31.118181 1011.7025 0.56225586
-26.159735 1001.082 24.299561
-20.927767 1001.082 24.299561
-15.695801 1001.082 24.299561
-10.463933 1001.082 24.299561
-5.2319665 1001.082 24.299561
0 1011.7025 0.56225586
5.1862807 1011.7025 0.56225586
10.463933 1001.082 24.299561
15.695801 1001.082 24.299561
20.927866 1001.082 24.299561
26.159735 1001.082 24.299561
31.391602 1001.082 24.299561
36.623669 1001.082 24.299561
41.855534 1001.082 24.299561
47.497883 990.4613 48.036621
52.319469 1001.082 24.299561
57.551338 1001.082 24.299561
63.330441 990.4613 48.036621
68.607895 990.4613 48.036621
73.885544 990.4613 48.036621
79.163002 990.4613 48.036621
84.44046 990.4613 48.036621
89.718109 990.4613 48.036621
94.99556 990.4613 48.036621
100.27322 990.4613 48.036621
105.55067 990.4613 48.036621
110.82812 990.4613 48.036621
116.10578 990.4613 48.036621
121.38322 990.4613 48.036621
126.66088 990.4613 48.036621
133.12184 979.43225 72.686768
138.44662 979.43225 72.686768
143.77162 979.43225 72.686768
149.09642 979.43225 72.686768
154.42142 979.43225 72.686768
159.7462 979.43225 72.686768
165.071 979.43225 72.686768
171.91087 968.4032 97.336914
177.283 968.4032 97.336914
184.32451 956.96558 122.90015
189.74574 956.96558 122.90015
195.16696 956.96558 122.90015
202.40485 945.52808 148.46313
207.87517 945.52808 148.46313
213.34569 945.52808 148.46313
218.81601 945.52808 148.46313
224.28632 945.52808 148.46313
229.75684 945.52808 148.46313
368.64883 956.96558 122.90015
367.41635 979.43225 72.686768
372.74115 979.43225 72.686768
378.06595 979.43225 72.686768
383.39093 979.43225 72.686768
388.71573 979.43225 72.686768
394.04071 979.43225 72.686768
399.36551 979.43225 72.686768
404.69031 979.43225 72.686768
413.66049 968.4032 97.336914
419.03259 968.4032 97.336914
424.40497 968.4032 97.336914
429.77707 968.4032 97.336914
439.12576 956.96558 122.90015
444.54721 956.96558 122.90015
449.96841 956.96558 122.90015
455.38986 956.96558 122.90015
-401.09259 985.60339 45.974609
-395.815 985.60339 45.974609
-390.53745 985.60339 45.974609
-385.25992 985.60339 45.974609
-379.98245 985.60339 45.974609
-374.70493 985.60339 45.974609
-369.42734 985.60339 45.974609
-364.14978 985.60339 45.974609
-358.87225 985.60339 45.974609
-353.59479 985.60339 45.974609
-348.31726 985.60339 45.974609
-343.03967 985.60339 45.974609
-337.76212 985.60339 45.974609
-332.48459 985.60339 45.974609
-327.20712 985.60339 45.974609
-321.92957 985.60339 45.974609
-316.65201 985.60339 45.974609
-311.37445 985.60339 45.974609
-177.283 963.45813 95.238037
-171.91087 963.45813 95.238037
-166.53865 963.45813 95.238037
-159.7462 974.53076 70.606201
-154.42131 974.53076 70.606201
-147.7709 985.60339 45.974609
-142.49345 985.60339 45.974609
-137.21588 985.60339 45.974609
-131.93834 985.60339 45.974609
-126.66079 985.60339 45.974609
-121.38322 985.60339 45.974609
-115.10287 996.26599 22.255127
-109.87091 996.26599 22.255127
-104.63894 996.26599 22.255127
-99.406967 996.26599 22.255127
-93.354446 1006.9285 -1.4641113
-88.168159 1006.9285 -1.4641113
-82.981789 1006.9285 -1.4641113
-77.795403 1006.9285 -1.4641113
-72.609024 1006.9285 -1.4641113
-67.422646 1006.9285 -1.4641113
-62.236362 1006.9285 -1.4641113
-57.04998 1006.9285 -1.4641113
-51.863602 1006.9285 -1.4641113
-46.677223 1006.9285 -1.4641113
-41.855534 996.26599 22.255127
-36.623669 996.26599 22.255127
-31.391701 996.26599 22.255127
-26.159735 996.26599 22.255127
-20.927767 996.26599 22.255127
-15.695801 996.26599 22.255127
-10.463933 996.26599 22.255127
-5.1863799 1006.9285 -1.4641113
0 1006.9285 -1.4641113
5.1862807 1006.9285 -1.4641113
10.463933 996.26599 22.255127
15.695801 996.26599 22.255127
20.927866 996.26599 22.255127
26.159735 996.26599 22.255127
31.665119 985.60339 45.974609
36.942772 985.60339 45.974609
42.22023 985.60339 45.974609
47.497883 985.60339 45.974609
52.319469 996.26599 22.255127
57.551338 996.26599 22.255127
63.330441 985.60339 45.974609
68.607895 985.60339 45.974609
73.885544 985.60339 45.974609
79.163002 985.60339 45.974609
84.44046 985.60339 45.974609
89.718109 985.60339 45.974609
94.99556 985.60339 45.974609
100.27322 985.60339 45.974609
105.55067 985.60339 45.974609
110.82812 985.60339 45.974609
116.10578 985.60339 45.974609
121.38322 985.60339 45.974609
127.79705 974.53076 70.606201
133.12184 974.53076 70.606201
138.44662 974.53076 70.606201
143.77162 974.53076 70.606201
149.09642 974.53076 70.606201
154.42142 974.53076 70.606201
161.16641 963.45813 95.238037
166.53854 963.45813 95.238037
171.91087 963.45813 95.238037
177.283 963.45813 95.238037
184.32451 951.97534 120.78198
189.74574 951.97534 120.78198
195.16696 951.97534 120.78198
202.40485 940.49268 146.32568
207.87517 940.49268 146.32568
213.34569 940.49268 146.32568
218.81601 940.49268 146.32568
224.28632 940.49268 146.32568
229.75684 940.49268 146.32568
367.41635 974.53076 70.606201
372.74115 974.53076 70.606201
378.06595 974.53076 70.606201
383.39093 974.53076 70.606201
388.71573 974.53076 70.606201
394.04071 974.53076 70.606201
402.91602 963.45813 95.238037
408.28815 963.45813 95.238037
410.01529 974.53076 70.606201
415.34009 974.53076 70.606201
424.40497 963.45813 95.238037
429.77707 963.45813 95.238037
435.1492 963.45813 95.238037
440.52155 963.45813 95.238037
449.96841 951.97534 120.78198
455.38986 951.97534 120.78198
460.8111 951.97534 120.78198
-401.09259 980.74536 43.912354
-395.815 980.74536 43.912354
-390.53745 980.74536 43.912354
-385.25992 980.74536 43.912354
-379.98245 980.74536 43.912354
-374.70493 980.74536 43.912354
-369.42734 980.74536 43.912354
-364.14978 980.74536 43.912354
-358.87225 980.74536 43.912354
-353.59479 980.74536 43.912354
-348.31726 980.74536 43.912354
-343.03967 980.74536 43.912354
-337.76212 980.74536 43.912354
-332.48459 980.74536 43.912354
-327.20712 980.74536 43.912354
-321.92957 980.74536 43.912354
-316.65201 980.74536 43.912354
-177.283 958.51282 93.138916
-171.91087 958.51282 93.138916
-166.53865 958.51282 93.138916
-159.7462 969.62915 68.525635
-153.04846 980.74536 43.912354
-147.7709 980.74536 43.912354
-142.49345 980.74536 43.912354
-137.21588 980.74536 43.912354
-131.93834 980.74536 43.912354
-126.66079 980.74536 43.912354
-121.38322 980.74536 43.912354
-115.10287 991.44995 20.210938
-109.87091 991.44995 20.210938
-104.63894 991.44995 20.210938
-99.406967 991.44995 20.210938
-93.354446 1002.1544 -3.4907227
-88.168159 1002.1544 -3.4907227
-82.981789 1002.1544 -3.4907227
-77.795403 1002.1544 -3.4907227
-72.609024 1002.1544 -3.4907227
-67.422646 1002.1544 -3.4907227
-62.783401 991.44995 20.210938
-57.551434 991.44995 20.210938
-52.319469 991.44995 20.210938
-47.087502 991.44995 20.210938
-41.855534 991.44995 20.210938
-36.623669 991.44995 20.210938
-31.391701 991.44995 20.210938
-26.159735 991.44995 20.210938
-20.927767 991.44995 20.210938
-15.695801 991.44995 20.210938
-10.463933 991.44995 20.210938
-5.1863799 1002.1544 -3.4907227
0 1002.1544 -3.4907227
5.1862807 1002.1544 -3.4907227
10.463933 991.44995 20.210938
15.695801 991.44995 20.210938
20.927866 991.44995 20.210938
26.159735 991.44995 20.210938
31.391602 991.44995 20.210938
36.942772 980.74536 43.912354
42.22023 980.74536 43.912354
47.497883 980.74536 43.912354
52.775333 980.74536 43.912354
58.052788 980.74536 43.912354
63.330441 980.74536 43.912354
68.607895 980.74536 43.912354
73.885544 980.74536 43.912354
79.163002 980.74536 43.912354
84.44046 980.74536 43.912354
89.718109 980.74536 43.912354
94.99556 980.74536 43.912354
100.27322 980.74536 43.912354
105.55067 980.74536 43.912354
110.82812 980.74536 43.912354
117.14725 969.62915 68.525635
122.47205 969.62915 68.525635
127.79705 969.62915 68.525635
133.12184 969.62915 68.525635
138.44662 969.62915 68.525635
143.77162 969.62915 68.525635
149.09642 969.62915 68.525635
154.42142 969.62915 68.525635
159.7462 969.62915 68.525635
166.53854 958.51282 93.138916
170.396 969.62915 68.525635
175.72078 969.62915 68.525635
184.32451 946.98499 118.66357
189.74574 946.98499 118.66357
195.16696 946.98499 118.66357
202.40485 935.45703 144.18823
207.87517 935.45703 144.18823
213.34569 935.45703 144.18823
218.81601 935.45703 144.18823
226.37105 923.51733 170.62476
231.89241 923.51733 170.62476
378.06595 969.62915 68.525635
383.39093 969.62915 68.525635
388.71573 969.62915 68.525635
394.04071 969.62915 68.525635
402.91602 958.51282 93.138916
408.28815 958.51282 93.138916
410.01529 969.62915 68.525635
415.34009 969.62915 68.525635
424.40497 958.51282 93.138916
429.77707 958.51282 93.138916
435.1492 958.51282 93.138916
440.52155 958.51282 93.138916
449.96841 946.98499 118.66357
455.38986 946.98499 118.66357
460.8111 946.98499 118.66357
-401.09259 975.88745 41.850342
-395.815 975.88745 41.850342
-390.53745 975.88745 41.850342
-385.25992 975.88745 41.850342
-379.98245 975.88745 41.850342
-374.70493 975.88745 41.850342
-369.42734 975.88745 41.850342
-364.14978 975.88745 41.850342
-358.87225 975.88745 41.850342
-353.59479 975.88745 41.850342
-348.31726 975.88745 41.850342
-343.03967 975.88745 41.850342
-337.76212 975.88745 41.850342
-332.48459 975.88745 41.850342
-327.20712 975.88745 41.850342
-321.92957 975.88745 41.850342
-316.65201 975.88745 41.850342
-314.16751 964.72766 66.445068
-184.32442 941.99463 116.54541
-178.90309 941.99463 116.54541
-173.48186 941.99463 116.54541
-166.53865 953.56775 91.039795
-159.7462 964.72766 66.445068
-153.04846 975.88745 41.850342
-147.7709 975.88745 41.850342
-142.49345 975.88745 41.850342
-137.21588 975.88745 41.850342
-131.93834 975.88745 41.850342
-126.66079 975.88745 41.850342
-121.38322 975.88745 41.850342
-115.10287 986.63391 18.166748
-109.87091 986.63391 18.166748
-104.63894 986.63391 18.166748
-98.540825 997.38037 -5.5170898
-93.354446 997.38037 -5.5170898
-88.168159 997.38037 -5.5170898
-82.981789 997.38037 -5.5170898
-77.795403 997.38037 -5.5170898
-72.609024 997.38037 -5.5170898
-67.422646 997.38037 -5.5170898
-62.783401 986.63391 18.166748
-57.551434 986.63391 18.166748
-52.319469 986.63391 18.166748
-47.087502 986.63391 18.166748
-41.855534 986.63391 18.166748
-36.623669 986.63391 18.166748
-31.391701 986.63391 18.166748
-26.159735 986.63391 18.166748
-20.927767 986.63391 18.166748
-15.695801 986.63391 18.166748
-10.463933 986.63391 18.166748
-5.1863799 997.38037 -5.5170898
0 997.38037 -5.5170898
5.1862807 997.38037 -5.5170898
10.37276 997.38037 -5.5170898
15.559041 997.38037 -5.5170898
20.927866 986.63391 18.166748
26.159735 986.63391 18.166748
31.391602 986.63391 18.166748
36.942772 975.88745 41.850342
42.22023 975.88745 41.850342
47.497883 975.88745 41.850342
52.775333 975.88745 41.850342
58.052788 975.88745 41.850342
63.330441 975.88745 41.850342
68.607895 975.88745 41.850342
73.885544 975.88745 41.850342
79.163002 975.88745 41.850342
84.44046 975.88745 41.850342
89.718109 975.88745 41.850342
94.99556 975.88745 41.850342
100.27322 975.88745 41.850342
106.49747 964.72766 66.445068
111.82227 964.72766 66.445068
117.14725 964.72766 66.445068
122.47205 964.72766 66.445068
127.79705 964.72766 66.445068
133.12184 964.72766 66.445068
138.44662 964.72766 66.445068
143.77162 964.72766 66.445068
149.09642 964.72766 66.445068
154.42142 964.72766 66.445068
159.7462 964.72766 66.445068
165.071 964.72766 66.445068
170.396 964.72766 66.445068
175.72078 964.72766 66.445068
181.04578 964.72766 66.445068
188.02748 953.56775 91.039795
195.16696 941.99463 116.54541
202.40485 930.42163 142.05078
207.87517 930.42163 142.05078
213.34569 930.42163 142.05078
218.81601 930.42163 142.05078
224.28632 930.42163 142.05078
229.75684 930.42163 142.05078
381.42706 953.56775 91.039795
386.79941 953.56775 91.039795
392.17154 953.56775 91.039795
397.54388 953.56775 91.039795
402.91602 953.56775 91.039795
408.28815 953.56775 91.039795
413.66049 953.56775 91.039795
419.03259 953.56775 91.039795
424.40497 953.56775 91.039795
429.77707 953.56775 91.039795
435.1492 953.56775 91.039795
440.52155 953.56775 91.039795
445.89368 953.56775 91.039795
451.26602 953.56775 91.039795
-401.09259 971.02942 39.78833
-395.815 971.02942 39.78833
-390.53745 971.02942 39.78833
-385.25992 971.02942 39.78833
-379.98245 971.02942 39.78833
-374.70493 971.02942 39.78833
-369.42734 971.02942 39.78833
-364.14978 971.02942 39.78833
-358.87225 971.02942 39.78833
-353.59479 971.02942 39.78833
-348.31726 971.02942 39.78833
-343.03967 971.02942 39.78833
-337.76212 971.02942 39.78833
-332.48459 971.02942 39.78833
-327.20712 971.02942 39.78833
-321.92957 971.02942 39.78833
-316.65201 971.02942 39.78833
-314.16751 959.82605 64.364258
-184.32442 937.00427 114.427
-178.90309 937.00427 114.427
-173.48186 937.00427 114.427
-166.53865 948.62256 88.940674
-159.7462 959.82605 64.364258
-153.04846 971.02942 39.78833
-147.7709 971.02942 39.78833
-142.49345 971.02942 39.78833
-137.21588 971.02942 39.78833
-131.93834 971.02942 39.78833
-126.66079 971.02942 39.78833
-121.38322 971.02942 39.78833
-115.10287 981.81787 16.122314
-109.87091 981.81787 16.122314
-104.63894 981.81787 16.122314
-98.540825 992.6062 -7.543457
-93.354446 992.6062 -7.543457
-88.168159 992.6062 -7.543457
-82.981789 992.6062 -7.543457
-77.795403 992.6062 -7.543457
-72.609024 992.6062 -7.543457
-67.422646 992.6062 -7.543457
-62.783401 981.81787 16.122314
-57.551434 981.81787 16.122314
-52.319469 981.81787 16.122314
-47.087502 981.81787 16.122314
-41.855534 981.81787 16.122314
-36.623669 981.81787 16.122314
-31.391701 981.81787 16.122314
-26.387667 971.02942 39.78833
-20.927767 981.81787 16.122314
-15.695801 981.81787 16.122314
-10.463933 981.81787 16.122314
-5.1863799 992.6062 -7.543457
0 992.6062 -7.543457
5.1862807 992.6062 -7.543457
10.37276 992.6062 -7.543457
15.559041 992.6062 -7.543457
20.927866 981.81787 16.122314
26.159735 981.81787 16.122314
31.391602 981.81787 16.122314
36.942772 971.02942 39.78833
42.22023 971.02942 39.78833
47.497883 971.02942 39.78833
52.775333 971.02942 39.78833
58.052788 971.02942 39.78833
63.330441 971.02942 39.78833
68.607895 971.02942 39.78833
73.885544 971.02942 39.78833
79.163002 971.02942 39.78833
84.44046 971.02942 39.78833
89.718109 971.02942 39.78833
94.99556 971.02942 39.78833
100.27322 971.02942 39.78833
105.55067 971.02942 39.78833
111.82227 959.82605 64.364258
117.14725 959.82605 64.364258
122.47205 959.82605 64.364258
127.79705 959.82605 64.364258
133.12184 959.82605 64.364258
138.44662 959.82605 64.364258
143.77162 959.82605 64.364258
149.09642 959.82605 64.364258
154.42142 959.82605 64.364258
159.7462 959.82605 64.364258
165.071 959.82605 64.364258
170.396 959.82605 64.364258
175.72078 959.82605 64.364258
181.04578 959.82605 64.364258
188.02748 948.62256 88.940674
195.16696 937.00427 114.427
202.40485 925.38599 139.91333
207.87517 925.38599 139.91333
213.34569 925.38599 139.91333
218.81601 925.38599 139.91333
224.28632 925.38599 139.91333
231.89241 913.35266 166.31006
390.33414 937.00427 114.427
395.75537 937.00427 114.427
401.17679 937.00427 114.427
402.91602 948.62256 88.940674
408.28815 948.62256 88.940674
413.66049 948.62256 88.940674
419.03259 948.62256 88.940674
424.40497 948.62256 88.940674
429.77707 948.62256 88.940674
435.1492 948.62256 88.940674
440.52155 948.62256 88.940674
445.89368 948.62256 88.940674
451.26602 948.62256 88.940674
-395.815 966.17126 37.726074
-390.53745 966.17126 37.726074
-385.25992 966.17126 37.726074
-379.98245 966.17126 37.726074
-374.70493 966.17126 37.726074
-369.42734 966.17126 37.726074
-364.14978 966.17126 37.726074
-358.87225 966.17126 37.726074
-353.59479 966.17126 37.726074
-348.31726 966.17126 37.726074
-343.03967 966.17126 37.726074
-340.79187 954.92444 62.283691
-335.46698 954.92444 62.283691
-330.14221 954.92444 62.283691
-324.81729 954.92444 62.283691
-319.4924 954.92444 62.283691
-189.74574 932.01392 112.30884
-184.32442 932.01392 112.30884
-178.90309 932.01392 112.30884
-171.91087 943.67737 86.841553
-166.53865 943.67737 86.841553
-159.7462 954.92444 62.283691
-154.42131 954.92444 62.283691
-147.7709 966.17126 37.726074
-142.49345 966.17126 37.726074
-137.21588 966.17126 37.726074
-131.93834 966.17126 37.726074
-126.66079 966.17126 37.726074
-121.38322 966.17126 37.726074
-115.10287 977.00171 14.078125
-109.87091 977.00171 14.078125
-104.63894 977.00171 14.078125
-99.406967 977.00171 14.078125
-94.175003 977.00171 14.078125
-88.943138 977.00171 14.078125
-83.711174 977.00171 14.078125
-78.479202 977.00171 14.078125
-72.609024 987.83215 -9.5700684
-67.422646 987.83215 -9.5700684
-62.783401 977.00171 14.078125
-57.551434 977.00171 14.078125
-52.319469 977.00171 14.078125
-47.087502 977.00171 14.078125
-41.855534 977.00171 14.078125
-36.623669 977.00171 14.078125
-31.391701 977.00171 14.078125
-26.387667 966.17126 37.726074
-20.927767 977.00171 14.078125
-15.695801 977.00171 14.078125
-10.463933 977.00171 14.078125
-5.2319665 977.00171 14.078125
0 977.00171 14.078125
5.2318668 977.00171 14.078125
10.37276 987.83215 -9.5700684
15.559041 987.83215 -9.5700684
20.927866 977.00171 14.078125
26.159735 977.00171 14.078125
31.391602 977.00171 14.078125
36.942772 966.17126 37.726074
42.22023 966.17126 37.726074
47.497883 966.17126 37.726074
52.775333 966.17126 37.726074
58.052788 966.17126 37.726074
63.330441 966.17126 37.726074
68.607895 966.17126 37.726074
73.885544 966.17126 37.726074
79.163002 966.17126 37.726074
84.44046 966.17126 37.726074
89.718109 966.17126 37.726074
94.99556 966.17126 37.726074
100.27322 966.17126 37.726074
105.55067 966.17126 37.726074
111.82227 954.92444 62.283691
117.14725 954.92444 62.283691
122.47205 954.92444 62.283691
127.79705 954.92444 62.283691
133.12184 954.92444 62.283691
138.44662 954.92444 62.283691
143.77162 954.92444 62.283691
150.42194 943.67737 86.841553
154.42142 954.92444 62.283691
159.7462 954.92444 62.283691
165.071 954.92444 62.283691
170.396 954.92444 62.283691
175.72078 954.92444 62.283691
181.04578 954.92444 62.283691
188.02748 943.67737 86.841553
195.16696 932.01392 112.30884
202.40485 920.35034 137.77588
207.87517 920.35034 137.77588
213.34569 920.35034 137.77588
218.81601 920.35034 137.77588
224.28632 920.35034 137.77588
231.89241 908.27026 164.15283
237.41357 908.27026 164.15283
390.33414 932.01392 112.30884
395.75537 932.01392 112.30884
401.17679 932.01392 112.30884
402.91602 943.67737 86.841553
408.28815 943.67737 86.841553
413.66049 943.67737 86.841553
419.03259 943.67737 86.841553
424.40497 943.67737 86.841553
429.77707 943.67737 86.841553
435.1492 943.67737 86.841553
440.52155 943.67737 86.841553
445.89368 943.67737 86.841553
451.26602 943.67737 86.841553
-395.815 961.31335 35.664062
-390.53745 961.31335 35.664062
-385.25992 961.31335 35.664062
-379.98245 961.31335 35.664062
-374.70493 961.31335 35.664062
-369.42734 961.31335 35.664062
-364.14978 961.31335 35.664062
-362.09137 950.02295 60.203125
-356.76657 950.02295 60.203125
-351.44168 950.02295 60.203125
-346.11679 950.02295 60.203125
-343.82166 938.7323 84.742432
-335.46698 950.02295 60.203125
-330.14221 950.02295 60.203125
-324.81729 950.02295 60.203125
-319.4924 950.02295 60.203125
-189.74574 927.02356 110.19043
-184.32442 927.02356 110.19043
-178.90309 927.02356 110.19043
-171.91087 938.7323 84.742432
-166.53865 938.7323 84.742432
-161.16641 938.7323 84.742432
-154.42131 950.02295 60.203125
-147.7709 961.31335 35.664062
-142.49345 961.31335 35.664062
-137.21588 961.31335 35.664062
-131.93834 961.31335 35.664062
-126.66079 961.31335 35.664062
-121.38322 961.31335 35.664062
-116.10578 961.31335 35.664062
-110.82822 961.31335 35.664062
-104.63894 972.18579 12.033691
-99.406967 972.18579 12.033691
-94.175003 972.18579 12.033691
-88.943138 972.18579 12.033691
-83.711174 972.18579 12.033691
-78.479202 972.18579 12.033691
-72.609024 983.05811 -11.596436
-67.422646 983.05811 -11.596436
-62.783401 972.18579 12.033691
-57.551434 972.18579 12.033691
-52.319469 972.18579 12.033691
-47.087502 972.18579 12.033691
-41.855534 972.18579 12.033691
-36.623669 972.18579 12.033691
-31.391701 972.18579 12.033691
-26.387667 961.31335 35.664062
-20.927767 972.18579 12.033691
-15.695801 972.18579 12.033691
-10.463933 972.18579 12.033691
-5.2319665 972.18579 12.033691
0 972.18579 12.033691
5.2318668 972.18579 12.033691
10.463933 972.18579 12.033691
15.695801 972.18579 12.033691
20.927866 972.18579 12.033691
26.159735 972.18579 12.033691
31.665119 961.31335 35.664062
36.942772 961.31335 35.664062
42.22023 961.31335 35.664062
47.497883 961.31335 35.664062
52.775333 961.31335 35.664062
58.052788 961.31335 35.664062
63.330441 961.31335 35.664062
68.607895 961.31335 35.664062
73.885544 961.31335 35.664062
79.163002 961.31335 35.664062
84.44046 961.31335 35.664062
89.718109 961.31335 35.664062
94.99556 961.31335 35.664062
101.17268 950.02295 60.203125
106.49747 950.02295 60.203125
111.82227 950.02295 60.203125
117.14725 950.02295 60.203125
122.47205 950.02295 60.203125
127.79705 950.02295 60.203125
133.12184 950.02295 60.203125
138.44662 950.02295 60.203125
143.77162 950.02295 60.203125
150.42194 938.7323 84.742432
155.79427 938.7323 84.742432
159.7462 950.02295 60.203125
165.071 950.02295 60.203125
170.396 950.02295 60.203125
177.283 938.7323 84.742432
182.65533 938.7323 84.742432
189.74574 927.02356 110.19043
195.16696 927.02356 110.19043
202.40485 915.31494 135.63843
207.87517 915.31494 135.63843
213.34569 915.31494 135.63843
218.81601 915.31494 135.63843
224.28632 915.31494 135.63843
231.89241 903.18799 161.99536
237.41357 903.18799 161.99536
402.91602 938.7323 84.742432
408.28815 938.7323 84.742432
413.66049 938.7323 84.742432
419.03259 938.7323 84.742432
424.40497 938.7323 84.742432
429.77707 938.7323 84.742432
435.1492 938.7323 84.742432
440.52155 938.7323 84.742432
445.89368 938.7323 84.742432
451.26602 938.7323 84.742432
456.63815 938.7323 84.742432
-395.815 956.45532 33.602051
-390.53745 956.45532 33.602051
-385.25992 956.45532 33.602051
-379.98245 956.45532 33.602051
-374.70493 956.45532 33.602051
-369.42734 956.45532 33.602051
-364.14978 956.45532 33.602051
-358.87225 956.45532 33.602051
-356.76657 945.12122 58.122559
-351.44168 945.12122 58.122559
-346.11679 945.12122 58.122559
-343.82166 933.78711 82.643311
-335.46698 945.12122 58.122559
-330.14221 945.12122 58.122559
-324.81729 945.12122 58.122559
-189.74574 922.0332 108.07227
-184.32442 922.0332 108.07227
-178.90309 922.0332 108.07227
-171.91087 933.78711 82.643311
-166.53865 933.78711 82.643311
-161.16641 933.78711 82.643311
-153.04846 956.45532 33.602051
-147.7709 956.45532 33.602051
-142.49345 956.45532 33.602051
-137.21588 956.45532 33.602051
-131.93834 956.45532 33.602051
-126.66079 956.45532 33.602051
-121.38322 956.45532 33.602051
-116.10578 956.45532 33.602051
-110.82822 956.45532 33.602051
-104.63894 967.36975 9.989502
-99.406967 967.36975 9.989502
-94.175003 967.36975 9.989502
-88.943138 967.36975 9.989502
-83.711174 967.36975 9.989502
-78.479202 967.36975 9.989502
-73.247231 967.36975 9.989502
-68.015266 967.36975 9.989502
-62.783401 967.36975 9.989502
-57.551434 967.36975 9.989502
-52.319469 967.36975 9.989502
-47.087502 967.36975 9.989502
-41.855534 967.36975 9.989502
-36.623669 967.36975 9.989502
-31.391701 967.36975 9.989502
-26.387667 956.45532 33.602051
-20.927767 967.36975 9.989502
-15.695801 967.36975 9.989502
-10.463933 967.36975 9.989502
-5.2319665 967.36975 9.989502
0 967.36975 9.989502
5.2318668 967.36975 9.989502
10.463933 967.36975 9.989502
15.695801 967.36975 9.989502
20.927866 967.36975 9.989502
26.387667 956.45532 33.602051
31.665119 956.45532 33.602051
36.942772 956.45532 33.602051
42.22023 956.45532 33.602051
