ply
format ascii 1.0
comment PCL generated
element vertex 1562
property float x
property float y
property float z
element camera 0
property float view_px
property float view_py
property float view_pz
property float x_axisx
property float x_axisy
property float x_axisz
property float y_axisx
property float y_axisy
property float y_axisz
property float z_axisx
property float z_axisy
property float z_axisz
property float focal
property float scalex
property float scaley
property float centerx
property float centery
property int viewportx
property int viewporty
property float k1
property float k2
end_header
242.63324 1261.031 24.918701
247.68822 1261.031 24.918701
-43.763157 1177.1625 246.78613
-37.949188 1186.5212 220.34082
-32.527863 1186.5212 220.34082
-26.624367 1204.9045 168.39404
-21.299473 1204.9045 168.39404
-15.83256 1213.9291 142.89307
-10.555108 1213.9291 142.89307
-5.2319665 1222.6194 118.33667
0 1222.6194 118.33667
5.1424484 1239.6658 70.167969
10.285093 1239.6658 70.167969
15.296041 1248.022 46.555664
20.394852 1248.022 46.555664
25.493467 1248.022 46.555664
30.592083 1248.022 46.555664
35.38406 1256.3779 22.943604
40.438843 1256.3779 22.943604
45.493816 1256.3779 22.943604
50.1278 1264.3997 0.27612305
55.140507 1264.3997 0.27612305
60.1534 1264.3997 0.27612305
64.619064 1272.4216 -22.391357
69.589882 1272.4216 -22.391357
74.560501 1272.4216 -22.391357
78.885902 1280.1091 -44.114502
83.816391 1280.1091 -44.114502
88.746681 1280.1091 -44.114502
93.67717 1280.1091 -44.114502
98.607468 1280.1091 -44.114502
102.6909 1287.7968 -65.837646
107.58107 1287.7968 -65.837646
112.47104 1287.7968 -65.837646
117.36121 1287.7968 -65.837646
122.25117 1287.7968 -65.837646
127.14114 1287.7968 -65.837646
132.03131 1287.7968 -65.837646
136.92126 1287.7968 -65.837646
141.81143 1287.7968 -65.837646
146.7014 1287.7968 -65.837646
151.59137 1287.7968 -65.837646
156.48154 1287.7968 -65.837646
161.37152 1287.7968 -65.837646
166.26167 1287.7968 -65.837646
172.56308 1280.1091 -44.114502
177.49336 1280.1091 -44.114502
182.42386 1280.1091 -44.114502
187.35416 1280.1091 -44.114502
192.28465 1280.1091 -44.114502
198.828 1272.4216 -22.391357
205.52391 1264.3997 0.27612305
210.5368 1264.3997 0.27612305
215.54951 1264.3997 0.27612305
222.41393 1256.3779 22.943604
227.4687 1256.3779 22.943604
232.5235 1256.3779 22.943604
237.57848 1256.3779 22.943604
242.63324 1256.3779 22.943604
247.68822 1256.3779 22.943604
252.74301 1256.3779 22.943604
-43.763157 1172.127 244.64868
-38.292843 1172.127 244.64868
-32.527863 1181.5309 218.22241
-26.624367 1200.0031 166.31348
-21.110115 1209.071 140.83105
-15.83256 1209.071 140.83105
-10.463933 1217.8035 116.29224
-5.2319665 1217.8035 116.29224
0 1217.8035 116.29224
5.1424484 1234.9321 68.158447
10.285093 1234.9321 68.158447
15.296041 1243.3286 44.563477
20.394852 1243.3286 44.563477
25.493467 1243.3286 44.563477
30.329084 1251.725 20.968506
35.38406 1251.725 20.968506
40.438843 1251.725 20.968506
45.493816 1251.725 20.968506
50.548603 1251.725 20.968506
55.140507 1259.7854 -1.6826172
60.1534 1259.7854 -1.6826172
64.619064 1267.8459 -24.333496
69.589882 1267.8459 -24.333496
74.560501 1267.8459 -24.333496
78.885902 1275.5708 -46.041016
83.816391 1275.5708 -46.041016
88.746681 1275.5708 -46.041016
93.67717 1275.5708 -46.041016
98.607468 1275.5708 -46.041016
102.6909 1283.2954 -67.748291
107.58107 1283.2954 -67.748291
112.47104 1283.2954 -67.748291
117.36121 1283.2954 -67.748291
122.25117 1283.2954 -67.748291
127.14114 1283.2954 -67.748291
132.03131 1283.2954 -67.748291
136.92126 1283.2954 -67.748291
141.81143 1283.2954 -67.748291
146.7014 1283.2954 -67.748291
151.59137 1283.2954 -67.748291
156.48154 1283.2954 -67.748291
161.37152 1283.2954 -67.748291
166.26167 1283.2954 -67.748291
172.56308 1275.5708 -46.041016
177.49336 1275.5708 -46.041016
182.42386 1275.5708 -46.041016
187.35416 1275.5708 -46.041016
192.28465 1275.5708 -46.041016
198.828 1267.8459 -24.333496
205.52391 1259.7854 -1.6826172
210.5368 1259.7854 -1.6826172
215.54951 1259.7854 -1.6826172
222.41393 1251.725 20.968506
227.4687 1251.725 20.968506
232.5235 1251.725 20.968506
237.57848 1251.725 20.968506
242.63324 1251.725 20.968506
247.68822 1251.725 20.968506
252.74301 1251.725 20.968506
-43.763157 1167.0914 242.51123
-38.292843 1167.0914 242.51123
-32.527863 1176.5405 216.10425
-26.624367 1195.1014 164.23291
-21.110115 1204.2131 138.7688
-15.83256 1204.2131 138.7688
-10.463933 1212.9874 114.24805
-5.2319665 1212.9874 114.24805
0 1221.7616 89.727051
5.1424484 1230.1984 66.14917
10.197426 1238.6353 42.571289
15.296041 1238.6353 42.571289
20.394852 1238.6353 42.571289
25.274302 1247.072 18.993408
30.329084 1247.072 18.993408
35.38406 1247.072 18.993408
40.438843 1247.072 18.993408
45.115097 1255.1711 -3.6411133
50.1278 1255.1711 -3.6411133
55.140507 1255.1711 -3.6411133
60.1534 1255.1711 -3.6411133
64.619064 1263.2705 -26.275879
69.589882 1263.2705 -26.275879
74.560501 1263.2705 -26.275879
79.531128 1263.2705 -26.275879
83.816391 1271.0322 -47.967529
88.746681 1271.0322 -47.967529
93.67717 1271.0322 -47.967529
98.607468 1271.0322 -47.967529
102.6909 1278.7942 -69.658936
107.58107 1278.7942 -69.658936
112.47104 1278.7942 -69.658936
117.36121 1278.7942 -69.658936
122.25117 1278.7942 -69.658936
127.14114 1278.7942 -69.658936
132.03131 1278.7942 -69.658936
136.92126 1278.7942 -69.658936
141.81143 1278.7942 -69.658936
146.7014 1278.7942 -69.658936
151.59137 1278.7942 -69.658936
156.48154 1278.7942 -69.658936
161.37152 1278.7942 -69.658936
167.63278 1271.0322 -47.967529
172.56308 1271.0322 -47.967529
177.49336 1271.0322 -47.967529
182.42386 1271.0322 -47.967529
187.35416 1271.0322 -47.967529
192.28465 1271.0322 -47.967529
198.828 1263.2705 -26.275879
205.52391 1255.1711 -3.6411133
210.5368 1255.1711 -3.6411133
215.54951 1255.1711 -3.6411133
222.41393 1247.072 18.993408
227.4687 1247.072 18.993408
232.5235 1247.072 18.993408
237.57848 1247.072 18.993408
242.63324 1247.072 18.993408
247.68822 1247.072 18.993408
252.74301 1247.072 18.993408
-43.763157 1162.0559 240.37378
-38.292843 1162.0559 240.37378
-32.527863 1171.5502 213.98584
-26.624367 1190.2 162.15234
-21.110115 1199.3551 136.70679
-15.695801 1208.1714 112.20361
-10.463933 1208.1714 112.20361
-5.2319665 1208.1714 112.20361
0 1216.9875 87.700684
5.1424484 1225.4646 64.139893
10.197426 1233.9418 40.579102
15.296041 1233.9418 40.579102
20.219517 1242.4189 17.018311
25.274302 1242.4189 17.018311
30.329084 1242.4189 17.018311
35.38406 1242.4189 17.018311
40.438843 1242.4189 17.018311
45.115097 1250.5569 -5.5998535
50.1278 1250.5569 -5.5998535
55.140507 1250.5569 -5.5998535
60.1534 1250.5569 -5.5998535
64.619064 1258.6949 -28.218018
69.589882 1258.6949 -28.218018
74.560501 1258.6949 -28.218018
79.531128 1258.6949 -28.218018
83.816391 1266.4939 -49.893799
88.746681 1266.4939 -49.893799
93.67717 1266.4939 -49.893799
97.800934 1274.2928 -71.569824
102.6909 1274.2928 -71.569824
107.58107 1274.2928 -71.569824
112.47104 1274.2928 -71.569824
117.36121 1274.2928 -71.569824
122.25117 1274.2928 -71.569824
127.14114 1274.2928 -71.569824
132.03131 1274.2928 -71.569824
136.92126 1274.2928 -71.569824
141.81143 1274.2928 -71.569824
146.7014 1274.2928 -71.569824
151.59137 1274.2928 -71.569824
156.48154 1274.2928 -71.569824
162.70229 1266.4939 -49.893799
167.63278 1266.4939 -49.893799
172.56308 1266.4939 -49.893799
177.49336 1266.4939 -49.893799
182.42386 1266.4939 -49.893799
187.35416 1266.4939 -49.893799
192.28465 1266.4939 -49.893799
198.828 1258.6949 -28.218018
205.52391 1250.5569 -5.5998535
210.5368 1250.5569 -5.5998535
217.35895 1242.4189 17.018311
222.41393 1242.4189 17.018311
227.4687 1242.4189 17.018311
232.5235 1242.4189 17.018311
237.57848 1242.4189 17.018311
242.63324 1242.4189 17.018311
247.68822 1242.4189 17.018311
252.74301 1242.4189 17.018311
-43.763157 1157.0204 238.23633
-37.949188 1166.5599 211.86768
-32.233299 1176.0994 185.49878
-26.387667 1194.4971 134.64478
-21.110115 1194.4971 134.64478
-15.695801 1203.3553 110.15942
-10.463933 1203.3553 110.15942
-5.1863799 1212.2134 85.674072
0 1212.2134 85.674072
5.1424484 1220.731 62.130615
10.197426 1229.2484 38.586914
15.296041 1229.2484 38.586914
20.219517 1237.7659 15.043213
25.274302 1237.7659 15.043213
30.329084 1237.7659 15.043213
35.38406 1237.7659 15.043213
40.438843 1237.7659 15.043213
45.493816 1237.7659 15.043213
50.548603 1237.7659 15.043213
55.140507 1245.9426 -7.5585938
60.1534 1245.9426 -7.5585938
65.1661 1245.9426 -7.5585938
69.589882 1254.1194 -30.160156
74.560501 1254.1194 -30.160156
79.531128 1254.1194 -30.160156
83.816391 1261.9554 -51.820312
88.746681 1261.9554 -51.820312
93.67717 1261.9554 -51.820312
97.800934 1269.7915 -73.480469
102.6909 1269.7915 -73.480469
107.58107 1269.7915 -73.480469
112.47104 1269.7915 -73.480469
117.36121 1269.7915 -73.480469
122.25117 1269.7915 -73.480469
127.14114 1269.7915 -73.480469
132.03131 1269.7915 -73.480469
136.92126 1269.7915 -73.480469
141.81143 1269.7915 -73.480469
146.7014 1269.7915 -73.480469
151.59137 1269.7915 -73.480469
157.77199 1261.9554 -51.820312
162.70229 1261.9554 -51.820312
167.63278 1261.9554 -51.820312
172.56308 1261.9554 -51.820312
177.49336 1261.9554 -51.820312
182.42386 1261.9554 -51.820312
187.35416 1261.9554 -51.820312
193.85738 1254.1194 -30.160156
198.828 1254.1194 -30.160156
205.52391 1245.9426 -7.5585938
210.5368 1245.9426 -7.5585938
217.35895 1237.7659 15.043213
222.41393 1237.7659 15.043213
227.4687 1237.7659 15.043213
232.5235 1237.7659 15.043213
239.63864 1229.2484 38.586914
244.73724 1229.2484 38.586914
249.83606 1229.2484 38.586914
254.93468 1229.2484 38.586914
-37.949188 1161.5696 209.74927
-32.233299 1171.1543 183.39966
-26.387667 1189.6392 132.58252
-21.110115 1189.6392 132.58252
-15.695801 1198.5393 108.11523
-10.463933 1198.5393 108.11523
-5.1863799 1207.4395 83.647705
0 1215.9972 60.121094
5.1424484 1215.9972 60.121094
10.197426 1224.5551 36.594727
15.296041 1224.5551 36.594727
20.219517 1233.1129 13.068115
25.274302 1233.1129 13.068115
30.329084 1233.1129 13.068115
35.38406 1233.1129 13.068115
40.438843 1233.1129 13.068115
45.493816 1233.1129 13.068115
50.548603 1233.1129 13.068115
55.603386 1233.1129 13.068115
60.658363 1233.1129 13.068115
65.1661 1241.3284 -9.5170898
70.178993 1241.3284 -9.5170898
74.560501 1249.5438 -32.102539
79.531128 1249.5438 -32.102539
83.816391 1257.417 -53.746826
88.746681 1257.417 -53.746826
93.67717 1257.417 -53.746826
98.607468 1257.417 -53.746826
102.6909 1265.2903 -75.391113
107.58107 1265.2903 -75.391113
112.47104 1265.2903 -75.391113
117.36121 1265.2903 -75.391113
122.25117 1265.2903 -75.391113
127.14114 1265.2903 -75.391113
132.03131 1265.2903 -75.391113
136.92126 1265.2903 -75.391113
141.81143 1265.2903 -75.391113
146.7014 1265.2903 -75.391113
151.59137 1265.2903 -75.391113
157.77199 1257.417 -53.746826
162.70229 1257.417 -53.746826
167.63278 1257.417 -53.746826
172.56308 1257.417 -53.746826
177.49336 1257.417 -53.746826
182.42386 1257.417 -53.746826
187.35416 1257.417 -53.746826
193.85738 1249.5438 -32.102539
198.828 1249.5438 -32.102539
205.52391 1241.3284 -9.5170898
210.5368 1241.3284 -9.5170898
217.35895 1233.1129 13.068115
222.41393 1233.1129 13.068115
229.44121 1224.5551 36.594727
234.53983 1224.5551 36.594727
239.63864 1224.5551 36.594727
244.73724 1224.5551 36.594727
249.83606 1224.5551 36.594727
-43.763157 1146.9493 233.96143
-37.949188 1156.5792 207.6311
-32.233299 1166.2091 181.30054
-26.387667 1184.7811 130.52051
-21.110115 1184.7811 130.52051
-15.695801 1193.7233 106.0708
-10.463933 1193.7233 106.0708
-5.1863799 1202.6653 81.621094
0 1211.2634 58.111816
5.1424484 1211.2634 58.111816
10.197426 1219.8617 34.602539
15.296041 1219.8617 34.602539
20.219517 1228.46 11.093018
25.274302 1228.46 11.093018
30.329084 1228.46 11.093018
35.38406 1228.46 11.093018
40.438843 1228.46 11.093018
45.493816 1228.46 11.093018
50.548603 1228.46 11.093018
55.603386 1228.46 11.093018
60.658363 1228.46 11.093018
65.1661 1236.7141 -11.47583
70.178993 1236.7141 -11.47583
75.191704 1236.7141 -11.47583
79.531128 1244.9683 -34.044678
83.816391 1252.8787 -55.67334
88.746681 1252.8787 -55.67334
93.67717 1252.8787 -55.67334
98.607468 1252.8787 -55.67334
102.6909 1260.7888 -77.301758
107.58107 1260.7888 -77.301758
112.47104 1260.7888 -77.301758
117.36121 1260.7888 -77.301758
122.25117 1260.7888 -77.301758
127.14114 1260.7888 -77.301758
132.03131 1260.7888 -77.301758
136.92126 1260.7888 -77.301758
141.81143 1260.7888 -77.301758
147.91121 1252.8787 -55.67334
152.84149 1252.8787 -55.67334
157.77199 1252.8787 -55.67334
162.70229 1252.8787 -55.67334
167.63278 1252.8787 -55.67334
172.56308 1252.8787 -55.67334
177.49336 1252.8787 -55.67334
182.42386 1252.8787 -55.67334
187.35416 1252.8787 -55.67334
193.85738 1244.9683 -34.044678
198.828 1244.9683 -34.044678
205.52391 1236.7141 -11.47583
210.5368 1236.7141 -11.47583
217.35895 1228.46 11.093018
222.41393 1228.46 11.093018
229.44121 1219.8617 34.602539
234.53983 1219.8617 34.602539
239.63864 1219.8617 34.602539
244.73724 1219.8617 34.602539
249.83606 1219.8617 34.602539
-43.763157 1141.9138 231.82397
-37.949188 1151.5889 205.51294
-32.233299 1161.264 179.20166
-26.387667 1179.9231 128.4585
-20.927767 1188.9072 104.02661
-15.695801 1188.9072 104.02661
-10.463933 1188.9072 104.02661
-5.1863799 1197.8912 79.594727
0 1197.8912 79.594727
5.1424484 1206.5298 56.102539
10.197426 1215.1683 32.610352
15.296041 1215.1683 32.610352
20.219517 1223.8069 9.1179199
25.274302 1223.8069 9.1179199
30.329084 1223.8069 9.1179199
35.38406 1223.8069 9.1179199
40.438843 1223.8069 9.1179199
45.493816 1223.8069 9.1179199
50.548603 1223.8069 9.1179199
55.603386 1223.8069 9.1179199
60.658363 1223.8069 9.1179199
65.1661 1232.0997 -13.434326
70.178993 1232.0997 -13.434326
75.191704 1232.0997 -13.434326
79.531128 1240.3927 -35.986816
84.501938 1240.3927 -35.986816
88.746681 1248.3401 -57.599609
93.67717 1248.3401 -57.599609
98.607468 1248.3401 -57.599609
103.53777 1248.3401 -57.599609
107.58107 1256.2876 -79.212402
112.47104 1256.2876 -79.212402
117.36121 1256.2876 -79.212402
122.25117 1256.2876 -79.212402
127.14114 1256.2876 -79.212402
133.12013 1248.3401 -57.599609
138.05042 1248.3401 -57.599609
142.98091 1248.3401 -57.599609
147.91121 1248.3401 -57.599609
152.84149 1248.3401 -57.599609
157.77199 1248.3401 -57.599609
162.70229 1248.3401 -57.599609
167.63278 1248.3401 -57.599609
172.56308 1248.3401 -57.599609
177.49336 1248.3401 -57.599609
183.91594 1240.3927 -35.986816
188.88657 1240.3927 -35.986816
193.85738 1240.3927 -35.986816
198.828 1240.3927 -35.986816
205.52391 1232.0997 -13.434326
210.5368 1232.0997 -13.434326
217.35895 1223.8069 9.1179199
222.41393 1223.8069 9.1179199
229.44121 1215.1683 32.610352
234.53983 1215.1683 32.610352
239.63864 1215.1683 32.610352
244.73724 1215.1683 32.610352
-49.233582 1136.8783 229.68652
-43.763157 1136.8783 229.68652
-38.292843 1136.8783 229.68652
-31.949263 1165.692 151.74927
-26.387667 1175.0652 126.39624
-20.927767 1184.0912 101.98242
-15.695801 1184.0912 101.98242
-10.463933 1184.0912 101.98242
-5.1863799 1193.1172 77.568359
0 1193.1172 77.568359
5.1424484 1201.7961 54.093262
10.197426 1210.475 30.61792
15.296041 1210.475 30.61792
20.219517 1219.1538 7.1428223
25.274302 1219.1538 7.1428223
30.329084 1219.1538 7.1428223
35.38406 1219.1538 7.1428223
40.438843 1219.1538 7.1428223
45.493816 1219.1538 7.1428223
50.548603 1219.1538 7.1428223
55.603386 1219.1538 7.1428223
60.658363 1219.1538 7.1428223
65.1661 1227.4855 -15.393066
70.178993 1227.4855 -15.393066
75.191704 1227.4855 -15.393066
79.531128 1235.8171 -37.928955
84.501938 1235.8171 -37.928955
88.746681 1243.8018 -59.526123
93.67717 1243.8018 -59.526123
98.607468 1243.8018 -59.526123
103.53777 1243.8018 -59.526123
108.46826 1243.8018 -59.526123
113.39855 1243.8018 -59.526123
118.32904 1243.8018 -59.526123
122.25117 1251.7864 -81.123291
127.14114 1251.7864 -81.123291
133.12013 1243.8018 -59.526123
138.05042 1243.8018 -59.526123
142.98091 1243.8018 -59.526123
147.91121 1243.8018 -59.526123
152.84149 1243.8018 -59.526123
157.77199 1243.8018 -59.526123
162.70229 1243.8018 -59.526123
167.63278 1243.8018 -59.526123
172.56308 1243.8018 -59.526123
177.49336 1243.8018 -59.526123
183.91594 1235.8171 -37.928955
188.88657 1235.8171 -37.928955
193.85738 1235.8171 -37.928955
198.828 1235.8171 -37.928955
205.52391 1227.4855 -15.393066
210.5368 1227.4855 -15.393066
217.35895 1219.1538 7.1428223
222.41393 1219.1538 7.1428223
229.44121 1210.475 30.61792
234.53983 1210.475 30.61792
241.69881 1201.7961 54.093262
246.84125 1201.7961 54.093262
251.98389 1201.7961 54.093262
-49.233582 1131.8428 227.54883
-43.763157 1131.8428 227.54883
-37.949188 1141.6082 201.27637
-31.949263 1160.7905 149.6687
-26.387667 1170.2072 124.33423
-20.927767 1179.2753 99.937988
-15.695801 1179.2753 99.937988
-10.37276 1188.3431 75.541748
-5.1863799 1188.3431 75.541748
0 1197.0624 52.08374
5.1424484 1197.0624 52.08374
10.197426 1205.7816 28.625732
15.296041 1205.7816 28.625732
20.219517 1214.5009 5.1677246
25.274302 1214.5009 5.1677246
30.329084 1214.5009 5.1677246
35.38406 1214.5009 5.1677246
40.438843 1214.5009 5.1677246
45.493816 1214.5009 5.1677246
50.548603 1214.5009 5.1677246
55.603386 1214.5009 5.1677246
60.658363 1214.5009 5.1677246
65.1661 1222.8711 -17.351807
70.178993 1222.8711 -17.351807
75.191704 1222.8711 -17.351807
79.531128 1231.2417 -39.871338
84.501938 1231.2417 -39.871338
89.472572 1231.2417 -39.871338
93.67717 1239.2633 -61.452637
98.607468 1239.2633 -61.452637
103.53777 1239.2633 -61.452637
108.46826 1239.2633 -61.452637
113.39855 1239.2633 -61.452637
118.32904 1239.2633 -61.452637
123.25934 1239.2633 -61.452637
128.18964 1239.2633 -61.452637
133.12013 1239.2633 -61.452637
138.05042 1239.2633 -61.452637
142.98091 1239.2633 -61.452637
147.91121 1239.2633 -61.452637
152.84149 1239.2633 -61.452637
157.77199 1239.2633 -61.452637
162.70229 1239.2633 -61.452637
167.63278 1239.2633 -61.452637
172.56308 1239.2633 -61.452637
178.94514 1231.2417 -39.871338
183.91594 1231.2417 -39.871338
188.88657 1231.2417 -39.871338
193.85738 1231.2417 -39.871338
200.5112 1222.8711 -17.351807
205.52391 1222.8711 -17.351807
212.30417 1214.5009 5.1677246
217.35895 1214.5009 5.1677246
222.41393 1214.5009 5.1677246
229.44121 1205.7816 28.625732
234.53983 1205.7816 28.625732
241.69881 1197.0624 52.08374
246.84125 1197.0624 52.08374
251.98389 1197.0624 52.08374
-49.233582 1126.8073 225.41138
-43.763157 1126.8073 225.41138
-37.605534 1146.4286 172.9043
-31.949263 1155.8889 147.58813
-26.387667 1165.3492 122.27222
-20.927767 1174.4592 97.893799
-15.695801 1174.4592 97.893799
-10.37276 1183.5691 73.515381
-5.1863799 1183.5691 73.515381
0 1192.3286 50.074463
5.1424484 1192.3286 50.074463
10.197426 1201.0883 26.633545
15.296041 1201.0883 26.633545
20.219517 1209.8479 3.192627
25.274302 1209.8479 3.192627
30.329084 1209.8479 3.192627
35.38406 1209.8479 3.192627
40.438843 1209.8479 3.192627
45.493816 1209.8479 3.192627
50.548603 1209.8479 3.192627
55.603386 1209.8479 3.192627
60.658363 1209.8479 3.192627
65.1661 1218.2568 -19.310303
70.178993 1218.2568 -19.310303
75.191704 1218.2568 -19.310303
79.531128 1226.666 -41.813477
84.501938 1226.666 -41.813477
89.472572 1226.666 -41.813477
94.443382 1226.666 -41.813477
98.607468 1234.7249 -63.378906
103.53777 1234.7249 -63.378906
108.46826 1234.7249 -63.378906
113.39855 1234.7249 -63.378906
118.32904 1234.7249 -63.378906
123.25934 1234.7249 -63.378906
128.18964 1234.7249 -63.378906
133.12013 1234.7249 -63.378906
138.05042 1234.7249 -63.378906
142.98091 1234.7249 -63.378906
147.91121 1234.7249 -63.378906
152.84149 1234.7249 -63.378906
157.77199 1234.7249 -63.378906
162.70229 1234.7249 -63.378906
167.63278 1234.7249 -63.378906
172.56308 1234.7249 -63.378906
178.94514 1226.666 -41.813477
183.91594 1226.666 -41.813477
188.88657 1226.666 -41.813477
193.85738 1226.666 -41.813477
200.5112 1218.2568 -19.310303
205.52391 1218.2568 -19.310303
212.30417 1209.8479 3.192627
217.35895 1209.8479 3.192627
222.41393 1209.8479 3.192627
229.44121 1201.0883 26.633545
234.53983 1201.0883 26.633545
241.69881 1192.3286 50.074463
246.84125 1192.3286 50.074463
251.98389 1192.3286 50.074463
-54.704002 1121.7717 223.27393
-49.233582 1121.7717 223.27393
-43.370415 1131.6276 197.03979
-37.605534 1141.4834 170.80518
-32.233299 1141.4834 170.80518
-26.387667 1160.4912 120.20996
-20.927767 1169.6432 95.849365
-15.695801 1169.6432 95.849365
-10.37276 1178.7949 71.48877
-5.1425467 1187.595 48.065186
0 1187.595 48.065186
5.1424484 1187.595 48.065186
10.197426 1196.3949 24.641357
15.296041 1196.3949 24.641357
20.219517 1205.1948 1.2175293
25.274302 1205.1948 1.2175293
30.329084 1205.1948 1.2175293
35.38406 1205.1948 1.2175293
40.438843 1205.1948 1.2175293
45.493816 1205.1948 1.2175293
50.548603 1205.1948 1.2175293
55.603386 1205.1948 1.2175293
60.658363 1205.1948 1.2175293
65.713142 1205.1948 1.2175293
70.178993 1213.6426 -21.269043
75.191704 1213.6426 -21.269043
79.531128 1222.0906 -43.755615
84.501938 1222.0906 -43.755615
89.472572 1222.0906 -43.755615
94.443382 1222.0906 -43.755615
99.414001 1222.0906 -43.755615
103.53777 1230.1865 -65.30542
108.46826 1230.1865 -65.30542
113.39855 1230.1865 -65.30542
118.32904 1230.1865 -65.30542
123.25934 1230.1865 -65.30542
128.18964 1230.1865 -65.30542
133.12013 1230.1865 -65.30542
138.05042 1230.1865 -65.30542
142.98091 1230.1865 -65.30542
147.91121 1230.1865 -65.30542
152.84149 1230.1865 -65.30542
157.77199 1230.1865 -65.30542
162.70229 1230.1865 -65.30542
167.63278 1230.1865 -65.30542
172.56308 1230.1865 -65.30542
178.94514 1222.0906 -43.755615
183.91594 1222.0906 -43.755615
188.88657 1222.0906 -43.755615
193.85738 1222.0906 -43.755615
200.5112 1213.6426 -21.269043
205.52391 1213.6426 -21.269043
212.30417 1205.1948 1.2175293
217.35895 1205.1948 1.2175293
222.41393 1205.1948 1.2175293
229.44121 1196.3949 24.641357
234.53983 1196.3949 24.641357
241.69881 1187.595 48.065186
246.84125 1187.595 48.065186
-54.704002 1116.7362 221.13647
-48.79174 1126.6372 194.92139
-43.370415 1126.6372 194.92139
-37.605534 1136.5382 168.70605
-32.233299 1136.5382 168.70605
-26.387667 1155.6332 118.14795
-20.927767 1164.8271 93.805176
-15.559041 1174.0209 69.462402
-10.285093 1182.8612 46.055664
-5.1425467 1182.8612 46.055664
0 1191.7015 22.64917
5.0986156 1191.7015 22.64917
10.197426 1191.7015 22.64917
15.296041 1191.7015 22.64917
20.219517 1200.5417 -0.75756836
25.274302 1200.5417 -0.75756836
30.329084 1200.5417 -0.75756836
35.38406 1200.5417 -0.75756836
40.438843 1200.5417 -0.75756836
45.493816 1200.5417 -0.75756836
50.548603 1200.5417 -0.75756836
55.603386 1200.5417 -0.75756836
60.658363 1200.5417 -0.75756836
65.713142 1200.5417 -0.75756836
70.178993 1209.0283 -23.227783
75.191704 1209.0283 -23.227783
80.204407 1209.0283 -23.227783
84.501938 1217.515 -45.697754
89.472572 1217.515 -45.697754
94.443382 1217.515 -45.697754
99.414001 1217.515 -45.697754
103.53777 1225.6479 -67.231934
108.46826 1225.6479 -67.231934
113.39855 1225.6479 -67.231934
118.32904 1225.6479 -67.231934
123.25934 1225.6479 -67.231934
128.18964 1225.6479 -67.231934
133.12013 1225.6479 -67.231934
138.05042 1225.6479 -67.231934
142.98091 1225.6479 -67.231934
147.91121 1225.6479 -67.231934
152.84149 1225.6479 -67.231934
157.77199 1225.6479 -67.231934
162.70229 1225.6479 -67.231934
167.63278 1225.6479 -67.231934
172.56308 1225.6479 -67.231934
177.49336 1225.6479 -67.231934
183.91594 1217.515 -45.697754
188.88657 1217.515 -45.697754
193.85738 1217.515 -45.697754
200.5112 1209.0283 -23.227783
205.52391 1209.0283 -23.227783
212.30417 1200.5417 -0.75756836
217.35895 1200.5417 -0.75756836
222.41393 1200.5417 -0.75756836
229.44121 1191.7015 22.64917
234.53983 1191.7015 22.64917
239.63864 1191.7015 22.64917
246.84125 1182.8612 46.055664
251.98389 1182.8612 46.055664
-54.704002 1111.7006 218.99902
-48.79174 1121.6469 192.80322
-43.370415 1121.6469 192.80322
-37.605534 1131.593 166.60693
-32.233299 1131.593 166.60693
-26.387667 1150.7751 116.08594
-20.927767 1160.011 91.760986
-15.559041 1169.2468 67.435791
-10.285093 1178.1274 44.046387
-5.1425467 1178.1274 44.046387
0 1187.0081 20.656982
5.0986156 1187.0081 20.656982
10.197426 1187.0081 20.656982
15.296041 1187.0081 20.656982
20.219517 1195.8887 -2.732666
25.274302 1195.8887 -2.732666
30.329084 1195.8887 -2.732666
35.38406 1195.8887 -2.732666
40.438843 1195.8887 -2.732666
45.493816 1195.8887 -2.732666
50.548603 1195.8887 -2.732666
55.140507 1204.4139 -25.186279
60.1534 1204.4139 -25.186279
65.1661 1204.4139 -25.186279
70.178993 1204.4139 -25.186279
75.191704 1204.4139 -25.186279
79.531128 1212.9393 -47.640137
84.501938 1212.9393 -47.640137
89.472572 1212.9393 -47.640137
94.443382 1212.9393 -47.640137
99.414001 1212.9393 -47.640137
103.53777 1221.1095 -69.158447
108.46826 1221.1095 -69.158447
113.39855 1221.1095 -69.158447
118.32904 1221.1095 -69.158447
123.25934 1221.1095 -69.158447
128.18964 1221.1095 -69.158447
133.12013 1221.1095 -69.158447
138.05042 1221.1095 -69.158447
142.98091 1221.1095 -69.158447
147.91121 1221.1095 -69.158447
152.84149 1221.1095 -69.158447
157.77199 1221.1095 -69.158447
162.70229 1221.1095 -69.158447
167.63278 1221.1095 -69.158447
172.56308 1221.1095 -69.158447
177.49336 1221.1095 -69.158447
183.91594 1212.9393 -47.640137
188.88657 1212.9393 -47.640137
193.85738 1212.9393 -47.640137
200.5112 1204.4139 -25.186279
205.52391 1204.4139 -25.186279
212.30417 1195.8887 -2.732666
217.35895 1195.8887 -2.732666
222.41393 1195.8887 -2.732666
229.44121 1187.0081 20.656982
234.53983 1187.0081 20.656982
239.63864 1187.0081 20.656982
244.73724 1187.0081 20.656982
251.98389 1178.1274 44.046387
-276.06235 1096.3167 243.97363
-270.54108 1096.3167 243.97363
-265.01981 1096.3167 243.97363
-259.49866 1096.3167 243.97363
-253.97739 1096.3167 243.97363
-248.45612 1096.3167 243.97363
-54.704002 1106.665 216.86157
-49.233582 1106.665 216.86157
-43.370415 1116.6565 190.68481
-37.949188 1116.6565 190.68481
-32.233299 1126.6479 164.50781
-26.387667 1145.9171 114.02368
-20.74542 1164.4727 65.409424
-15.427542 1173.3937 42.037109
-10.285093 1173.3937 42.037109
-5.0987129 1182.3147 18.664795
0 1182.3147 18.664795
5.0986156 1182.3147 18.664795
10.197426 1182.3147 18.664795
15.296041 1182.3147 18.664795
20.394852 1182.3147 18.664795
25.274302 1191.2357 -4.7077637
30.329084 1191.2357 -4.7077637
35.38406 1191.2357 -4.7077637
40.438843 1191.2357 -4.7077637
45.493816 1191.2357 -4.7077637
50.548603 1191.2357 -4.7077637
55.140507 1199.7997 -27.14502
60.1534 1199.7997 -27.14502
65.1661 1199.7997 -27.14502
70.178993 1199.7997 -27.14502
75.191704 1199.7997 -27.14502
79.531128 1208.3638 -49.582275
84.501938 1208.3638 -49.582275
89.472572 1208.3638 -49.582275
94.443382 1208.3638 -49.582275
99.414001 1208.3638 -49.582275
103.53777 1216.571 -71.084961
108.46826 1216.571 -71.084961
113.39855 1216.571 -71.084961
118.32904 1216.571 -71.084961
123.25934 1216.571 -71.084961
128.18964 1216.571 -71.084961
133.12013 1216.571 -71.084961
138.05042 1216.571 -71.084961
142.98091 1216.571 -71.084961
147.91121 1216.571 -71.084961
152.84149 1216.571 -71.084961
157.77199 1216.571 -71.084961
162.70229 1216.571 -71.084961
167.63278 1216.571 -71.084961
172.56308 1216.571 -71.084961
177.49336 1216.571 -71.084961
182.42386 1216.571 -71.084961
188.88657 1208.3638 -49.582275
193.85738 1208.3638 -49.582275
198.828 1208.3638 -49.582275
205.52391 1199.7997 -27.14502
210.5368 1199.7997 -27.14502
217.35895 1191.2357 -4.7077637
222.41393 1191.2357 -4.7077637
229.44121 1182.3147 18.664795
234.53983 1182.3147 18.664795
239.63864 1182.3147 18.664795
244.73724 1182.3147 18.664795
251.98389 1173.3937 42.037109
-306.57385 1059.3322 324.96069
-298.10873 1070.0857 296.93457
-292.4841 1070.0857 296.93457
-284.17679 1080.8392 268.9082
-276.06235 1091.2343 241.81641
-270.54108 1091.2343 241.81641
-265.01981 1091.2343 241.81641
-259.49866 1091.2343 241.81641
-253.97739 1091.2343 241.81641
-248.45612 1091.2343 241.81641
-242.93484 1091.2343 241.81641
-237.41357 1091.2343 241.81641
-236.23717 1070.0857 296.93457
-54.704002 1101.6295 214.72412
-49.233582 1101.6295 214.72412
-43.370415 1111.6661 188.56665
-37.949188 1111.6661 188.56665
-32.233299 1121.7028 162.40869
-26.387667 1141.0592 111.96167
-20.74542 1159.6986 63.383057
-15.427542 1168.66 40.027832
-10.197426 1177.6213 16.672363
-5.0987129 1177.6213 16.672363
0 1177.6213 16.672363
5.0986156 1177.6213 16.672363
10.197426 1177.6213 16.672363
15.296041 1177.6213 16.672363
20.394852 1177.6213 16.672363
25.493467 1177.6213 16.672363
30.329084 1186.5826 -6.6828613
35.38406 1186.5826 -6.6828613
40.438843 1186.5826 -6.6828613
45.493816 1186.5826 -6.6828613
50.548603 1186.5826 -6.6828613
55.603386 1186.5826 -6.6828613
60.658363 1186.5826 -6.6828613
65.713142 1186.5826 -6.6828613
70.76812 1186.5826 -6.6828613
75.191704 1195.1854 -29.103516
80.204407 1195.1854 -29.103516
84.501938 1203.7883 -51.524414
89.472572 1203.7883 -51.524414
94.443382 1203.7883 -51.524414
99.414001 1203.7883 -51.524414
103.53777 1212.0327 -73.01123
108.46826 1212.0327 -73.01123
113.39855 1212.0327 -73.01123
118.32904 1212.0327 -73.01123
123.25934 1212.0327 -73.01123
128.18964 1212.0327 -73.01123
133.12013 1212.0327 -73.01123
138.05042 1212.0327 -73.01123
142.98091 1212.0327 -73.01123
147.91121 1212.0327 -73.01123
152.84149 1212.0327 -73.01123
157.77199 1212.0327 -73.01123
162.70229 1212.0327 -73.01123
167.63278 1212.0327 -73.01123
172.56308 1212.0327 -73.01123
177.49336 1212.0327 -73.01123
182.42386 1212.0327 -73.01123
188.88657 1203.7883 -51.524414
193.85738 1203.7883 -51.524414
198.828 1203.7883 -51.524414
203.79865 1203.7883 -51.524414
210.5368 1195.1854 -29.103516
217.35895 1186.5826 -6.6828613
222.41393 1186.5826 -6.6828613
229.44121 1177.6213 16.672363
234.53983 1177.6213 16.672363
239.63864 1177.6213 16.672363
244.73724 1177.6213 16.672363
251.98389 1168.66 40.027832
-323.60577 1054.1062 322.74243
-317.92847 1054.1062 322.74243
-312.25116 1054.1062 322.74243
-306.57385 1054.1062 322.74243
-298.10873 1064.9081 294.73682
-292.4841 1064.9081 294.73682
-284.17679 1075.7101 266.7312
-278.60468 1075.7101 266.7312
-273.03256 1075.7101 266.7312
-267.46045 1075.7101 266.7312
-261.88843 1075.7101 266.7312
-253.97739 1086.152 239.65894
-248.45612 1086.152 239.65894
-242.93484 1086.152 239.65894
-237.41357 1086.152 239.65894
-236.23717 1064.9081 294.73682
-60.733734 1086.152 239.65894
-54.704002 1096.594 212.58667
-48.79174 1106.6758 186.44824
-42.977669 1116.7576 160.30981
-37.605534 1116.7576 160.30981
-32.233299 1116.7576 160.30981
-26.159735 1145.563 85.62793
-20.74542 1154.9246 61.356445
-15.427542 1163.9263 38.018311
-10.197426 1172.928 14.680176
-5.0987129 1172.928 14.680176
0 1172.928 14.680176
5.0986156 1172.928 14.680176
10.197426 1172.928 14.680176
15.296041 1172.928 14.680176
20.394852 1172.928 14.680176
25.493467 1172.928 14.680176
30.329084 1181.9297 -8.657959
35.38406 1181.9297 -8.657959
40.438843 1181.9297 -8.657959
45.493816 1181.9297 -8.657959
50.548603 1181.9297 -8.657959
55.603386 1181.9297 -8.657959
60.658363 1181.9297 -8.657959
65.713142 1181.9297 -8.657959
70.76812 1181.9297 -8.657959
75.822906 1181.9297 -8.657959
80.204407 1190.5712 -31.062256
85.2173 1190.5712 -31.062256
89.472572 1199.2126 -53.466797
94.443382 1199.2126 -53.466797
99.414001 1199.2126 -53.466797
103.53777 1207.4943 -74.937744
108.46826 1207.4943 -74.937744
113.39855 1207.4943 -74.937744
118.32904 1207.4943 -74.937744
123.25934 1207.4943 -74.937744
128.18964 1207.4943 -74.937744
133.12013 1207.4943 -74.937744
138.05042 1207.4943 -74.937744
142.98091 1207.4943 -74.937744
147.91121 1207.4943 -74.937744
152.84149 1207.4943 -74.937744
157.77199 1207.4943 -74.937744
162.70229 1207.4943 -74.937744
167.63278 1207.4943 -74.937744
172.56308 1207.4943 -74.937744
177.49336 1207.4943 -74.937744
182.42386 1207.4943 -74.937744
188.88657 1199.2126 -53.466797
193.85738 1199.2126 -53.466797
198.828 1199.2126 -53.466797
203.79865 1199.2126 -53.466797
210.5368 1190.5712 -31.062256
217.35895 1181.9297 -8.657959
222.41393 1181.9297 -8.657959
227.4687 1181.9297 -8.657959
234.53983 1172.928 14.680176
239.63864 1172.928 14.680176
244.73724 1172.928 14.680176
251.98389 1163.9263 38.018311
-331.8569 1059.7306 292.53906
-326.23221 1059.7306 292.53906
-320.60754 1059.7306 292.53906
-317.92847 1048.8801 320.52393
-312.25116 1048.8801 320.52393
-306.57385 1048.8801 320.52393
-298.10873 1059.7306 292.53906
-292.4841 1059.7306 292.53906
-286.85938 1059.7306 292.53906
-281.23468 1059.7306 292.53906
-275.60995 1059.7306 292.53906
-269.98526 1059.7306 292.53906
-261.88843 1070.5809 264.55396
-256.31631 1070.5809 264.55396
-250.7442 1070.5809 264.55396
-245.1721 1070.5809 264.55396
-239.59998 1070.5809 264.55396
-238.44638 1048.8801 320.52393
-234.99754 1037.6681 349.44189
-79.482086 1048.8801 320.52393
-73.804771 1048.8801 320.52393
-68.127563 1048.8801 320.52393
-60.733734 1081.0697 237.50171
-54.704002 1091.5585 210.44922
-48.79174 1101.6854 184.33008
-42.977669 1111.8125 158.21069
-37.605534 1111.8125 158.21069
-31.949263 1121.5779 133.02393
-25.931801 1150.1505 59.330078
-20.74542 1150.1505 59.330078
-15.427542 1159.1925 36.009033
-10.197426 1168.2346 12.687988
-5.0987129 1168.2346 12.687988
0 1168.2346 12.687988
5.0986156 1168.2346 12.687988
10.197426 1168.2346 12.687988
15.296041 1168.2346 12.687988
20.394852 1168.2346 12.687988
25.493467 1168.2346 12.687988
30.592083 1168.2346 12.687988
35.38406 1177.2766 -10.632812
40.438843 1177.2766 -10.632812
45.493816 1177.2766 -10.632812
50.548603 1177.2766 -10.632812
55.603386 1177.2766 -10.632812
60.658363 1177.2766 -10.632812
65.713142 1177.2766 -10.632812
70.76812 1177.2766 -10.632812
75.822906 1177.2766 -10.632812
80.877686 1177.2766 -10.632812
85.2173 1185.9568 -33.020996
90.230003 1185.9568 -33.020996
94.443382 1194.6372 -55.408936
99.414001 1194.6372 -55.408936
103.53777 1202.9558 -76.864258
108.46826 1202.9558 -76.864258
113.39855 1202.9558 -76.864258
118.32904 1202.9558 -76.864258
123.25934 1202.9558 -76.864258
128.18964 1202.9558 -76.864258
133.12013 1202.9558 -76.864258
138.05042 1202.9558 -76.864258
142.98091 1202.9558 -76.864258
147.91121 1202.9558 -76.864258
152.84149 1202.9558 -76.864258
157.77199 1202.9558 -76.864258
162.70229 1202.9558 -76.864258
167.63278 1202.9558 -76.864258
172.56308 1202.9558 -76.864258
177.49336 1202.9558 -76.864258
182.42386 1202.9558 -76.864258
188.88657 1194.6372 -55.408936
193.85738 1194.6372 -55.408936
198.828 1194.6372 -55.408936
203.79865 1194.6372 -55.408936
210.5368 1185.9568 -33.020996
215.54951 1185.9568 -33.020996
222.41393 1177.2766 -10.632812
227.4687 1177.2766 -10.632812
232.5235 1177.2766 -10.632812
239.63864 1168.2346 12.687988
244.73724 1168.2346 12.687988
251.98389 1159.1925 36.009033
-334.32562 1065.4518 262.37671
-328.75351 1065.4518 262.37671
-326.23221 1054.553 290.34131
-320.60754 1054.553 290.34131
-314.98285 1054.553 290.34131
-309.35815 1054.553 290.34131
-303.73343 1054.553 290.34131
-298.10873 1054.553 290.34131
-292.4841 1054.553 290.34131
-286.85938 1054.553 290.34131
-281.23468 1054.553 290.34131
-275.60995 1054.553 290.34131
-269.98526 1054.553 290.34131
-264.36063 1054.553 290.34131
-256.31631 1065.4518 262.37671
-250.7442 1065.4518 262.37671
-247.4865 1054.553 290.34131
-241.86177 1054.553 290.34131
-238.44638 1043.6542 318.30566
-232.76904 1043.6542 318.30566
-227.09174 1043.6542 318.30566
-221.41443 1043.6542 318.30566
-102.19124 1043.6542 318.30566
-96.514038 1043.6542 318.30566
-90.836716 1043.6542 318.30566
-85.159401 1043.6542 318.30566
-79.482086 1043.6542 318.30566
-73.804771 1043.6542 318.30566
-68.127563 1043.6542 318.30566
-61.871651 1054.553 290.34131
-55.212467 1075.9873 235.34448
-48.79174 1096.6952 182.21191
-42.598946 1116.6763 130.94336
-37.274155 1116.6763 130.94336
-31.949263 1116.6763 130.94336
-25.931801 1145.3765 57.303467
-20.74542 1145.3765 57.303467
-15.427542 1154.4589 33.999756
-10.285093 1154.4589 33.999756
-5.0987129 1163.5413 10.695801
0 1163.5413 10.695801
5.0986156 1163.5413 10.695801
10.197426 1163.5413 10.695801
15.296041 1163.5413 10.695801
20.394852 1163.5413 10.695801
25.493467 1163.5413 10.695801
30.592083 1163.5413 10.695801
35.690891 1163.5413 10.695801
40.438843 1172.6237 -12.60791
45.493816 1172.6237 -12.60791
50.548603 1172.6237 -12.60791
55.603386 1172.6237 -12.60791
60.658363 1172.6237 -12.60791
65.713142 1172.6237 -12.60791
70.76812 1172.6237 -12.60791
75.822906 1172.6237 -12.60791
80.877686 1172.6237 -12.60791
85.932655 1172.6237 -12.60791
90.230003 1181.3425 -34.979492
95.242905 1181.3425 -34.979492
99.414001 1190.0616 -57.351074
103.53777 1198.4174 -78.790527
108.46826 1198.4174 -78.790527
113.39855 1198.4174 -78.790527
118.32904 1198.4174 -78.790527
123.25934 1198.4174 -78.790527
128.18964 1198.4174 -78.790527
133.12013 1198.4174 -78.790527
138.05042 1198.4174 -78.790527
142.98091 1198.4174 -78.790527
147.91121 1198.4174 -78.790527
152.84149 1198.4174 -78.790527
157.77199 1198.4174 -78.790527
162.70229 1198.4174 -78.790527
167.63278 1198.4174 -78.790527
172.56308 1198.4174 -78.790527
177.49336 1198.4174 -78.790527
182.42386 1198.4174 -78.790527
188.88657 1190.0616 -57.351074
193.85738 1190.0616 -57.351074
198.828 1190.0616 -57.351074
203.79865 1190.0616 -57.351074
210.5368 1181.3425 -34.979492
215.54951 1181.3425 -34.979492
222.41393 1172.6237 -12.60791
227.4687 1172.6237 -12.60791
232.5235 1172.6237 -12.60791
237.57848 1172.6237 -12.60791
242.63324 1172.6237 -12.60791
249.83606 1163.5413 10.695801
254.93468 1163.5413 10.695801
-334.32562 1060.3228 260.19946
-328.75351 1060.3228 260.19946
-326.23221 1049.3755 288.14355
-320.60754 1049.3755 288.14355
-314.98285 1049.3755 288.14355
-309.35815 1049.3755 288.14355
-303.73343 1049.3755 288.14355
-298.10873 1049.3755 288.14355
-292.4841 1049.3755 288.14355
-286.85938 1049.3755 288.14355
-281.23468 1049.3755 288.14355
-275.60995 1049.3755 288.14355
-269.98526 1049.3755 288.14355
-264.36063 1049.3755 288.14355
-258.73593 1049.3755 288.14355
-253.11121 1049.3755 288.14355
-247.4865 1049.3755 288.14355
-241.86177 1049.3755 288.14355
-236.23717 1049.3755 288.14355
-230.61244 1049.3755 288.14355
-224.98775 1049.3755 288.14355
-221.41443 1038.4282 316.0874
-136.25502 1038.4282 316.0874
-130.57771 1038.4282 316.0874
-124.90051 1038.4282 316.0874
-119.22319 1038.4282 316.0874
-113.54587 1038.4282 316.0874
-107.86855 1038.4282 316.0874
-102.19124 1038.4282 316.0874
-96.514038 1038.4282 316.0874
-90.836716 1038.4282 316.0874
-85.159401 1038.4282 316.0874
-79.482086 1038.4282 316.0874
-73.804771 1038.4282 316.0874
-68.127563 1038.4282 316.0874
-62.450253 1038.4282 316.0874
-55.720936 1060.3228 260.19946
-48.79174 1091.7048 180.09351
-42.598946 1111.7748 128.86279
-37.274155 1111.7748 128.86279
-31.949263 1111.7748 128.86279
-26.159735 1131.1149 79.495117
-20.927767 1131.1149 79.495117
-15.559041 1140.6024 55.2771
-10.285093 1149.7251 31.990234
-5.1425467 1149.7251 31.990234
0 1158.8479 8.7036133
5.0986156 1158.8479 8.7036133
10.197426 1158.8479 8.7036133
15.296041 1158.8479 8.7036133
20.394852 1158.8479 8.7036133
25.493467 1158.8479 8.7036133
30.592083 1158.8479 8.7036133
35.690891 1158.8479 8.7036133
40.438843 1167.9706 -14.583008
45.493816 1167.9706 -14.583008
50.548603 1167.9706 -14.583008
55.603386 1167.9706 -14.583008
60.658363 1167.9706 -14.583008
65.713142 1167.9706 -14.583008
70.76812 1167.9706 -14.583008
75.822906 1167.9706 -14.583008
80.877686 1167.9706 -14.583008
85.932655 1167.9706 -14.583008
90.230003 1176.7283 -36.938232
95.242905 1176.7283 -36.938232
99.414001 1185.4861 -59.293457
103.53777 1193.8789 -80.717041
108.46826 1193.8789 -80.717041
113.39855 1193.8789 -80.717041
118.32904 1193.8789 -80.717041
123.25934 1193.8789 -80.717041
128.18964 1193.8789 -80.717041
133.12013 1193.8789 -80.717041
138.05042 1193.8789 -80.717041
142.98091 1193.8789 -80.717041
147.91121 1193.8789 -80.717041
152.84149 1193.8789 -80.717041
157.77199 1193.8789 -80.717041
162.70229 1193.8789 -80.717041
167.63278 1193.8789 -80.717041
172.56308 1193.8789 -80.717041
177.49336 1193.8789 -80.717041
182.42386 1193.8789 -80.717041
188.88657 1185.4861 -59.293457
193.85738 1185.4861 -59.293457
198.828 1185.4861 -59.293457
203.79865 1185.4861 -59.293457
210.5368 1176.7283 -36.938232
215.54951 1176.7283 -36.938232
220.56241 1176.7283 -36.938232
225.5751 1176.7283 -36.938232
230.58781 1176.7283 -36.938232
237.57848 1167.9706 -14.583008
242.63324 1167.9706 -14.583008
249.83606 1158.8479 8.7036133
254.93468 1158.8479 8.7036133
-334.32562 1055.1936 258.02246
-328.75351 1055.1936 258.02246
-323.1814 1055.1936 258.02246
-320.60754 1044.1979 285.9458
-314.98285 1044.1979 285.9458
-312.25116 1033.2023 313.86914
-303.73343 1044.1979 285.9458
-298.10873 1044.1979 285.9458
-292.4841 1044.1979 285.9458
-286.85938 1044.1979 285.9458
-281.23468 1044.1979 285.9458
-275.60995 1044.1979 285.9458
-269.98526 1044.1979 285.9458
-264.36063 1044.1979 285.9458
-258.73593 1044.1979 285.9458
-253.11121 1044.1979 285.9458
-247.4865 1044.1979 285.9458
-241.86177 1044.1979 285.9458
-236.23717 1044.1979 285.9458
-230.61244 1044.1979 285.9458
-224.98775 1044.1979 285.9458
-221.41443 1033.2023 313.86914
-213.73831 1044.1979 285.9458
-208.11371 1044.1979 285.9458
-202.48898 1044.1979 285.9458
-140.61734 1044.1979 285.9458
-134.99263 1044.1979 285.9458
-130.57771 1033.2023 313.86914
-124.90051 1033.2023 313.86914
-119.22319 1033.2023 313.86914
-113.54587 1033.2023 313.86914
-107.86855 1033.2023 313.86914
-102.19124 1033.2023 313.86914
-96.514038 1033.2023 313.86914
-90.836716 1033.2023 313.86914
-85.159401 1033.2023 313.86914
-79.482086 1033.2023 313.86914
-73.804771 1033.2023 313.86914
-68.127563 1033.2023 313.86914
-61.871651 1044.1979 285.9458
-55.720936 1055.1936 258.02246
-49.233582 1076.4519 204.03687
-42.977669 1096.9771 151.91333
-37.274155 1106.8732 126.78223
-31.949263 1106.8732 126.78223
-26.159735 1126.2988 77.450928
-20.927767 1126.2988 77.450928
-15.559041 1135.8284 53.250488
-10.285093 1144.9915 29.980957
-5.1425467 1144.9915 29.980957
0 1144.9915 29.980957
5.1424484 1144.9915 29.980957
10.285093 1144.9915 29.980957
15.296041 1154.1545 6.7114258
20.394852 1154.1545 6.7114258
25.493467 1154.1545 6.7114258
30.592083 1154.1545 6.7114258
35.690891 1154.1545 6.7114258
40.438843 1163.3176 -16.558105
45.493816 1163.3176 -16.558105
50.548603 1163.3176 -16.558105
55.603386 1163.3176 -16.558105
60.658363 1163.3176 -16.558105
65.713142 1163.3176 -16.558105
70.76812 1163.3176 -16.558105
75.822906 1163.3176 -16.558105
80.877686 1163.3176 -16.558105
85.932655 1163.3176 -16.558105
90.230003 1172.114 -38.896973
95.242905 1172.114 -38.896973
99.414001 1180.9105 -61.235596
103.53777 1189.3406 -82.643555
108.46826 1189.3406 -82.643555
113.39855 1189.3406 -82.643555
118.32904 1189.3406 -82.643555
123.25934 1189.3406 -82.643555
128.18964 1189.3406 -82.643555
133.12013 1189.3406 -82.643555
138.05042 1189.3406 -82.643555
142.98091 1189.3406 -82.643555
147.91121 1189.3406 -82.643555
152.84149 1189.3406 -82.643555
157.77199 1189.3406 -82.643555
162.70229 1189.3406 -82.643555
167.63278 1189.3406 -82.643555
172.56308 1189.3406 -82.643555
177.49336 1189.3406 -82.643555
183.91594 1180.9105 -61.235596
188.88657 1180.9105 -61.235596
193.85738 1180.9105 -61.235596
198.828 1180.9105 -61.235596
203.79865 1180.9105 -61.235596
208.76944 1180.9105 -61.235596
215.54951 1172.114 -38.896973
220.56241 1172.114 -38.896973
225.5751 1172.114 -38.896973
230.58781 1172.114 -38.896973
235.60069 1172.114 -38.896973
242.63324 1163.3176 -16.558105
-334.32562 1050.0645 255.84521
-325.75357 1060.7404 228.87256
-320.23227 1060.7404 228.87256
-317.60934 1050.0645 255.84521
-314.98285 1039.0204 283.74805
-309.35815 1039.0204 283.74805
-303.73343 1039.0204 283.74805
-298.10873 1039.0204 283.74805
-292.4841 1039.0204 283.74805
-289.54199 1027.9763 311.65088
-283.86469 1027.9763 311.65088
-278.18738 1027.9763 311.65088
-272.51004 1027.9763 311.65088
-264.36063 1039.0204 283.74805
-258.73593 1039.0204 283.74805
-253.11121 1039.0204 283.74805
-247.4865 1039.0204 283.74805
-241.86177 1039.0204 283.74805
-236.23717 1039.0204 283.74805
-230.61244 1039.0204 283.74805
-224.98775 1039.0204 283.74805
-221.41443 1027.9763 311.65088
-213.73831 1039.0204 283.74805
-208.11371 1039.0204 283.74805
-202.48898 1039.0204 283.74805
-198.70528 1027.9763 311.65088
-193.02797 1027.9763 311.65088
-187.35065 1027.9763 311.65088
-181.67343 1027.9763 311.65088
-174.36551 1039.0204 283.74805
-168.7408 1039.0204 283.74805
-163.1161 1039.0204 283.74805
-157.49138 1039.0204 283.74805
-151.86678 1039.0204 283.74805
-146.24205 1039.0204 283.74805
-140.61734 1039.0204 283.74805
-134.99263 1039.0204 283.74805
-130.57771 1027.9763 311.65088
-124.90051 1027.9763 311.65088
-119.22319 1027.9763 311.65088
-113.54587 1027.9763 311.65088
-107.86855 1027.9763 311.65088
-102.19124 1027.9763 311.65088
-96.514038 1027.9763 311.65088
-90.836716 1027.9763 311.65088
-85.159401 1027.9763 311.65088
-79.482086 1027.9763 311.65088
-73.804771 1027.9763 311.65088
-68.127563 1027.9763 311.65088
-61.871651 1039.0204 283.74805
-55.720936 1050.0645 255.84521
-49.233582 1071.4164 201.89941
-42.977669 1092.0319 149.81421
-37.605534 1092.0319 149.81421
-31.949263 1101.9717 124.70166
-26.159735 1121.4828 75.406494
-20.927767 1121.4828 75.406494
-15.559041 1131.0543 51.224121
-10.285093 1140.2577 27.97168
-5.1425467 1140.2577 27.97168
0 1140.2577 27.97168
5.1424484 1140.2577 27.97168
10.285093 1140.2577 27.97168
15.296041 1149.4612 4.7192383
20.394852 1149.4612 4.7192383
25.493467 1149.4612 4.7192383
30.592083 1149.4612 4.7192383
35.690891 1149.4612 4.7192383
40.438843 1158.6646 -18.533203
45.493816 1158.6646 -18.533203
50.548603 1158.6646 -18.533203
56.085552 1149.4612 4.7192383
61.184364 1149.4612 4.7192383
66.282974 1149.4612 4.7192383
71.381783 1149.4612 4.7192383
76.4804 1149.4612 4.7192383
80.877686 1158.6646 -18.533203
85.932655 1158.6646 -18.533203
90.98745 1158.6646 -18.533203
95.242905 1167.4998 -40.855469
99.414001 1176.335 -63.177734
104.38463 1176.335 -63.177734
108.46826 1184.8021 -84.570068
113.39855 1184.8021 -84.570068
118.32904 1184.8021 -84.570068
123.25934 1184.8021 -84.570068
128.18964 1184.8021 -84.570068
133.12013 1184.8021 -84.570068
138.05042 1184.8021 -84.570068
142.98091 1184.8021 -84.570068
147.91121 1184.8021 -84.570068
152.84149 1184.8021 -84.570068
157.77199 1184.8021 -84.570068
162.70229 1184.8021 -84.570068
167.63278 1184.8021 -84.570068
172.56308 1184.8021 -84.570068
177.49336 1184.8021 -84.570068
182.42386 1184.8021 -84.570068
188.88657 1176.335 -63.177734
193.85738 1176.335 -63.177734
198.828 1176.335 -63.177734
203.79865 1176.335 -63.177734
208.76944 1176.335 -63.177734
215.54951 1167.4998 -40.855469
220.56241 1167.4998 -40.855469
225.5751 1167.4998 -40.855469
230.58781 1167.4998 -40.855469
235.60069 1167.4998 -40.855469
242.63324 1158.6646 -18.533203
-334.32562 1044.9353 253.66797
-325.75357 1055.658 226.71509
-320.23227 1055.658 226.71509
-317.60934 1044.9353 253.66797
-312.03726 1044.9353 253.66797
-309.35815 1033.8428 281.55029
-303.73343 1033.8428 281.55029
-298.10873 1033.8428 281.55029
-292.4841 1033.8428 281.55029
-289.54199 1022.7504 309.43262
-283.86469 1022.7504 309.43262
-278.18738 1022.7504 309.43262
-272.51004 1022.7504 309.43262
-266.83286 1022.7504 309.43262
-261.15552 1022.7504 309.43262
-255.47821 1022.7504 309.43262
-247.4865 1033.8428 281.55029
-241.86177 1033.8428 281.55029
-236.23717 1033.8428 281.55029
-230.61244 1033.8428 281.55029
-224.98775 1033.8428 281.55029
-221.41443 1022.7504 309.43262
-213.73831 1033.8428 281.55029
-208.11371 1033.8428 281.55029
-202.48898 1033.8428 281.55029
-198.70528 1022.7504 309.43262
-193.02797 1022.7504 309.43262
-187.35065 1022.7504 309.43262
-179.99023 1033.8428 281.55029
-174.36551 1033.8428 281.55029
-168.7408 1033.8428 281.55029
-163.1161 1033.8428 281.55029
-157.49138 1033.8428 281.55029
-151.86678 1033.8428 281.55029
-146.24205 1033.8428 281.55029
-140.61734 1033.8428 281.55029
-136.25502 1022.7504 309.43262
-130.57771 1022.7504 309.43262
-124.90051 1022.7504 309.43262
-119.22319 1022.7504 309.43262
-113.54587 1022.7504 309.43262
-107.86855 1022.7504 309.43262
