ply
format ascii 1.0
comment PCL generated
element vertex 1579
property float x
property float y
property float z
element camera 0
property float view_px
property float view_py
property float view_pz
property float x_axisx
property float x_axisy
property float x_axisz
property float y_axisx
property float y_axisy
property float y_axisz
property float z_axisx
property float z_axisy
property float z_axisz
property float focal
property float scalex
property float scaley
property float centerx
property float centery
property int viewportx
property int viewporty
property float k1
property float k2
end_header
219.74182 1179.2753 99.937988
224.97366 1179.2753 99.937988
230.20573 1179.2753 99.937988
235.43761 1179.2753 99.937988
240.66948 1179.2753 99.937988
248.04411 1170.2072 124.33423
253.32158 1170.2072 124.33423
258.59924 1170.2072 124.33423
263.87668 1170.2072 124.33423
269.15411 1170.2072 124.33423
276.89346 1160.7905 149.6687
284.72726 1151.3737 175.00342
292.75064 1141.6082 201.27637
-216.37889 1165.3492 122.27222
-211.10133 1165.3492 122.27222
-205.82379 1165.3492 122.27222
-200.54623 1165.3492 122.27222
-197.02036 1155.8889 147.58813
-191.69547 1155.8889 147.58813
-186.37057 1155.8889 147.58813
-181.04568 1155.8889 147.58813
-175.72078 1155.8889 147.58813
-170.396 1155.8889 147.58813
-165.07111 1155.8889 147.58813
-159.7462 1155.8889 147.58813
-154.42131 1155.8889 147.58813
-147.7709 1165.3492 122.27222
-142.49345 1165.3492 122.27222
-137.21588 1165.3492 122.27222
-130.79868 1174.4592 97.893799
-125.5667 1174.4592 97.893799
-120.33474 1174.4592 97.893799
-114.09996 1183.5691 73.515381
-108.91359 1183.5691 73.515381
-103.7272 1183.5691 73.515381
-98.540825 1183.5691 73.515381
-93.354446 1183.5691 73.515381
-88.168159 1183.5691 73.515381
-82.280449 1192.3286 50.074463
-77.137901 1192.3286 50.074463
-71.995354 1192.3286 50.074463
-66.852806 1192.3286 50.074463
-61.710361 1192.3286 50.074463
-56.567814 1192.3286 50.074463
-51.42527 1192.3286 50.074463
-46.282722 1192.3286 50.074463
-41.140175 1192.3286 50.074463
-35.997726 1192.3286 50.074463
-30.855181 1192.3286 50.074463
-25.712635 1192.3286 50.074463
-20.394754 1201.0883 26.633545
-15.296041 1201.0883 26.633545
-10.197426 1201.0883 26.633545
-5.1425467 1192.3286 50.074463
0 1192.3286 50.074463
5.1424484 1192.3286 50.074463
10.285093 1192.3286 50.074463
15.559041 1183.5691 73.515381
20.74552 1183.5691 73.515381
25.712635 1192.3286 50.074463
30.855083 1192.3286 50.074463
35.997726 1192.3286 50.074463
40.789509 1201.0883 26.633545
45.888317 1201.0883 26.633545
50.986935 1201.0883 26.633545
56.085552 1201.0883 26.633545
61.184364 1201.0883 26.633545
66.282974 1201.0883 26.633545
71.381783 1201.0883 26.633545
77.137901 1192.3286 50.074463
81.579018 1201.0883 26.633545
86.677826 1201.0883 26.633545
91.776451 1201.0883 26.633545
97.708092 1192.3286 50.074463
102.85054 1192.3286 50.074463
107.99298 1192.3286 50.074463
113.13563 1192.3286 50.074463
118.27808 1192.3286 50.074463
123.42072 1192.3286 50.074463
128.56317 1192.3286 50.074463
133.70561 1192.3286 50.074463
138.84827 1192.3286 50.074463
143.99071 1192.3286 50.074463
149.13335 1192.3286 50.074463
154.2758 1192.3286 50.074463
160.7771 1183.5691 73.515381
165.96358 1183.5691 73.515381
171.14984 1183.5691 73.515381
176.33632 1183.5691 73.515381
183.11813 1174.4592 97.893799
188.35001 1174.4592 97.893799
193.58208 1174.4592 97.893799
198.81393 1174.4592 97.893799
204.04601 1174.4592 97.893799
209.27788 1174.4592 97.893799
214.50974 1174.4592 97.893799
221.65645 1165.3492 122.27222
224.97366 1174.4592 97.893799
230.20573 1174.4592 97.893799
235.43761 1174.4592 97.893799
240.66948 1174.4592 97.893799
248.04411 1165.3492 122.27222
253.32158 1165.3492 122.27222
258.59924 1165.3492 122.27222
263.87668 1165.3492 122.27222
269.15411 1165.3492 122.27222
276.89346 1155.8889 147.58813
282.21826 1155.8889 147.58813
292.75064 1136.6179 199.15796
-216.37889 1160.4912 120.20996
-211.10133 1160.4912 120.20996
-205.82379 1160.4912 120.20996
-200.54623 1160.4912 120.20996
-197.02036 1150.9873 145.50757
-191.69547 1150.9873 145.50757
-186.37057 1150.9873 145.50757
-181.04568 1150.9873 145.50757
-175.72078 1150.9873 145.50757
-170.396 1150.9873 145.50757
-165.07111 1150.9873 145.50757
-159.7462 1150.9873 145.50757
-154.42131 1150.9873 145.50757
-147.7709 1160.4912 120.20996
-142.49345 1160.4912 120.20996
-137.21588 1160.4912 120.20996
-131.93834 1160.4912 120.20996
-125.5667 1169.6432 95.849365
-120.33474 1169.6432 95.849365
-114.09996 1178.7949 71.48877
-108.91359 1178.7949 71.48877
-103.7272 1178.7949 71.48877
-98.540825 1178.7949 71.48877
-93.354446 1178.7949 71.48877
-88.168159 1178.7949 71.48877
-82.280449 1187.595 48.065186
-77.137901 1187.595 48.065186
-71.995354 1187.595 48.065186
-66.852806 1187.595 48.065186
-61.710361 1187.595 48.065186
-56.567814 1187.595 48.065186
-51.42527 1187.595 48.065186
-46.282722 1187.595 48.065186
-41.140175 1187.595 48.065186
-35.997726 1187.595 48.065186
-30.855181 1187.595 48.065186
-25.712635 1187.595 48.065186
-20.394754 1196.3949 24.641357
-15.296041 1196.3949 24.641357
-10.197426 1196.3949 24.641357
-5.1425467 1187.595 48.065186
0 1187.595 48.065186
5.1424484 1187.595 48.065186
10.285093 1187.595 48.065186
15.559041 1178.7949 71.48877
20.74552 1178.7949 71.48877
25.712635 1187.595 48.065186
30.855083 1187.595 48.065186
35.997726 1187.595 48.065186
40.789509 1196.3949 24.641357
45.888317 1196.3949 24.641357
50.986935 1196.3949 24.641357
56.085552 1196.3949 24.641357
61.184364 1196.3949 24.641357
66.282974 1196.3949 24.641357
71.381783 1196.3949 24.641357
77.137901 1187.595 48.065186
81.579018 1196.3949 24.641357
86.677826 1196.3949 24.641357
91.776451 1196.3949 24.641357
97.708092 1187.595 48.065186
102.85054 1187.595 48.065186
107.99298 1187.595 48.065186
113.13563 1187.595 48.065186
118.27808 1187.595 48.065186
123.42072 1187.595 48.065186
128.56317 1187.595 48.065186
133.70561 1187.595 48.065186
138.84827 1187.595 48.065186
143.99071 1187.595 48.065186
149.13335 1187.595 48.065186
154.2758 1187.595 48.065186
159.41826 1187.595 48.065186
165.96358 1178.7949 71.48877
171.14984 1178.7949 71.48877
176.33632 1178.7949 71.48877
183.11813 1169.6432 95.849365
188.35001 1169.6432 95.849365
193.58208 1169.6432 95.849365
198.81393 1169.6432 95.849365
204.04601 1169.6432 95.849365
209.27788 1169.6432 95.849365
214.50974 1169.6432 95.849365
221.65645 1160.4912 120.20996
226.93391 1160.4912 120.20996
232.21156 1160.4912 120.20996
237.48901 1160.4912 120.20996
242.76645 1160.4912 120.20996
248.04411 1160.4912 120.20996
253.32158 1160.4912 120.20996
258.59924 1160.4912 120.20996
263.87668 1160.4912 120.20996
269.15411 1160.4912 120.20996
276.89346 1150.9873 145.50757
282.21826 1150.9873 145.50757
-216.37889 1155.6332 118.14795
-211.10133 1155.6332 118.14795
-205.82379 1155.6332 118.14795
-200.54623 1155.6332 118.14795
-197.02036 1146.0858 143.427
-191.69547 1146.0858 143.427
-186.37057 1146.0858 143.427
-181.04568 1146.0858 143.427
-175.72078 1146.0858 143.427
-170.396 1146.0858 143.427
-165.07111 1146.0858 143.427
-159.7462 1146.0858 143.427
-154.42131 1146.0858 143.427
-149.09642 1146.0858 143.427
-142.49345 1155.6332 118.14795
-137.21588 1155.6332 118.14795
-131.93834 1155.6332 118.14795
-126.66079 1155.6332 118.14795
-120.33474 1164.8271 93.805176
-115.10287 1164.8271 93.805176
-109.87091 1164.8271 93.805176
-103.7272 1174.0209 69.462402
-98.540825 1174.0209 69.462402
-93.354446 1174.0209 69.462402
-88.168159 1174.0209 69.462402
-82.981789 1174.0209 69.462402
-77.137901 1182.8612 46.055664
-71.995354 1182.8612 46.055664
-66.852806 1182.8612 46.055664
-61.710361 1182.8612 46.055664
-56.567814 1182.8612 46.055664
-51.42527 1182.8612 46.055664
-46.282722 1182.8612 46.055664
-41.140175 1182.8612 46.055664
-35.997726 1182.8612 46.055664
-30.855181 1182.8612 46.055664
-25.712635 1182.8612 46.055664
-20.394754 1191.7015 22.64917
-15.296041 1191.7015 22.64917
-10.197426 1191.7015 22.64917
-5.0987129 1191.7015 22.64917
0 1182.8612 46.055664
5.1424484 1182.8612 46.055664
10.285093 1182.8612 46.055664
15.559041 1174.0209 69.462402
20.74552 1174.0209 69.462402
25.712635 1182.8612 46.055664
30.855083 1182.8612 46.055664
35.997726 1182.8612 46.055664
40.789509 1191.7015 22.64917
45.888317 1191.7015 22.64917
50.986935 1191.7015 22.64917
56.085552 1191.7015 22.64917
61.184364 1191.7015 22.64917
66.282974 1191.7015 22.64917
71.381783 1191.7015 22.64917
77.137901 1182.8612 46.055664
82.28035 1182.8612 46.055664
86.677826 1191.7015 22.64917
91.776451 1191.7015 22.64917
97.708092 1182.8612 46.055664
102.85054 1182.8612 46.055664
107.99298 1182.8612 46.055664
113.13563 1182.8612 46.055664
118.27808 1182.8612 46.055664
123.42072 1182.8612 46.055664
128.56317 1182.8612 46.055664
133.70561 1182.8612 46.055664
138.84827 1182.8612 46.055664
143.99071 1182.8612 46.055664
149.13335 1182.8612 46.055664
154.2758 1182.8612 46.055664
159.41826 1182.8612 46.055664
165.96358 1174.0209 69.462402
171.14984 1174.0209 69.462402
176.33632 1174.0209 69.462402
181.52261 1174.0209 69.462402
188.35001 1164.8271 93.805176
193.58208 1164.8271 93.805176
198.81393 1164.8271 93.805176
204.04601 1164.8271 93.805176
209.27788 1164.8271 93.805176
214.50974 1164.8271 93.805176
221.65645 1155.6332 118.14795
226.93391 1155.6332 118.14795
230.20573 1164.8271 93.805176
235.43761 1164.8271 93.805176
240.66948 1164.8271 93.805176
248.04411 1155.6332 118.14795
253.32158 1155.6332 118.14795
258.59924 1155.6332 118.14795
263.87668 1155.6332 118.14795
271.56848 1146.0858 143.427
276.89346 1146.0858 143.427
282.21826 1146.0858 143.427
292.75064 1126.6372 194.92139
-216.37889 1150.7751 116.08594
-211.10133 1150.7751 116.08594
-205.82379 1150.7751 116.08594
-200.54623 1150.7751 116.08594
-197.02036 1141.1842 141.34619
-191.69547 1141.1842 141.34619
-186.37057 1141.1842 141.34619
-181.04568 1141.1842 141.34619
-175.72078 1141.1842 141.34619
-170.396 1141.1842 141.34619
-165.07111 1141.1842 141.34619
-159.7462 1141.1842 141.34619
-154.42131 1141.1842 141.34619
-149.09642 1141.1842 141.34619
-143.77162 1141.1842 141.34619
-137.21588 1150.7751 116.08594
-131.93834 1150.7751 116.08594
-126.66079 1150.7751 116.08594
-120.33474 1160.011 91.760986
-115.10287 1160.011 91.760986
-109.87091 1160.011 91.760986
-103.7272 1169.2468 67.435791
-98.540825 1169.2468 67.435791
-93.354446 1169.2468 67.435791
-88.168159 1169.2468 67.435791
-82.981789 1169.2468 67.435791
-77.795403 1169.2468 67.435791
-71.995354 1178.1274 44.046387
-66.852806 1178.1274 44.046387
-61.710361 1178.1274 44.046387
-56.567814 1178.1274 44.046387
-51.42527 1178.1274 44.046387
-46.282722 1178.1274 44.046387
-41.140175 1178.1274 44.046387
-35.997726 1178.1274 44.046387
-30.855181 1178.1274 44.046387
-25.712635 1178.1274 44.046387
-20.394754 1187.0081 20.656982
-15.296041 1187.0081 20.656982
-10.197426 1187.0081 20.656982
-5.0987129 1187.0081 20.656982
0 1178.1274 44.046387
5.1424484 1178.1274 44.046387
10.285093 1178.1274 44.046387
15.559041 1169.2468 67.435791
20.74552 1169.2468 67.435791
25.712635 1178.1274 44.046387
30.855083 1178.1274 44.046387
35.997726 1178.1274 44.046387
40.789509 1187.0081 20.656982
45.888317 1187.0081 20.656982
50.986935 1187.0081 20.656982
56.085552 1187.0081 20.656982
61.184364 1187.0081 20.656982
66.282974 1187.0081 20.656982
71.995453 1178.1274 44.046387
77.137901 1178.1274 44.046387
82.28035 1178.1274 44.046387
87.422989 1178.1274 44.046387
92.565445 1178.1274 44.046387
97.708092 1178.1274 44.046387
102.85054 1178.1274 44.046387
107.99298 1178.1274 44.046387
113.13563 1178.1274 44.046387
118.27808 1178.1274 44.046387
123.42072 1178.1274 44.046387
128.56317 1178.1274 44.046387
133.70561 1178.1274 44.046387
138.84827 1178.1274 44.046387
143.99071 1178.1274 44.046387
149.13335 1178.1274 44.046387
154.2758 1178.1274 44.046387
160.7771 1169.2468 67.435791
165.96358 1169.2468 67.435791
171.14984 1169.2468 67.435791
176.33632 1169.2468 67.435791
181.52261 1169.2468 67.435791
188.35001 1160.011 91.760986
193.58208 1160.011 91.760986
198.81393 1160.011 91.760986
204.04601 1160.011 91.760986
209.27788 1160.011 91.760986
214.50974 1160.011 91.760986
221.65645 1150.7751 116.08594
226.93391 1150.7751 116.08594
230.20573 1160.011 91.760986
235.43761 1160.011 91.760986
240.66948 1160.011 91.760986
248.04411 1150.7751 116.08594
253.32158 1150.7751 116.08594
258.59924 1150.7751 116.08594
263.87668 1150.7751 116.08594
269.15411 1150.7751 116.08594
274.43176 1150.7751 116.08594
282.21826 1141.1842 141.34619
290.09964 1131.593 166.60693
295.47174 1131.593 166.60693
-211.10133 1145.9171 114.02368
-205.82379 1145.9171 114.02368
-200.54623 1145.9171 114.02368
-197.02036 1136.2826 139.26562
-191.69547 1136.2826 139.26562
-186.37057 1136.2826 139.26562
-181.04568 1136.2826 139.26562
-175.72078 1136.2826 139.26562
-170.396 1136.2826 139.26562
-165.07111 1136.2826 139.26562
-159.7462 1136.2826 139.26562
-154.42131 1136.2826 139.26562
-149.09642 1136.2826 139.26562
-143.77162 1136.2826 139.26562
-138.44673 1136.2826 139.26562
-133.12184 1136.2826 139.26562
-126.66079 1145.9171 114.02368
-121.38322 1145.9171 114.02368
-115.10287 1155.1949 89.716553
-109.87091 1155.1949 89.716553
-103.7272 1164.4727 65.409424
-98.540825 1164.4727 65.409424
-93.354446 1164.4727 65.409424
-88.168159 1164.4727 65.409424
-82.981789 1164.4727 65.409424
-77.795403 1164.4727 65.409424
-71.995354 1173.3937 42.037109
-66.852806 1173.3937 42.037109
-61.710361 1173.3937 42.037109
-56.567814 1173.3937 42.037109
-51.42527 1173.3937 42.037109
-46.282722 1173.3937 42.037109
-41.140175 1173.3937 42.037109
-35.997726 1173.3937 42.037109
-30.855181 1173.3937 42.037109
-25.712635 1173.3937 42.037109
-20.394754 1182.3147 18.664795
-15.296041 1182.3147 18.664795
-10.197426 1182.3147 18.664795
-5.0987129 1182.3147 18.664795
0 1173.3937 42.037109
5.1424484 1173.3937 42.037109
10.285093 1173.3937 42.037109
15.559041 1164.4727 65.409424
20.74552 1164.4727 65.409424
25.931801 1164.4727 65.409424
30.855083 1173.3937 42.037109
35.997726 1173.3937 42.037109
41.140175 1173.3937 42.037109
46.282822 1173.3937 42.037109
51.42527 1173.3937 42.037109
56.085552 1182.3147 18.664795
61.184364 1182.3147 18.664795
66.282974 1182.3147 18.664795
71.995453 1173.3937 42.037109
77.137901 1173.3937 42.037109
82.28035 1173.3937 42.037109
87.422989 1173.3937 42.037109
92.565445 1173.3937 42.037109
97.708092 1173.3937 42.037109
102.85054 1173.3937 42.037109
107.99298 1173.3937 42.037109
113.13563 1173.3937 42.037109
118.27808 1173.3937 42.037109
123.42072 1173.3937 42.037109
128.56317 1173.3937 42.037109
133.70561 1173.3937 42.037109
138.84827 1173.3937 42.037109
143.99071 1173.3937 42.037109
149.13335 1173.3937 42.037109
154.2758 1173.3937 42.037109
160.7771 1164.4727 65.409424
165.96358 1164.4727 65.409424
171.14984 1164.4727 65.409424
176.33632 1164.4727 65.409424
183.11813 1155.1949 89.716553
188.35001 1155.1949 89.716553
193.58208 1155.1949 89.716553
198.81393 1155.1949 89.716553
204.04601 1155.1949 89.716553
209.27788 1155.1949 89.716553
214.50974 1155.1949 89.716553
221.65645 1145.9171 114.02368
226.93391 1145.9171 114.02368
230.20573 1155.1949 89.716553
235.43761 1155.1949 89.716553
240.66948 1155.1949 89.716553
248.04411 1145.9171 114.02368
253.32158 1145.9171 114.02368
258.59924 1145.9171 114.02368
263.87668 1145.9171 114.02368
269.15411 1145.9171 114.02368
274.43176 1145.9171 114.02368
282.21826 1136.2826 139.26562
290.09964 1126.6479 164.50781
295.47174 1126.6479 164.50781
-211.10133 1141.0592 111.96167
-205.82379 1141.0592 111.96167
-202.34515 1131.381 137.18506
-197.02036 1131.381 137.18506
-191.69547 1131.381 137.18506
-186.37057 1131.381 137.18506
-181.04568 1131.381 137.18506
-175.72078 1131.381 137.18506
-170.396 1131.381 137.18506
-165.07111 1131.381 137.18506
-159.7462 1131.381 137.18506
-154.42131 1131.381 137.18506
-149.09642 1131.381 137.18506
-143.77162 1131.381 137.18506
-138.44673 1131.381 137.18506
-133.12184 1131.381 137.18506
-126.66079 1141.0592 111.96167
-121.38322 1141.0592 111.96167
-115.10287 1150.379 87.672363
-109.87091 1150.379 87.672363
-104.63894 1150.379 87.672363
-99.406967 1150.379 87.672363
-93.354446 1159.6986 63.383057
-88.168159 1159.6986 63.383057
-82.981789 1159.6986 63.383057
-77.795403 1159.6986 63.383057
-72.609024 1159.6986 63.383057
-67.422646 1159.6986 63.383057
-61.710361 1168.66 40.027832
-56.567814 1168.66 40.027832
-51.42527 1168.66 40.027832
-46.282722 1168.66 40.027832
-41.140175 1168.66 40.027832
-35.997726 1168.66 40.027832
-30.855181 1168.66 40.027832
-25.712635 1168.66 40.027832
-20.394754 1177.6213 16.672363
-15.296041 1177.6213 16.672363
-10.197426 1177.6213 16.672363
-5.0987129 1177.6213 16.672363
0 1168.66 40.027832
5.1424484 1168.66 40.027832
10.285093 1168.66 40.027832
15.427542 1168.66 40.027832
20.570187 1168.66 40.027832
25.931801 1159.6986 63.383057
30.855083 1168.66 40.027832
35.997726 1168.66 40.027832
41.140175 1168.66 40.027832
46.282822 1168.66 40.027832
51.42527 1168.66 40.027832
56.567715 1168.66 40.027832
61.184364 1177.6213 16.672363
66.282974 1177.6213 16.672363
71.995453 1168.66 40.027832
77.137901 1168.66 40.027832
82.28035 1168.66 40.027832
87.422989 1168.66 40.027832
92.565445 1168.66 40.027832
97.708092 1168.66 40.027832
102.85054 1168.66 40.027832
107.99298 1168.66 40.027832
113.13563 1168.66 40.027832
118.27808 1168.66 40.027832
123.42072 1168.66 40.027832
128.56317 1168.66 40.027832
133.70561 1168.66 40.027832
138.84827 1168.66 40.027832
143.99071 1168.66 40.027832
149.13335 1168.66 40.027832
154.2758 1168.66 40.027832
160.7771 1159.6986 63.383057
165.96358 1159.6986 63.383057
171.14984 1159.6986 63.383057
176.33632 1159.6986 63.383057
183.11813 1150.379 87.672363
188.35001 1150.379 87.672363
193.58208 1150.379 87.672363
198.81393 1150.379 87.672363
204.04601 1150.379 87.672363
209.27788 1150.379 87.672363
214.50974 1150.379 87.672363
221.65645 1141.0592 111.96167
226.93391 1141.0592 111.96167
230.20573 1150.379 87.672363
235.43761 1150.379 87.672363
240.66948 1150.379 87.672363
248.04411 1141.0592 111.96167
253.32158 1141.0592 111.96167
258.59924 1141.0592 111.96167
263.87668 1141.0592 111.96167
269.15411 1141.0592 111.96167
274.43176 1141.0592 111.96167
282.21826 1131.381 137.18506
290.09964 1121.7028 162.40869
295.47174 1121.7028 162.40869
-207.67004 1126.4795 135.10449
-202.34515 1126.4795 135.10449
-197.02036 1126.4795 135.10449
-191.69547 1126.4795 135.10449
-186.37057 1126.4795 135.10449
-181.04568 1126.4795 135.10449
-175.72078 1126.4795 135.10449
-170.396 1126.4795 135.10449
-166.53865 1116.7576 160.30981
-161.16641 1116.7576 160.30981
-155.79417 1116.7576 160.30981
-150.42194 1116.7576 160.30981
-145.04982 1116.7576 160.30981
-139.67758 1116.7576 160.30981
-133.12184 1126.4795 135.10449
-126.66079 1136.2012 109.89966
-121.38322 1136.2012 109.89966
-116.10578 1136.2012 109.89966
-109.87091 1145.563 85.62793
-104.63894 1145.563 85.62793
-99.406967 1145.563 85.62793
-94.175003 1145.563 85.62793
-88.943138 1145.563 85.62793
-82.981789 1154.9246 61.356445
-77.795403 1154.9246 61.356445
-72.609024 1154.9246 61.356445
-67.422646 1154.9246 61.356445
-62.236362 1154.9246 61.356445
-56.567814 1163.9263 38.018311
-51.42527 1163.9263 38.018311
-46.677223 1154.9246 61.356445
-41.140175 1163.9263 38.018311
-35.997726 1163.9263 38.018311
-30.855181 1163.9263 38.018311
-25.712635 1163.9263 38.018311
-20.394754 1172.928 14.680176
-15.296041 1172.928 14.680176
-10.197426 1172.928 14.680176
-5.0987129 1172.928 14.680176
0 1172.928 14.680176
5.0986156 1172.928 14.680176
10.285093 1163.9263 38.018311
15.427542 1163.9263 38.018311
20.570187 1163.9263 38.018311
25.712635 1163.9263 38.018311
30.855083 1163.9263 38.018311
35.997726 1163.9263 38.018311
41.140175 1163.9263 38.018311
46.282822 1163.9263 38.018311
51.42527 1163.9263 38.018311
56.567715 1163.9263 38.018311
61.710361 1163.9263 38.018311
66.852806 1163.9263 38.018311
71.995453 1163.9263 38.018311
77.137901 1163.9263 38.018311
82.28035 1163.9263 38.018311
87.422989 1163.9263 38.018311
92.565445 1163.9263 38.018311
97.708092 1163.9263 38.018311
103.7272 1154.9246 61.356445
107.99298 1163.9263 38.018311
113.13563 1163.9263 38.018311
118.27808 1163.9263 38.018311
123.42072 1163.9263 38.018311
129.65901 1154.9246 61.356445
133.70561 1163.9263 38.018311
138.84827 1163.9263 38.018311
145.21805 1154.9246 61.356445
149.13335 1163.9263 38.018311
154.2758 1163.9263 38.018311
160.7771 1154.9246 61.356445
165.96358 1154.9246 61.356445
171.14984 1154.9246 61.356445
176.33632 1154.9246 61.356445
183.11813 1145.563 85.62793
188.35001 1145.563 85.62793
193.58208 1145.563 85.62793
198.81393 1145.563 85.62793
204.04601 1145.563 85.62793
209.27788 1145.563 85.62793
214.50974 1145.563 85.62793
219.74182 1145.563 85.62793
224.97366 1145.563 85.62793
230.20573 1145.563 85.62793
235.43761 1145.563 85.62793
240.66948 1145.563 85.62793
248.04411 1136.2012 109.89966
253.32158 1136.2012 109.89966
258.59924 1136.2012 109.89966
263.87668 1136.2012 109.89966
269.15411 1136.2012 109.89966
274.43176 1136.2012 109.89966
282.21826 1126.4795 135.10449
290.09964 1116.7576 160.30981
-211.43095 1101.6854 184.33008
-202.34515 1121.5779 133.02393
-197.02036 1121.5779 133.02393
-191.69547 1121.5779 133.02393
-188.02748 1111.8125 158.21069
-182.65524 1111.8125 158.21069
-177.283 1111.8125 158.21069
-171.91087 1111.8125 158.21069
-166.53865 1111.8125 158.21069
-161.16641 1111.8125 158.21069
-155.79417 1111.8125 158.21069
-150.42194 1111.8125 158.21069
-145.04982 1111.8125 158.21069
-139.67758 1111.8125 158.21069
-134.30534 1111.8125 158.21069
-127.79694 1121.5779 133.02393
-121.38322 1131.3431 107.8374
-116.10578 1131.3431 107.8374
-109.87091 1140.7469 83.58374
-104.63894 1140.7469 83.58374
-99.406967 1140.7469 83.58374
-94.175003 1140.7469 83.58374
-88.943138 1140.7469 83.58374
-82.981789 1150.1505 59.330078
-77.795403 1150.1505 59.330078
-72.609024 1150.1505 59.330078
-67.422646 1150.1505 59.330078
-62.236362 1150.1505 59.330078
-57.04998 1150.1505 59.330078
-51.863602 1150.1505 59.330078
-46.677223 1150.1505 59.330078
-41.140175 1159.1925 36.009033
-35.997726 1159.1925 36.009033
-30.855181 1159.1925 36.009033
-25.712635 1159.1925 36.009033
-20.394754 1168.2346 12.687988
-15.296041 1168.2346 12.687988
-10.197426 1168.2346 12.687988
-5.0987129 1168.2346 12.687988
0 1168.2346 12.687988
5.0986156 1168.2346 12.687988
10.285093 1159.1925 36.009033
15.427542 1159.1925 36.009033
20.570187 1159.1925 36.009033
25.712635 1159.1925 36.009033
30.855083 1159.1925 36.009033
35.997726 1159.1925 36.009033
41.140175 1159.1925 36.009033
46.282822 1159.1925 36.009033
51.42527 1159.1925 36.009033
56.567715 1159.1925 36.009033
61.710361 1159.1925 36.009033
66.852806 1159.1925 36.009033
71.995453 1159.1925 36.009033
77.137901 1159.1925 36.009033
82.28035 1159.1925 36.009033
87.422989 1159.1925 36.009033
92.565445 1159.1925 36.009033
97.708092 1159.1925 36.009033
102.85054 1159.1925 36.009033
107.99298 1159.1925 36.009033
113.13563 1159.1925 36.009033
118.27808 1159.1925 36.009033
123.42072 1159.1925 36.009033
129.65901 1150.1505 59.330078
134.84529 1150.1505 59.330078
140.03175 1150.1505 59.330078
145.21805 1150.1505 59.330078
149.13335 1159.1925 36.009033
154.2758 1159.1925 36.009033
160.7771 1150.1505 59.330078
165.96358 1150.1505 59.330078
171.14984 1150.1505 59.330078
176.33632 1150.1505 59.330078
183.11813 1140.7469 83.58374
188.35001 1140.7469 83.58374
193.58208 1140.7469 83.58374
198.81393 1140.7469 83.58374
204.04601 1140.7469 83.58374
209.27788 1140.7469 83.58374
214.50974 1140.7469 83.58374
219.74182 1140.7469 83.58374
224.97366 1140.7469 83.58374
230.20573 1140.7469 83.58374
235.43761 1140.7469 83.58374
240.66948 1140.7469 83.58374
248.04411 1131.3431 107.8374
253.32158 1131.3431 107.8374
258.59924 1131.3431 107.8374
263.87668 1131.3431 107.8374
269.15411 1131.3431 107.8374
276.89346 1121.5779 133.02393
282.21826 1121.5779 133.02393
290.09964 1111.8125 158.21069
295.47174 1111.8125 158.21069
-211.43095 1096.6952 182.21191
-206.00961 1096.6952 182.21191
-198.77194 1106.8673 156.11157
-193.3997 1106.8673 156.11157
-188.02748 1106.8673 156.11157
-182.65524 1106.8673 156.11157
-177.283 1106.8673 156.11157
-171.91087 1106.8673 156.11157
-166.53865 1106.8673 156.11157
-162.63921 1096.6952 182.21191
-157.21788 1096.6952 182.21191
-151.79655 1096.6952 182.21191
-146.37532 1096.6952 182.21191
-139.67758 1106.8673 156.11157
-134.30534 1106.8673 156.11157
-127.79694 1116.6763 130.94336
-121.38322 1126.4852 105.77539
-116.10578 1126.4852 105.77539
-109.87091 1135.9309 81.539551
-104.63894 1135.9309 81.539551
-99.406967 1135.9309 81.539551
-94.175003 1135.9309 81.539551
-88.943138 1135.9309 81.539551
-82.981789 1145.3765 57.303467
-77.795403 1145.3765 57.303467
-72.609024 1145.3765 57.303467
-67.422646 1145.3765 57.303467
-62.236362 1145.3765 57.303467
-57.04998 1145.3765 57.303467
-51.863602 1145.3765 57.303467
-46.677223 1145.3765 57.303467
-41.490841 1145.3765 57.303467
-35.997726 1154.4589 33.999756
-30.855181 1154.4589 33.999756
-25.712635 1154.4589 33.999756
-20.394754 1163.5413 10.695801
-15.296041 1163.5413 10.695801
-10.197426 1163.5413 10.695801
-5.0987129 1163.5413 10.695801
0 1154.4589 33.999756
5.1424484 1154.4589 33.999756
10.285093 1154.4589 33.999756
15.427542 1154.4589 33.999756
20.570187 1154.4589 33.999756
25.712635 1154.4589 33.999756
31.118082 1145.3765 57.303467
35.997726 1154.4589 33.999756
41.140175 1154.4589 33.999756
46.282822 1154.4589 33.999756
51.42527 1154.4589 33.999756
56.567715 1154.4589 33.999756
61.710361 1154.4589 33.999756
66.852806 1154.4589 33.999756
71.995453 1154.4589 33.999756
77.137901 1154.4589 33.999756
82.28035 1154.4589 33.999756
87.422989 1154.4589 33.999756
92.565445 1154.4589 33.999756
97.708092 1154.4589 33.999756
102.85054 1154.4589 33.999756
108.91348 1145.3765 57.303467
113.13563 1154.4589 33.999756
118.27808 1154.4589 33.999756
123.42072 1154.4589 33.999756
128.56317 1154.4589 33.999756
134.84529 1145.3765 57.303467
140.03175 1145.3765 57.303467
145.21805 1145.3765 57.303467
149.13335 1154.4589 33.999756
154.2758 1154.4589 33.999756
160.7771 1145.3765 57.303467
165.96358 1145.3765 57.303467
171.14984 1145.3765 57.303467
176.33632 1145.3765 57.303467
183.11813 1135.9309 81.539551
188.35001 1135.9309 81.539551
193.58208 1135.9309 81.539551
198.81393 1135.9309 81.539551
204.04601 1135.9309 81.539551
209.27788 1135.9309 81.539551
214.50974 1135.9309 81.539551
219.74182 1135.9309 81.539551
224.97366 1135.9309 81.539551
230.20573 1135.9309 81.539551
235.43761 1135.9309 81.539551
240.66948 1135.9309 81.539551
245.90155 1135.9309 81.539551
253.32158 1126.4852 105.77539
258.59924 1126.4852 105.77539
263.87668 1126.4852 105.77539
269.15411 1126.4852 105.77539
274.43176 1126.4852 105.77539
279.70923 1126.4852 105.77539
290.09964 1106.8673 156.11157
295.47174 1106.8673 156.11157
-218.81601 1081.4874 206.17432
-211.43095 1091.7048 180.09351
-206.00961 1091.7048 180.09351
-200.58839 1091.7048 180.09351
-193.3997 1101.9221 154.01245
-188.02748 1101.9221 154.01245
-184.32442 1091.7048 180.09351
-178.90309 1091.7048 180.09351
-173.48186 1091.7048 180.09351
-168.06053 1091.7048 180.09351
-162.63921 1091.7048 180.09351
-157.21788 1091.7048 180.09351
-151.79655 1091.7048 180.09351
-146.37532 1091.7048 180.09351
-140.95399 1091.7048 180.09351
-134.30534 1101.9221 154.01245
-127.79694 1111.7748 128.86279
-122.47205 1111.7748 128.86279
-116.10578 1121.6272 103.71338
-110.82822 1121.6272 103.71338
-105.55067 1121.6272 103.71338
-99.406967 1131.1149 79.495117
-94.175003 1131.1149 79.495117
-88.943138 1131.1149 79.495117
-82.981789 1140.6024 55.2771
-77.795403 1140.6024 55.2771
-72.609024 1140.6024 55.2771
-67.422646 1140.6024 55.2771
-62.236362 1140.6024 55.2771
-57.04998 1140.6024 55.2771
-51.863602 1140.6024 55.2771
-46.677223 1140.6024 55.2771
-41.490841 1140.6024 55.2771
-35.997726 1149.7251 31.990234
-30.855181 1149.7251 31.990234
-25.712635 1149.7251 31.990234
-20.570087 1149.7251 31.990234
-15.427542 1149.7251 31.990234
-10.285093 1149.7251 31.990234
-5.1425467 1149.7251 31.990234
0 1149.7251 31.990234
5.1424484 1149.7251 31.990234
10.285093 1149.7251 31.990234
15.427542 1149.7251 31.990234
20.570187 1149.7251 31.990234
25.712635 1149.7251 31.990234
30.855083 1149.7251 31.990234
35.997726 1149.7251 31.990234
41.140175 1149.7251 31.990234
46.282822 1149.7251 31.990234
51.42527 1149.7251 31.990234
56.567715 1149.7251 31.990234
61.710361 1149.7251 31.990234
66.852806 1149.7251 31.990234
71.995453 1149.7251 31.990234
77.137901 1149.7251 31.990234
82.28035 1149.7251 31.990234
88.168159 1140.6024 55.2771
93.354446 1140.6024 55.2771
98.540924 1140.6024 55.2771
103.7272 1140.6024 55.2771
108.91348 1140.6024 55.2771
113.13563 1149.7251 31.990234
118.27808 1149.7251 31.990234
123.42072 1149.7251 31.990234
128.56317 1149.7251 31.990234
134.84529 1140.6024 55.2771
140.03175 1140.6024 55.2771
145.21805 1140.6024 55.2771
150.40451 1140.6024 55.2771
155.59081 1140.6024 55.2771
160.7771 1140.6024 55.2771
165.96358 1140.6024 55.2771
171.14984 1140.6024 55.2771
177.88628 1131.1149 79.495117
183.11813 1131.1149 79.495117
188.35001 1131.1149 79.495117
193.58208 1131.1149 79.495117
198.81393 1131.1149 79.495117
204.04601 1131.1149 79.495117
209.27788 1131.1149 79.495117
214.50974 1131.1149 79.495117
219.74182 1131.1149 79.495117
224.97366 1131.1149 79.495117
230.20573 1131.1149 79.495117
235.43761 1131.1149 79.495117
240.66948 1131.1149 79.495117
245.90155 1131.1149 79.495117
253.32158 1121.6272 103.71338
258.59924 1121.6272 103.71338
263.87668 1121.6272 103.71338
269.15411 1121.6272 103.71338
274.43176 1121.6272 103.71338
279.70923 1121.6272 103.71338
287.54324 1111.7748 128.86279
292.86804 1111.7748 128.86279
-218.81601 1076.4519 204.03687
-213.3456 1076.4519 204.03687
-207.87517 1076.4519 204.03687
-202.40485 1076.4519 204.03687
-195.16707 1086.7145 177.97534
-189.74574 1086.7145 177.97534
-184.32442 1086.7145 177.97534
-178.90309 1086.7145 177.97534
-173.48186 1086.7145 177.97534
-168.06053 1086.7145 177.97534
-162.63921 1086.7145 177.97534
-157.21788 1086.7145 177.97534
-151.79655 1086.7145 177.97534
-146.37532 1086.7145 177.97534
-140.95399 1086.7145 177.97534
-134.30534 1096.9771 151.91333
-127.79694 1106.8732 126.78223
-122.47205 1106.8732 126.78223
-116.10578 1116.7692 101.65112
-110.82822 1116.7692 101.65112
-105.55067 1116.7692 101.65112
-99.406967 1126.2988 77.450928
-94.175003 1126.2988 77.450928
-88.943138 1126.2988 77.450928
-82.981789 1135.8284 53.250488
-77.795403 1135.8284 53.250488
-72.609024 1135.8284 53.250488
-68.015266 1126.2988 77.450928
-62.236362 1135.8284 53.250488
-57.04998 1135.8284 53.250488
-51.863602 1135.8284 53.250488
-47.087502 1126.2988 77.450928
-41.490841 1135.8284 53.250488
-36.304562 1135.8284 53.250488
-31.118181 1135.8284 53.250488
-25.931801 1135.8284 53.250488
-20.570087 1144.9915 29.980957
-15.427542 1144.9915 29.980957
-10.285093 1144.9915 29.980957
-5.1425467 1144.9915 29.980957
0 1144.9915 29.980957
5.1424484 1144.9915 29.980957
10.285093 1144.9915 29.980957
15.427542 1144.9915 29.980957
20.570187 1144.9915 29.980957
25.712635 1144.9915 29.980957
30.855083 1144.9915 29.980957
35.997726 1144.9915 29.980957
41.140175 1144.9915 29.980957
46.282822 1144.9915 29.980957
51.42527 1144.9915 29.980957
56.567715 1144.9915 29.980957
61.710361 1144.9915 29.980957
66.852806 1144.9915 29.980957
71.995453 1144.9915 29.980957
77.137901 1144.9915 29.980957
82.28035 1144.9915 29.980957
88.168159 1135.8284 53.250488
93.354446 1135.8284 53.250488
98.540924 1135.8284 53.250488
103.7272 1135.8284 53.250488
108.91348 1135.8284 53.250488
114.09996 1135.8284 53.250488
118.27808 1144.9915 29.980957
123.42072 1144.9915 29.980957
128.56317 1144.9915 29.980957
134.84529 1135.8284 53.250488
140.03175 1135.8284 53.250488
145.21805 1135.8284 53.250488
150.40451 1135.8284 53.250488
155.59081 1135.8284 53.250488
162.19028 1126.2988 77.450928
167.42235 1126.2988 77.450928
172.65421 1126.2988 77.450928
177.88628 1126.2988 77.450928
183.11813 1126.2988 77.450928
188.35001 1126.2988 77.450928
193.58208 1126.2988 77.450928
200.54623 1116.7692 101.65112
204.04601 1126.2988 77.450928
209.27788 1126.2988 77.450928
214.50974 1126.2988 77.450928
219.74182 1126.2988 77.450928
224.97366 1126.2988 77.450928
230.20573 1126.2988 77.450928
235.43761 1126.2988 77.450928
240.66948 1126.2988 77.450928
245.90155 1126.2988 77.450928
253.32158 1116.7692 101.65112
258.59924 1116.7692 101.65112
263.87668 1116.7692 101.65112
269.15411 1116.7692 101.65112
274.43176 1116.7692 101.65112
279.70923 1116.7692 101.65112
287.54324 1106.8732 126.78223
292.86804 1106.8732 126.78223
-218.81601 1071.4164 201.89941
-211.43095 1081.7241 175.85693
-206.00961 1081.7241 175.85693
-202.40485 1071.4164 201.89941
-196.93442 1071.4164 201.89941
-189.74574 1081.7241 175.85693
-184.32442 1081.7241 175.85693
-178.90309 1081.7241 175.85693
-173.48186 1081.7241 175.85693
-168.06053 1081.7241 175.85693
-162.63921 1081.7241 175.85693
-157.21788 1081.7241 175.85693
-151.79655 1081.7241 175.85693
-146.37532 1081.7241 175.85693
-140.95399 1081.7241 175.85693
-134.30534 1092.0319 149.81421
-127.79694 1101.9717 124.70166
-122.47205 1101.9717 124.70166
-116.10578 1111.9113 99.589111
-110.82822 1111.9113 99.589111
-105.55067 1111.9113 99.589111
-99.406967 1121.4828 75.406494
-94.175003 1121.4828 75.406494
-88.168159 1131.0543 51.224121
-82.981789 1131.0543 51.224121
-77.795403 1131.0543 51.224121
-72.609024 1131.0543 51.224121
-67.422646 1131.0543 51.224121
-62.236362 1131.0543 51.224121
-57.04998 1131.0543 51.224121
-51.863602 1131.0543 51.224121
-47.087502 1121.4828 75.406494
-41.490841 1131.0543 51.224121
-36.304562 1131.0543 51.224121
-30.855181 1140.2577 27.97168
-25.712635 1140.2577 27.97168
-20.570087 1140.2577 27.97168
-15.427542 1140.2577 27.97168
-10.285093 1140.2577 27.97168
-5.1425467 1140.2577 27.97168
0 1140.2577 27.97168
5.1424484 1140.2577 27.97168
10.285093 1140.2577 27.97168
15.427542 1140.2577 27.97168
20.570187 1140.2577 27.97168
25.712635 1140.2577 27.97168
30.855083 1140.2577 27.97168
35.997726 1140.2577 27.97168
41.140175 1140.2577 27.97168
46.282822 1140.2577 27.97168
51.42527 1140.2577 27.97168
56.567715 1140.2577 27.97168
61.710361 1140.2577 27.97168
66.852806 1140.2577 27.97168
71.995453 1140.2577 27.97168
77.137901 1140.2577 27.97168
82.981682 1131.0543 51.224121
88.168159 1131.0543 51.224121
93.354446 1131.0543 51.224121
98.540924 1131.0543 51.224121
103.7272 1131.0543 51.224121
108.91348 1131.0543 51.224121
114.09996 1131.0543 51.224121
118.27808 1140.2577 27.97168
123.42072 1140.2577 27.97168
128.56317 1140.2577 27.97168
134.84529 1131.0543 51.224121
140.03175 1131.0543 51.224121
145.21805 1131.0543 51.224121
150.40451 1131.0543 51.224121
155.59081 1131.0543 51.224121
162.19028 1121.4828 75.406494
167.42235 1121.4828 75.406494
172.65421 1121.4828 75.406494
177.88628 1121.4828 75.406494
183.11813 1121.4828 75.406494
188.35001 1121.4828 75.406494
193.58208 1121.4828 75.406494
200.54623 1111.9113 99.589111
205.8239 1111.9113 99.589111
209.27788 1121.4828 75.406494
214.50974 1121.4828 75.406494
219.74182 1121.4828 75.406494
224.97366 1121.4828 75.406494
232.21156 1111.9113 99.589111
237.48901 1111.9113 99.589111
242.76645 1111.9113 99.589111
248.04411 1111.9113 99.589111
253.32158 1111.9113 99.589111
258.59924 1111.9113 99.589111
263.87668 1111.9113 99.589111
269.15411 1111.9113 99.589111
274.43176 1111.9113 99.589111
279.70923 1111.9113 99.589111
287.54324 1101.9717 124.70166
292.86804 1101.9717 124.70166
298.19284 1101.9717 124.70166
-218.81601 1066.3809 199.76196
-211.43095 1076.7338 173.73877
-206.00961 1076.7338 173.73877
-202.40485 1066.3809 199.76196
-196.93442 1066.3809 199.76196
-189.74574 1076.7338 173.73877
-184.32442 1076.7338 173.73877
-178.90309 1076.7338 173.73877
-173.48186 1076.7338 173.73877
-168.06053 1076.7338 173.73877
-162.63921 1076.7338 173.73877
-157.21788 1076.7338 173.73877
-151.79655 1076.7338 173.73877
-146.37532 1076.7338 173.73877
-140.95399 1076.7338 173.73877
-134.30534 1087.0868 147.71509
-128.93311 1087.0868 147.71509
-122.47205 1097.0701 122.62085
-116.10578 1107.0532 97.5271
-110.82822 1107.0532 97.5271
-105.55067 1107.0532 97.5271
-99.406967 1116.6667 73.362305
-94.175003 1116.6667 73.362305
-88.168159 1126.2802 49.197754
-82.981789 1126.2802 49.197754
-77.795403 1126.2802 49.197754
-72.609024 1126.2802 49.197754
-67.422646 1126.2802 49.197754
-62.236362 1126.2802 49.197754
-57.04998 1126.2802 49.197754
-51.863602 1126.2802 49.197754
-47.087502 1116.6667 73.362305
-41.490841 1126.2802 49.197754
-36.304562 1126.2802 49.197754
-30.855181 1135.5239 25.962402
-25.712635 1135.5239 25.962402
-20.570087 1135.5239 25.962402
-15.427542 1135.5239 25.962402
-10.285093 1135.5239 25.962402
-5.1425467 1135.5239 25.962402
0 1135.5239 25.962402
5.1424484 1135.5239 25.962402
10.285093 1135.5239 25.962402
15.427542 1135.5239 25.962402
20.570187 1135.5239 25.962402
25.712635 1135.5239 25.962402
30.855083 1135.5239 25.962402
35.997726 1135.5239 25.962402
40.789509 1144.7677 2.7270508
45.888317 1144.7677 2.7270508
50.986935 1144.7677 2.7270508
56.085552 1144.7677 2.7270508
61.710361 1135.5239 25.962402
66.852806 1135.5239 25.962402
71.995453 1135.5239 25.962402
77.137901 1135.5239 25.962402
82.981682 1126.2802 49.197754
88.168159 1126.2802 49.197754
93.354446 1126.2802 49.197754
98.540924 1126.2802 49.197754
103.7272 1126.2802 49.197754
108.91348 1126.2802 49.197754
114.09996 1126.2802 49.197754
118.27808 1135.5239 25.962402
123.42072 1135.5239 25.962402
128.56317 1135.5239 25.962402
134.84529 1126.2802 49.197754
140.03175 1126.2802 49.197754
145.21805 1126.2802 49.197754
150.40451 1126.2802 49.197754
155.59081 1126.2802 49.197754
162.19028 1116.6667 73.362305
167.42235 1116.6667 73.362305
172.65421 1116.6667 73.362305
177.88628 1116.6667 73.362305
183.11813 1116.6667 73.362305
188.35001 1116.6667 73.362305
193.58208 1116.6667 73.362305
200.54623 1107.0532 97.5271
205.8239 1107.0532 97.5271
209.27788 1116.6667 73.362305
214.50974 1116.6667 73.362305
219.74182 1116.6667 73.362305
224.97366 1116.6667 73.362305
232.21156 1107.0532 97.5271
237.48901 1107.0532 97.5271
242.76645 1107.0532 97.5271
248.04411 1107.0532 97.5271
253.32158 1107.0532 97.5271
258.59924 1107.0532 97.5271
263.87668 1107.0532 97.5271
269.15411 1107.0532 97.5271
274.43176 1107.0532 97.5271
279.70923 1107.0532 97.5271
287.54324 1097.0701 122.62085
292.86804 1097.0701 122.62085
300.84387 1087.0868 147.71509
-218.81601 1061.3453 197.62451
-213.3456 1061.3453 197.62451
-207.87517 1061.3453 197.62451
-202.40485 1061.3453 197.62451
-196.93442 1061.3453 197.62451
-189.74574 1071.7434 171.62036
-184.32442 1071.7434 171.62036
-178.90309 1071.7434 171.62036
-173.48186 1071.7434 171.62036
-168.06053 1071.7434 171.62036
-162.63921 1071.7434 171.62036
-157.21788 1071.7434 171.62036
-151.79655 1071.7434 171.62036
-146.37532 1071.7434 171.62036
-140.95399 1071.7434 171.62036
-134.30534 1082.1416 145.61621
-128.93311 1082.1416 145.61621
-123.56087 1082.1416 145.61621
-117.14725 1092.1685 120.54028
-110.82822 1102.1952 95.464844
-105.55067 1102.1952 95.464844
-100.27312 1102.1952 95.464844
-94.175003 1111.8507 71.318115
-88.168159 1121.5061 47.171143
-82.981789 1121.5061 47.171143
-77.795403 1121.5061 47.171143
-72.609024 1121.5061 47.171143
-67.422646 1121.5061 47.171143
-62.236362 1121.5061 47.171143
-57.551434 1111.8507 71.318115
-52.319469 1111.8507 71.318115
-46.677223 1121.5061 47.171143
-41.490841 1121.5061 47.171143
-36.304562 1121.5061 47.171143
-31.118181 1121.5061 47.171143
-25.712635 1130.7903 23.952881
-20.570087 1130.7903 23.952881
-15.427542 1130.7903 23.952881
-10.285093 1130.7903 23.952881
-5.1425467 1130.7903 23.952881
0 1130.7903 23.952881
5.1424484 1130.7903 23.952881
10.37276 1121.5061 47.171143
15.427542 1130.7903 23.952881
20.570187 1130.7903 23.952881
25.712635 1130.7903 23.952881
30.855083 1130.7903 23.952881
35.997726 1130.7903 23.952881
40.789509 1140.0743 0.73486328
45.888317 1140.0743 0.73486328
50.986935 1140.0743 0.73486328
56.085552 1140.0743 0.73486328
61.710361 1130.7903 23.952881
66.852806 1130.7903 23.952881
71.995453 1130.7903 23.952881
77.795403 1121.5061 47.171143
82.981682 1121.5061 47.171143
88.168159 1121.5061 47.171143
93.354446 1121.5061 47.171143
98.540924 1121.5061 47.171143
103.7272 1121.5061 47.171143
108.91348 1121.5061 47.171143
114.09996 1121.5061 47.171143
118.27808 1130.7903 23.952881
123.42072 1130.7903 23.952881
128.56317 1130.7903 23.952881
134.84529 1121.5061 47.171143
140.03175 1121.5061 47.171143
145.21805 1121.5061 47.171143
150.40451 1121.5061 47.171143
155.59081 1121.5061 47.171143
162.19028 1111.8507 71.318115
167.42235 1111.8507 71.318115
172.65421 1111.8507 71.318115
179.43622 1102.1952 95.464844
184.71367 1102.1952 95.464844
189.99112 1102.1952 95.464844
195.26877 1102.1952 95.464844
200.54623 1102.1952 95.464844
205.8239 1102.1952 95.464844
209.27788 1111.8507 71.318115
214.50974 1111.8507 71.318115
221.65645 1102.1952 95.464844
226.93391 1102.1952 95.464844
232.21156 1102.1952 95.464844
237.48901 1102.1952 95.464844
242.76645 1102.1952 95.464844
248.04411 1102.1952 95.464844
253.32158 1102.1952 95.464844
258.59924 1102.1952 95.464844
263.87668 1102.1952 95.464844
269.15411 1102.1952 95.464844
274.43176 1102.1952 95.464844
279.70923 1102.1952 95.464844
287.54324 1092.1685 120.54028
292.86804 1092.1685 120.54028
300.84387 1082.1416 145.61621
306.21622 1082.1416 145.61621
-218.81601 1056.3098 195.48706
-213.3456 1056.3098 195.48706
-207.87517 1056.3098 195.48706
-202.40485 1056.3098 195.48706
-196.93442 1056.3098 195.48706
-191.464 1056.3098 195.48706
-185.99359 1056.3098 195.48706
-178.90309 1066.7532 169.5022
-173.48186 1066.7532 169.5022
-168.06053 1066.7532 169.5022
-162.63921 1066.7532 169.5022
-157.21788 1066.7532 169.5022
-151.79655 1066.7532 169.5022
-146.37532 1066.7532 169.5022
-140.95399 1066.7532 169.5022
-135.53267 1066.7532 169.5022
-128.93311 1077.1964 143.51709
-123.56087 1077.1964 143.51709
-117.14725 1087.267 118.45972
-111.82236 1087.267 118.45972
-105.55067 1097.3373 93.402832
-100.27312 1097.3373 93.402832
-94.175003 1107.0347 69.273682
-88.943138 1107.0347 69.273682
-83.711174 1107.0347 69.273682
-77.795403 1116.7321 45.144775
-72.609024 1116.7321 45.144775
-67.422646 1116.7321 45.144775
-62.236362 1116.7321 45.144775
-57.551434 1107.0347 69.273682
-52.319469 1107.0347 69.273682
-46.677223 1116.7321 45.144775
-41.490841 1116.7321 45.144775
-36.304562 1116.7321 45.144775
-31.118181 1116.7321 45.144775
-25.712635 1126.0565 21.943604
-20.570087 1126.0565 21.943604
-15.427542 1126.0565 21.943604
-10.285093 1126.0565 21.943604
-5.1425467 1126.0565 21.943604
0 1126.0565 21.943604
5.1424484 1126.0565 21.943604
10.285093 1126.0565 21.943604
15.427542 1126.0565 21.943604
20.570187 1126.0565 21.943604
25.712635 1126.0565 21.943604
30.855083 1126.0565 21.943604
35.997726 1126.0565 21.943604
40.789509 1135.381 -1.2575684
45.888317 1135.381 -1.2575684
51.42527 1126.0565 21.943604
56.567715 1126.0565 21.943604
61.710361 1126.0565 21.943604
66.852806 1126.0565 21.943604
72.609123 1116.7321 45.144775
77.795403 1116.7321 45.144775
82.981682 1116.7321 45.144775
88.168159 1116.7321 45.144775
93.354446 1116.7321 45.144775
98.540924 1116.7321 45.144775
103.7272 1116.7321 45.144775
108.91348 1116.7321 45.144775
114.09996 1116.7321 45.144775
118.27808 1126.0565 21.943604
123.42072 1126.0565 21.943604
128.56317 1126.0565 21.943604
134.84529 1116.7321 45.144775
140.03175 1116.7321 45.144775
145.21805 1116.7321 45.144775
150.40451 1116.7321 45.144775
156.9584 1107.0347 69.273682
162.19028 1107.0347 69.273682
167.42235 1107.0347 69.273682
172.65421 1107.0347 69.273682
179.43622 1097.3373 93.402832
184.71367 1097.3373 93.402832
189.99112 1097.3373 93.402832
195.26877 1097.3373 93.402832
200.54623 1097.3373 93.402832
205.8239 1097.3373 93.402832
211.10133 1097.3373 93.402832
216.37878 1097.3373 93.402832
221.65645 1097.3373 93.402832
226.93391 1097.3373 93.402832
232.21156 1097.3373 93.402832
237.48901 1097.3373 93.402832
242.76645 1097.3373 93.402832
248.04411 1097.3373 93.402832
253.32158 1097.3373 93.402832
258.59924 1097.3373 93.402832
263.87668 1097.3373 93.402832
269.15411 1097.3373 93.402832
274.43176 1097.3373 93.402832
282.21826 1087.267 118.45972
287.54324 1087.267 118.45972
292.86804 1087.267 118.45972
300.84387 1077.1964 143.51709
306.21622 1077.1964 143.51709
-218.81601 1051.2743 193.34961
-213.3456 1051.2743 193.34961
-207.87517 1051.2743 193.34961
-202.40485 1051.2743 193.34961
-196.93442 1051.2743 193.34961
-189.74574 1061.7628 167.38403
-184.32442 1061.7628 167.38403
-178.90309 1061.7628 167.38403
-173.48186 1061.7628 167.38403
-168.06053 1061.7628 167.38403
-162.63921 1061.7628 167.38403
-157.21788 1061.7628 167.38403
-151.79655 1061.7628 167.38403
-146.37532 1061.7628 167.38403
-140.95399 1061.7628 167.38403
-135.53267 1061.7628 167.38403
-128.93311 1072.2513 141.41797
-123.56087 1072.2513 141.41797
-117.14725 1082.3654 116.37915
-111.82236 1082.3654 116.37915
-105.55067 1092.4792 91.34082
-100.27312 1092.4792 91.34082
-94.99556 1092.4792 91.34082
-88.943138 1102.2188 67.229492
-83.711174 1102.2188 67.229492
-78.479202 1102.2188 67.229492
-73.247231 1102.2188 67.229492
-67.422646 1111.958 43.118164
-62.236362 1111.958 43.118164
-57.551434 1102.2188 67.229492
-52.319469 1102.2188 67.229492
-46.677223 1111.958 43.118164
-41.490841 1111.958 43.118164
-36.304562 1111.958 43.118164
-31.118181 1111.958 43.118164
-25.931801 1111.958 43.118164
-20.570087 1121.3229 19.934326
-15.427542 1121.3229 19.934326
-10.285093 1121.3229 19.934326
-5.1425467 1121.3229 19.934326
0 1121.3229 19.934326
5.1424484 1121.3229 19.934326
10.285093 1121.3229 19.934326
15.427542 1121.3229 19.934326
20.570187 1121.3229 19.934326
25.712635 1121.3229 19.934326
30.855083 1121.3229 19.934326
35.997726 1121.3229 19.934326
41.140175 1121.3229 19.934326
46.282822 1121.3229 19.934326
51.42527 1121.3229 19.934326
56.567715 1121.3229 19.934326
61.710361 1121.3229 19.934326
66.852806 1121.3229 19.934326
72.609123 1111.958 43.118164
77.795403 1111.958 43.118164
82.981682 1111.958 43.118164
88.168159 1111.958 43.118164
93.354446 1111.958 43.118164
98.540924 1111.958 43.118164
103.7272 1111.958 43.118164
108.91348 1111.958 43.118164
114.09996 1111.958 43.118164
119.28625 1111.958 43.118164
124.47272 1111.958 43.118164
129.65901 1111.958 43.118164
134.84529 1111.958 43.118164
140.03175 1111.958 43.118164
145.21805 1111.958 43.118164
151.72653 1102.2188 67.229492
156.9584 1102.2188 67.229492
162.19028 1102.2188 67.229492
167.42235 1102.2188 67.229492
172.65421 1102.2188 67.229492
179.43622 1092.4792 91.34082
184.71367 1092.4792 91.34082
189.99112 1092.4792 91.34082
195.26877 1092.4792 91.34082
200.54623 1092.4792 91.34082
205.8239 1092.4792 91.34082
211.10133 1092.4792 91.34082
216.37878 1092.4792 91.34082
221.65645 1092.4792 91.34082
226.93391 1092.4792 91.34082
232.21156 1092.4792 91.34082
237.48901 1092.4792 91.34082
242.76645 1092.4792 91.34082
248.04411 1092.4792 91.34082
253.32158 1092.4792 91.34082
258.59924 1092.4792 91.34082
263.87668 1092.4792 91.34082
269.15411 1092.4792 91.34082
274.43176 1092.4792 91.34082
282.21826 1082.3654 116.37915
287.54324 1082.3654 116.37915
292.86804 1082.3654 116.37915
298.19284 1082.3654 116.37915
306.21622 1072.2513 141.41797
-224.28642 1046.2388 191.21216
-218.81601 1046.2388 191.21216
-213.3456 1046.2388 191.21216
-207.87517 1046.2388 191.21216
-202.40485 1046.2388 191.21216
-196.93442 1046.2388 191.21216
-189.74574 1056.7725 165.26562
-184.32442 1056.7725 165.26562
-178.90309 1056.7725 165.26562
-173.48186 1056.7725 165.26562
-168.06053 1056.7725 165.26562
-162.63921 1056.7725 165.26562
-158.64159 1046.2388 191.21216
-153.17117 1046.2388 191.21216
-147.70084 1046.2388 191.21216
-142.23042 1046.2388 191.21216
-135.53267 1056.7725 165.26562
-128.93311 1067.3062 139.31885
-123.56087 1067.3062 139.31885
-117.14725 1077.4637 114.29858
-111.82236 1077.4637 114.29858
-106.49747 1077.4637 114.29858
-100.27312 1087.6213 89.278564
-94.99556 1087.6213 89.278564
-88.943138 1097.4027 65.185303
-83.711174 1097.4027 65.185303
