ply
format ascii 1.0
comment PCL generated
element vertex 1607
property float x
property float y
property float z
element camera 0
property float view_px
property float view_py
property float view_pz
property float x_axisx
property float x_axisy
property float x_axisz
property float y_axisx
property float y_axisy
property float y_axisz
property float z_axisx
property float z_axisy
property float z_axisz
property float focal
property float scalex
property float scaley
property float centerx
property float centery
property int viewportx
property int viewporty
property float k1
property float k2
end_header
164.5609 1523.6891 190.72852
-5.1863799 1512.9799 213.3418
0 1518.9553 188.71924
5.0986156 1524.9309 164.09668
10.109758 1530.9064 139.47388
15.038302 1536.6427 115.83643
20.051197 1536.6427 115.83643
25.0639 1536.6427 115.83643
30.076605 1536.6427 115.83643
35.089497 1536.6427 115.83643
40.102203 1536.6427 115.83643
45.493816 1530.9064 139.47388
50.548603 1530.9064 139.47388
55.603386 1530.9064 139.47388
60.658363 1530.9064 139.47388
65.713142 1530.9064 139.47388
70.76812 1530.9064 139.47388
75.191704 1536.6427 115.83643
80.204407 1536.6427 115.83643
85.2173 1536.6427 115.83643
90.98745 1530.9064 139.47388
96.042427 1530.9064 139.47388
101.09721 1530.9064 139.47388
106.15199 1530.9064 139.47388
111.20696 1530.9064 139.47388
116.26175 1530.9064 139.47388
122.36873 1524.9309 164.09668
127.46734 1524.9309 164.09668
132.56595 1524.9309 164.09668
137.66476 1524.9309 164.09668
143.99071 1518.9553 188.71924
149.13335 1518.9553 188.71924
154.2758 1518.9553 188.71924
159.41826 1518.9553 188.71924
165.96358 1512.9799 213.3418
171.14984 1512.9799 213.3418
-10.37276 1508.2058 211.31543
-5.1863799 1508.2058 211.31543
0 1514.2217 186.70996
5.0547829 1526.2534 137.49902
10.109758 1526.2534 137.49902
15.164542 1526.2534 137.49902
20.051197 1532.0284 113.87769
25.0639 1532.0284 113.87769
30.076605 1532.0284 113.87769
35.089497 1532.0284 113.87769
40.102203 1532.0284 113.87769
45.493816 1526.2534 137.49902
50.548603 1526.2534 137.49902
55.603386 1526.2534 137.49902
60.658363 1526.2534 137.49902
65.713142 1526.2534 137.49902
70.76812 1526.2534 137.49902
75.191704 1532.0284 113.87769
80.204407 1532.0284 113.87769
85.2173 1532.0284 113.87769
90.98745 1526.2534 137.49902
96.042427 1526.2534 137.49902
101.09721 1526.2534 137.49902
106.15199 1526.2534 137.49902
111.20696 1526.2534 137.49902
116.26175 1526.2534 137.49902
122.36873 1520.2375 162.10449
127.46734 1520.2375 162.10449
132.56595 1520.2375 162.10449
137.66476 1520.2375 162.10449
142.76338 1520.2375 162.10449
149.13335 1514.2217 186.70996
154.2758 1514.2217 186.70996
159.41826 1514.2217 186.70996
165.96358 1508.2058 211.31543
171.14984 1508.2058 211.31543
-10.285093 1509.4879 184.70068
-5.1425467 1509.4879 184.70068
0 1515.5442 160.1123
5.0547829 1521.6003 135.52393
10.109758 1521.6003 135.52393
15.164542 1521.6003 135.52393
20.051197 1527.4142 111.91919
25.0639 1527.4142 111.91919
30.076605 1527.4142 111.91919
35.089497 1527.4142 111.91919
40.102203 1527.4142 111.91919
45.493816 1521.6003 135.52393
50.548603 1521.6003 135.52393
55.603386 1521.6003 135.52393
60.658363 1521.6003 135.52393
65.713142 1521.6003 135.52393
70.76812 1521.6003 135.52393
75.191704 1527.4142 111.91919
80.204407 1527.4142 111.91919
85.2173 1527.4142 111.91919
90.98745 1521.6003 135.52393
95.242905 1527.4142 111.91919
100.2556 1527.4142 111.91919
106.15199 1521.6003 135.52393
111.20696 1521.6003 135.52393
116.26175 1521.6003 135.52393
121.31673 1521.6003 135.52393
126.37151 1521.6003 135.52393
131.42628 1521.6003 135.52393
137.66476 1515.5442 160.1123
142.76338 1515.5442 160.1123
147.86218 1515.5442 160.1123
154.2758 1509.4879 184.70068
159.41826 1509.4879 184.70068
164.5609 1509.4879 184.70068
169.70334 1509.4879 184.70068
174.84598 1509.4879 184.70068
-10.285093 1504.7542 182.69116
-5.1425467 1504.7542 182.69116
0 1510.8508 158.11987
5.0547829 1516.9473 133.54883
10.109758 1516.9473 133.54883
15.164542 1516.9473 133.54883
20.219517 1516.9473 133.54883
25.0639 1522.7999 109.96045
30.076605 1522.7999 109.96045
35.089497 1522.7999 109.96045
40.102203 1522.7999 109.96045
45.493816 1516.9473 133.54883
50.548603 1516.9473 133.54883
55.603386 1516.9473 133.54883
60.658363 1516.9473 133.54883
65.713142 1516.9473 133.54883
70.76812 1516.9473 133.54883
75.191704 1522.7999 109.96045
80.204407 1522.7999 109.96045
85.2173 1522.7999 109.96045
90.98745 1516.9473 133.54883
95.242905 1522.7999 109.96045
100.2556 1522.7999 109.96045
106.15199 1516.9473 133.54883
111.20696 1516.9473 133.54883
116.26175 1516.9473 133.54883
121.31673 1516.9473 133.54883
126.37151 1516.9473 133.54883
131.42628 1516.9473 133.54883
137.66476 1510.8508 158.11987
142.76338 1510.8508 158.11987
147.86218 1510.8508 158.11987
154.2758 1504.7542 182.69116
159.41826 1504.7542 182.69116
164.5609 1504.7542 182.69116
169.70334 1504.7542 182.69116
174.84598 1504.7542 182.69116
-15.296041 1506.1573 156.12769
-10.197426 1506.1573 156.12769
-5.0987129 1506.1573 156.12769
0 1506.1573 156.12769
5.0986156 1506.1573 156.12769
10.109758 1512.2943 131.57373
15.164542 1512.2943 131.57373
20.219517 1512.2943 131.57373
25.0639 1518.1855 108.00171
30.076605 1518.1855 108.00171
35.089497 1518.1855 108.00171
40.102203 1518.1855 108.00171
45.493816 1512.2943 131.57373
50.548603 1512.2943 131.57373
55.603386 1512.2943 131.57373
60.658363 1512.2943 131.57373
65.713142 1512.2943 131.57373
70.76812 1512.2943 131.57373
75.822906 1512.2943 131.57373
80.204407 1518.1855 108.00171
85.2173 1518.1855 108.00171
90.230003 1518.1855 108.00171
95.242905 1518.1855 108.00171
100.2556 1518.1855 108.00171
105.2683 1518.1855 108.00171
111.20696 1512.2943 131.57373
116.26175 1512.2943 131.57373
121.31673 1512.2943 131.57373
126.37151 1512.2943 131.57373
131.42628 1512.2943 131.57373
137.66476 1506.1573 156.12769
142.76338 1506.1573 156.12769
147.86218 1506.1573 156.12769
154.2758 1500.0205 180.68188
159.41826 1500.0205 180.68188
164.5609 1500.0205 180.68188
169.70334 1500.0205 180.68188
174.84598 1500.0205 180.68188
-15.296041 1501.464 154.1355
-10.197426 1501.464 154.1355
-5.0987129 1501.464 154.1355
0 1501.464 154.1355
5.0986156 1501.464 154.1355
10.109758 1507.6414 129.59863
15.164542 1507.6414 129.59863
20.219517 1507.6414 129.59863
25.0639 1513.5713 106.04321
30.076605 1513.5713 106.04321
35.089497 1513.5713 106.04321
40.102203 1513.5713 106.04321
45.493816 1507.6414 129.59863
50.1278 1513.5713 106.04321
55.140507 1513.5713 106.04321
60.658363 1507.6414 129.59863
65.713142 1507.6414 129.59863
70.76812 1507.6414 129.59863
75.822906 1507.6414 129.59863
80.204407 1513.5713 106.04321
85.2173 1513.5713 106.04321
90.230003 1513.5713 106.04321
95.242905 1513.5713 106.04321
100.2556 1513.5713 106.04321
105.2683 1513.5713 106.04321
111.20696 1507.6414 129.59863
116.26175 1507.6414 129.59863
121.31673 1507.6414 129.59863
126.37151 1507.6414 129.59863
131.42628 1507.6414 129.59863
137.66476 1501.464 154.1355
142.76338 1501.464 154.1355
147.86218 1501.464 154.1355
154.2758 1495.2867 178.67261
159.41826 1495.2867 178.67261
164.5609 1495.2867 178.67261
169.70334 1495.2867 178.67261
174.84598 1495.2867 178.67261
-15.164542 1502.9883 127.62354
-10.109758 1502.9883 127.62354
-5.0987129 1496.7706 152.14331
0 1496.7706 152.14331
5.0986156 1496.7706 152.14331
10.109758 1502.9883 127.62354
15.164542 1502.9883 127.62354
20.219517 1502.9883 127.62354
25.274302 1502.9883 127.62354
30.329084 1502.9883 127.62354
35.38406 1502.9883 127.62354
40.438843 1502.9883 127.62354
45.493816 1502.9883 127.62354
50.1278 1508.957 104.08447
55.140507 1508.957 104.08447
60.658363 1502.9883 127.62354
65.713142 1502.9883 127.62354
70.76812 1502.9883 127.62354
75.822906 1502.9883 127.62354
80.877686 1502.9883 127.62354
85.932655 1502.9883 127.62354
90.98745 1502.9883 127.62354
96.042427 1502.9883 127.62354
101.09721 1502.9883 127.62354
106.15199 1502.9883 127.62354
111.20696 1502.9883 127.62354
116.26175 1502.9883 127.62354
121.31673 1502.9883 127.62354
126.37151 1502.9883 127.62354
131.42628 1502.9883 127.62354
137.66476 1496.7706 152.14331
142.76338 1496.7706 152.14331
147.86218 1496.7706 152.14331
152.9608 1496.7706 152.14331
159.41826 1490.553 176.66309
164.5609 1490.553 176.66309
169.70334 1490.553 176.66309
174.84598 1490.553 176.66309
183.11813 1477.8691 226.68359
-15.164542 1498.3352 125.64844
-10.109758 1498.3352 125.64844
-5.0987129 1492.0773 150.15112
0 1498.3352 125.64844
5.0547829 1498.3352 125.64844
10.109758 1498.3352 125.64844
15.164542 1498.3352 125.64844
20.219517 1498.3352 125.64844
25.274302 1498.3352 125.64844
30.329084 1498.3352 125.64844
35.38406 1498.3352 125.64844
40.438843 1498.3352 125.64844
45.493816 1498.3352 125.64844
50.548603 1498.3352 125.64844
55.603386 1498.3352 125.64844
60.658363 1498.3352 125.64844
65.713142 1498.3352 125.64844
70.76812 1498.3352 125.64844
75.822906 1498.3352 125.64844
80.877686 1498.3352 125.64844
85.932655 1498.3352 125.64844
90.98745 1498.3352 125.64844
96.042427 1498.3352 125.64844
101.09721 1498.3352 125.64844
106.15199 1498.3352 125.64844
111.20696 1498.3352 125.64844
116.26175 1498.3352 125.64844
121.31673 1498.3352 125.64844
126.37151 1498.3352 125.64844
131.42628 1498.3352 125.64844
137.66476 1492.0773 150.15112
142.76338 1492.0773 150.15112
147.86218 1492.0773 150.15112
152.9608 1492.0773 150.15112
159.41826 1485.8193 174.65381
164.5609 1485.8193 174.65381
169.70334 1485.8193 174.65381
176.33632 1479.5613 199.15649
183.11813 1473.0532 224.6394
-15.164542 1493.6823 123.67334
-10.109758 1493.6823 123.67334
-5.0987129 1487.3839 148.15894
0 1493.6823 123.67334
5.0547829 1493.6823 123.67334
10.109758 1493.6823 123.67334
15.164542 1493.6823 123.67334
20.219517 1493.6823 123.67334
25.274302 1493.6823 123.67334
30.329084 1493.6823 123.67334
35.38406 1493.6823 123.67334
40.438843 1493.6823 123.67334
45.493816 1493.6823 123.67334
50.548603 1493.6823 123.67334
55.603386 1493.6823 123.67334
60.658363 1493.6823 123.67334
65.713142 1493.6823 123.67334
70.76812 1493.6823 123.67334
75.822906 1493.6823 123.67334
80.877686 1493.6823 123.67334
85.932655 1493.6823 123.67334
90.98745 1493.6823 123.67334
96.042427 1493.6823 123.67334
101.09721 1493.6823 123.67334
106.15199 1493.6823 123.67334
111.20696 1493.6823 123.67334
116.26175 1493.6823 123.67334
121.31673 1493.6823 123.67334
126.37151 1493.6823 123.67334
131.42628 1493.6823 123.67334
137.66476 1487.3839 148.15894
142.76338 1487.3839 148.15894
147.86218 1487.3839 148.15894
152.9608 1487.3839 148.15894
159.41826 1481.0856 172.64453
164.5609 1481.0856 172.64453
169.70334 1481.0856 172.64453
176.33632 1474.7874 197.13013
183.11813 1468.2372 222.59521
188.35001 1468.2372 222.59521
-15.296041 1482.6906 146.16675
-10.197426 1482.6906 146.16675
-5.0987129 1482.6906 146.16675
0 1489.0292 121.69824
5.0547829 1489.0292 121.69824
10.109758 1489.0292 121.69824
15.164542 1489.0292 121.69824
20.219517 1489.0292 121.69824
25.274302 1489.0292 121.69824
30.329084 1489.0292 121.69824
35.38406 1489.0292 121.69824
40.438843 1489.0292 121.69824
45.493816 1489.0292 121.69824
50.548603 1489.0292 121.69824
55.603386 1489.0292 121.69824
60.658363 1489.0292 121.69824
65.713142 1489.0292 121.69824
70.76812 1489.0292 121.69824
75.822906 1489.0292 121.69824
80.877686 1489.0292 121.69824
86.677826 1482.6906 146.16675
90.98745 1489.0292 121.69824
96.042427 1489.0292 121.69824
101.97387 1482.6906 146.16675
107.07249 1482.6906 146.16675
111.20696 1489.0292 121.69824
116.26175 1489.0292 121.69824
121.31673 1489.0292 121.69824
126.37151 1489.0292 121.69824
132.56595 1482.6906 146.16675
137.66476 1482.6906 146.16675
142.76338 1482.6906 146.16675
147.86218 1482.6906 146.16675
152.9608 1482.6906 146.16675
159.41826 1476.3518 170.63525
164.5609 1476.3518 170.63525
169.70334 1476.3518 170.63525
176.33632 1470.0132 195.10376
181.52261 1470.0132 195.10376
188.35001 1463.4211 220.55078
-15.296041 1477.9972 144.17456
-10.197426 1477.9972 144.17456
-5.0987129 1477.9972 144.17456
0 1484.3762 119.72314
5.0547829 1484.3762 119.72314
10.109758 1484.3762 119.72314
15.164542 1484.3762 119.72314
20.219517 1484.3762 119.72314
25.274302 1484.3762 119.72314
30.329084 1484.3762 119.72314
35.38406 1484.3762 119.72314
40.438843 1484.3762 119.72314
45.493816 1484.3762 119.72314
50.548603 1484.3762 119.72314
55.603386 1484.3762 119.72314
60.658363 1484.3762 119.72314
65.713142 1484.3762 119.72314
70.76812 1484.3762 119.72314
75.822906 1484.3762 119.72314
80.877686 1484.3762 119.72314
86.677826 1477.9972 144.17456
90.98745 1484.3762 119.72314
96.042427 1484.3762 119.72314
101.97387 1477.9972 144.17456
107.07249 1477.9972 144.17456
111.20696 1484.3762 119.72314
116.26175 1484.3762 119.72314
121.31673 1484.3762 119.72314
126.37151 1484.3762 119.72314
132.56595 1477.9972 144.17456
137.66476 1477.9972 144.17456
142.76338 1477.9972 144.17456
147.86218 1477.9972 144.17456
152.9608 1477.9972 144.17456
159.41826 1471.6182 168.62573
164.5609 1471.6182 168.62573
169.70334 1471.6182 168.62573
176.33632 1465.2391 193.07715
181.52261 1465.2391 193.07715
186.70889 1465.2391 193.07715
-15.296041 1473.3038 142.18213
-10.197426 1473.3038 142.18213
-5.0987129 1473.3038 142.18213
0 1479.7231 117.74805
5.0547829 1479.7231 117.74805
10.109758 1479.7231 117.74805
15.164542 1479.7231 117.74805
20.219517 1479.7231 117.74805
25.274302 1479.7231 117.74805
30.329084 1479.7231 117.74805
35.38406 1479.7231 117.74805
40.438843 1479.7231 117.74805
45.493816 1479.7231 117.74805
50.548603 1479.7231 117.74805
55.603386 1479.7231 117.74805
60.658363 1479.7231 117.74805
65.713142 1479.7231 117.74805
70.76812 1479.7231 117.74805
75.822906 1479.7231 117.74805
80.877686 1479.7231 117.74805
86.677826 1473.3038 142.18213
91.776451 1473.3038 142.18213
96.875259 1473.3038 142.18213
101.97387 1473.3038 142.18213
107.07249 1473.3038 142.18213
112.1713 1473.3038 142.18213
117.26991 1473.3038 142.18213
122.36873 1473.3038 142.18213
127.46734 1473.3038 142.18213
132.56595 1473.3038 142.18213
137.66476 1473.3038 142.18213
142.76338 1473.3038 142.18213
147.86218 1473.3038 142.18213
152.9608 1473.3038 142.18213
159.41826 1466.8845 166.61646
164.5609 1466.8845 166.61646
169.70334 1466.8845 166.61646
174.84598 1466.8845 166.61646
179.98843 1466.8845 166.61646
185.13089 1466.8845 166.61646
-15.296041 1468.6104 140.18994
-10.197426 1468.6104 140.18994
-5.0987129 1468.6104 140.18994
0 1468.6104 140.18994
5.0986156 1468.6104 140.18994
10.197426 1468.6104 140.18994
15.296041 1468.6104 140.18994
20.219517 1475.0701 115.77295
25.274302 1475.0701 115.77295
30.329084 1475.0701 115.77295
35.38406 1475.0701 115.77295
40.438843 1475.0701 115.77295
45.493816 1475.0701 115.77295
50.548603 1475.0701 115.77295
55.603386 1475.0701 115.77295
60.658363 1475.0701 115.77295
65.713142 1475.0701 115.77295
70.76812 1475.0701 115.77295
75.822906 1475.0701 115.77295
80.877686 1475.0701 115.77295
86.677826 1468.6104 140.18994
91.776451 1468.6104 140.18994
96.875259 1468.6104 140.18994
101.97387 1468.6104 140.18994
107.07249 1468.6104 140.18994
112.1713 1468.6104 140.18994
117.26991 1468.6104 140.18994
122.36873 1468.6104 140.18994
127.46734 1468.6104 140.18994
132.56595 1468.6104 140.18994
137.66476 1468.6104 140.18994
142.76338 1468.6104 140.18994
147.86218 1468.6104 140.18994
152.9608 1468.6104 140.18994
159.41826 1462.1506 164.60718
164.5609 1462.1506 164.60718
169.70334 1462.1506 164.60718
174.84598 1462.1506 164.60718
179.98843 1462.1506 164.60718
185.13089 1462.1506 164.60718
-20.570087 1457.417 162.59766
-15.427542 1457.417 162.59766
-10.285093 1457.417 162.59766
-5.0987129 1463.917 138.19775
0 1463.917 138.19775
5.0986156 1463.917 138.19775
10.197426 1463.917 138.19775
15.164542 1470.4171 113.79785
20.219517 1470.4171 113.79785
25.274302 1470.4171 113.79785
30.329084 1470.4171 113.79785
35.38406 1470.4171 113.79785
40.438843 1470.4171 113.79785
45.493816 1470.4171 113.79785
50.548603 1470.4171 113.79785
55.603386 1470.4171 113.79785
60.658363 1470.4171 113.79785
65.713142 1470.4171 113.79785
70.76812 1470.4171 113.79785
75.822906 1470.4171 113.79785
80.877686 1470.4171 113.79785
86.677826 1463.917 138.19775
91.776451 1463.917 138.19775
96.875259 1463.917 138.19775
101.97387 1463.917 138.19775
107.07249 1463.917 138.19775
112.1713 1463.917 138.19775
117.26991 1463.917 138.19775
122.36873 1463.917 138.19775
127.46734 1463.917 138.19775
132.56595 1463.917 138.19775
137.66476 1463.917 138.19775
142.76338 1463.917 138.19775
147.86218 1463.917 138.19775
152.9608 1463.917 138.19775
159.41826 1457.417 162.59766
164.5609 1457.417 162.59766
169.70334 1457.417 162.59766
176.33632 1450.917 186.9978
181.52261 1450.917 186.9978
186.70889 1450.917 186.9978
-20.570087 1452.6832 160.58838
-15.427542 1452.6832 160.58838
-10.285093 1452.6832 160.58838
-5.0987129 1459.2236 136.20557
0 1459.2236 136.20557
5.0986156 1459.2236 136.20557
10.197426 1459.2236 136.20557
15.164542 1465.764 111.82275
20.219517 1465.764 111.82275
25.274302 1465.764 111.82275
30.329084 1465.764 111.82275
35.38406 1465.764 111.82275
40.438843 1465.764 111.82275
45.493816 1465.764 111.82275
50.548603 1465.764 111.82275
55.603386 1465.764 111.82275
60.658363 1465.764 111.82275
65.713142 1465.764 111.82275
70.76812 1465.764 111.82275
75.822906 1465.764 111.82275
80.877686 1465.764 111.82275
86.677826 1459.2236 136.20557
91.776451 1459.2236 136.20557
96.875259 1459.2236 136.20557
101.97387 1459.2236 136.20557
107.07249 1459.2236 136.20557
112.1713 1459.2236 136.20557
117.26991 1459.2236 136.20557
122.36873 1459.2236 136.20557
127.46734 1459.2236 136.20557
132.56595 1459.2236 136.20557
137.66476 1459.2236 136.20557
142.76338 1459.2236 136.20557
147.86218 1459.2236 136.20557
154.2758 1452.6832 160.58838
159.41826 1452.6832 160.58838
164.5609 1452.6832 160.58838
171.14984 1446.1428 184.97119
176.33632 1446.1428 184.97119
181.52261 1446.1428 184.97119
186.70889 1446.1428 184.97119
-20.570087 1447.9495 158.5791
-15.427542 1447.9495 158.5791
-10.285093 1447.9495 158.5791
-5.0987129 1454.5303 134.21338
0 1454.5303 134.21338
5.0986156 1454.5303 134.21338
10.197426 1454.5303 134.21338
15.296041 1454.5303 134.21338
20.219517 1461.1111 109.84766
25.274302 1461.1111 109.84766
30.329084 1461.1111 109.84766
35.38406 1461.1111 109.84766
40.438843 1461.1111 109.84766
45.493816 1461.1111 109.84766
50.548603 1461.1111 109.84766
55.603386 1461.1111 109.84766
60.658363 1461.1111 109.84766
65.713142 1461.1111 109.84766
70.76812 1461.1111 109.84766
76.4804 1454.5303 134.21338
81.579018 1454.5303 134.21338
86.677826 1454.5303 134.21338
91.776451 1454.5303 134.21338
96.875259 1454.5303 134.21338
101.97387 1454.5303 134.21338
107.07249 1454.5303 134.21338
112.1713 1454.5303 134.21338
117.26991 1454.5303 134.21338
122.36873 1454.5303 134.21338
127.46734 1454.5303 134.21338
132.56595 1454.5303 134.21338
137.66476 1454.5303 134.21338
142.76338 1454.5303 134.21338
147.86218 1454.5303 134.21338
154.2758 1447.9495 158.5791
159.41826 1447.9495 158.5791
164.5609 1447.9495 158.5791
169.70334 1447.9495 158.5791
174.84598 1447.9495 158.5791
181.52261 1441.3688 182.94482
186.70889 1441.3688 182.94482
-25.493467 1449.8369 132.22119
-20.394754 1449.8369 132.22119
-15.427542 1443.2158 156.56982
-10.285093 1443.2158 156.56982
-5.0987129 1449.8369 132.22119
0 1449.8369 132.22119
5.0986156 1449.8369 132.22119
10.197426 1449.8369 132.22119
15.296041 1449.8369 132.22119
20.394852 1449.8369 132.22119
25.493467 1449.8369 132.22119
30.592083 1449.8369 132.22119
35.690891 1449.8369 132.22119
40.789509 1449.8369 132.22119
45.888317 1449.8369 132.22119
50.986935 1449.8369 132.22119
56.085552 1449.8369 132.22119
61.184364 1449.8369 132.22119
66.282974 1449.8369 132.22119
71.381783 1449.8369 132.22119
76.4804 1449.8369 132.22119
81.579018 1449.8369 132.22119
86.677826 1449.8369 132.22119
91.776451 1449.8369 132.22119
96.875259 1449.8369 132.22119
101.97387 1449.8369 132.22119
107.07249 1449.8369 132.22119
112.1713 1449.8369 132.22119
117.26991 1449.8369 132.22119
122.36873 1449.8369 132.22119
127.46734 1449.8369 132.22119
132.56595 1449.8369 132.22119
137.66476 1449.8369 132.22119
142.76338 1449.8369 132.22119
147.86218 1449.8369 132.22119
154.2758 1443.2158 156.56982
159.41826 1443.2158 156.56982
164.5609 1443.2158 156.56982
169.70334 1443.2158 156.56982
174.84598 1443.2158 156.56982
181.52261 1436.5947 180.91846
-25.493467 1445.1436 130.229
-20.394754 1445.1436 130.229
-15.296041 1445.1436 130.229
-10.285093 1438.4821 154.5603
-5.0987129 1445.1436 130.229
0 1445.1436 130.229
5.0986156 1445.1436 130.229
10.197426 1445.1436 130.229
15.296041 1445.1436 130.229
20.394852 1445.1436 130.229
25.493467 1445.1436 130.229
30.592083 1445.1436 130.229
35.690891 1445.1436 130.229
40.789509 1445.1436 130.229
45.888317 1445.1436 130.229
50.986935 1445.1436 130.229
56.085552 1445.1436 130.229
61.184364 1445.1436 130.229
66.282974 1445.1436 130.229
71.381783 1445.1436 130.229
76.4804 1445.1436 130.229
81.579018 1445.1436 130.229
86.677826 1445.1436 130.229
91.776451 1445.1436 130.229
96.875259 1445.1436 130.229
101.97387 1445.1436 130.229
107.07249 1445.1436 130.229
112.1713 1445.1436 130.229
117.26991 1445.1436 130.229
122.36873 1445.1436 130.229
127.46734 1445.1436 130.229
132.56595 1445.1436 130.229
137.66476 1445.1436 130.229
142.76338 1445.1436 130.229
147.86218 1445.1436 130.229
154.2758 1438.4821 154.5603
159.41826 1438.4821 154.5603
164.5609 1438.4821 154.5603
171.14984 1431.8206 178.89185
176.33632 1431.8206 178.89185
181.52261 1431.8206 178.89185
-30.592182 1440.4502 128.23682
-25.493467 1440.4502 128.23682
-20.394754 1440.4502 128.23682
-15.296041 1440.4502 128.23682
-10.197426 1440.4502 128.23682
-5.0987129 1440.4502 128.23682
0 1440.4502 128.23682
5.0986156 1440.4502 128.23682
10.197426 1440.4502 128.23682
15.296041 1440.4502 128.23682
20.394852 1440.4502 128.23682
25.493467 1440.4502 128.23682
30.592083 1440.4502 128.23682
35.690891 1440.4502 128.23682
40.789509 1440.4502 128.23682
45.888317 1440.4502 128.23682
50.986935 1440.4502 128.23682
56.085552 1440.4502 128.23682
61.184364 1440.4502 128.23682
66.282974 1440.4502 128.23682
71.381783 1440.4502 128.23682
76.4804 1440.4502 128.23682
81.579018 1440.4502 128.23682
86.677826 1440.4502 128.23682
91.776451 1440.4502 128.23682
96.875259 1440.4502 128.23682
101.97387 1440.4502 128.23682
107.07249 1440.4502 128.23682
112.1713 1440.4502 128.23682
117.26991 1440.4502 128.23682
122.36873 1440.4502 128.23682
127.46734 1440.4502 128.23682
132.56595 1440.4502 128.23682
137.66476 1440.4502 128.23682
142.76338 1440.4502 128.23682
147.86218 1440.4502 128.23682
154.2758 1433.7484 152.55103
159.41826 1433.7484 152.55103
165.96358 1427.0466 176.86548
171.14984 1427.0466 176.86548
176.33632 1427.0466 176.86548
181.52261 1427.0466 176.86548
-30.592182 1435.7568 126.24438
-25.493467 1435.7568 126.24438
-20.394754 1435.7568 126.24438
-15.296041 1435.7568 126.24438
-10.197426 1435.7568 126.24438
-5.0987129 1435.7568 126.24438
0 1435.7568 126.24438
5.0986156 1435.7568 126.24438
10.197426 1435.7568 126.24438
15.296041 1435.7568 126.24438
20.394852 1435.7568 126.24438
25.493467 1435.7568 126.24438
30.592083 1435.7568 126.24438
35.690891 1435.7568 126.24438
40.789509 1435.7568 126.24438
45.888317 1435.7568 126.24438
50.986935 1435.7568 126.24438
56.085552 1435.7568 126.24438
61.184364 1435.7568 126.24438
66.282974 1435.7568 126.24438
71.381783 1435.7568 126.24438
76.4804 1435.7568 126.24438
81.579018 1435.7568 126.24438
86.677826 1435.7568 126.24438
91.776451 1435.7568 126.24438
96.875259 1435.7568 126.24438
101.97387 1435.7568 126.24438
107.07249 1435.7568 126.24438
112.1713 1435.7568 126.24438
117.26991 1435.7568 126.24438
122.36873 1435.7568 126.24438
127.46734 1435.7568 126.24438
132.56595 1435.7568 126.24438
137.66476 1435.7568 126.24438
142.76338 1435.7568 126.24438
147.86218 1435.7568 126.24438
154.2758 1429.0146 150.54175
160.7771 1422.2725 174.83887
165.96358 1422.2725 174.83887
171.14984 1422.2725 174.83887
176.33632 1422.2725 174.83887
-30.592182 1431.0635 124.2522
-25.493467 1431.0635 124.2522
-20.394754 1431.0635 124.2522
-15.296041 1431.0635 124.2522
-10.197426 1431.0635 124.2522
-5.0987129 1431.0635 124.2522
0 1431.0635 124.2522
5.0986156 1431.0635 124.2522
10.197426 1431.0635 124.2522
15.296041 1431.0635 124.2522
20.394852 1431.0635 124.2522
25.493467 1431.0635 124.2522
30.592083 1431.0635 124.2522
35.690891 1431.0635 124.2522
40.789509 1431.0635 124.2522
45.888317 1431.0635 124.2522
50.986935 1431.0635 124.2522
56.085552 1431.0635 124.2522
61.184364 1431.0635 124.2522
66.282974 1431.0635 124.2522
71.381783 1431.0635 124.2522
76.4804 1431.0635 124.2522
81.579018 1431.0635 124.2522
86.677826 1431.0635 124.2522
91.776451 1431.0635 124.2522
96.875259 1431.0635 124.2522
101.97387 1431.0635 124.2522
107.07249 1431.0635 124.2522
112.1713 1431.0635 124.2522
117.26991 1431.0635 124.2522
122.36873 1431.0635 124.2522
127.46734 1431.0635 124.2522
132.56595 1431.0635 124.2522
138.84827 1424.281 148.53247
143.99071 1424.281 148.53247
149.13335 1424.281 148.53247
154.2758 1424.281 148.53247
160.7771 1417.4984 172.8125
165.96358 1417.4984 172.8125
171.14984 1417.4984 172.8125
176.33632 1417.4984 172.8125
-30.592182 1426.3701 122.26001
-25.493467 1426.3701 122.26001
-20.394754 1426.3701 122.26001
-15.296041 1426.3701 122.26001
-10.197426 1426.3701 122.26001
-5.0987129 1426.3701 122.26001
0 1426.3701 122.26001
5.0986156 1426.3701 122.26001
10.197426 1426.3701 122.26001
15.296041 1426.3701 122.26001
20.394852 1426.3701 122.26001
25.493467 1426.3701 122.26001
30.592083 1426.3701 122.26001
35.690891 1426.3701 122.26001
40.789509 1426.3701 122.26001
45.888317 1426.3701 122.26001
50.986935 1426.3701 122.26001
56.085552 1426.3701 122.26001
61.184364 1426.3701 122.26001
66.282974 1426.3701 122.26001
71.381783 1426.3701 122.26001
76.4804 1426.3701 122.26001
81.579018 1426.3701 122.26001
86.677826 1426.3701 122.26001
91.776451 1426.3701 122.26001
96.875259 1426.3701 122.26001
101.97387 1426.3701 122.26001
107.07249 1426.3701 122.26001
112.1713 1426.3701 122.26001
117.26991 1426.3701 122.26001
122.36873 1426.3701 122.26001
127.46734 1426.3701 122.26001
132.56595 1426.3701 122.26001
138.84827 1419.5472 146.52295
143.99071 1419.5472 146.52295
149.13335 1419.5472 146.52295
154.2758 1419.5472 146.52295
160.7771 1412.7244 170.78613
165.96358 1412.7244 170.78613
171.14984 1412.7244 170.78613
176.33632 1412.7244 170.78613
-30.329182 1428.5399 96.021973
-25.274302 1428.5399 96.021973
-20.394754 1421.6768 120.26782
-15.296041 1421.6768 120.26782
-10.197426 1421.6768 120.26782
-5.0987129 1421.6768 120.26782
0 1421.6768 120.26782
5.0986156 1421.6768 120.26782
10.197426 1421.6768 120.26782
15.296041 1421.6768 120.26782
20.394852 1421.6768 120.26782
25.493467 1421.6768 120.26782
30.592083 1421.6768 120.26782
35.690891 1421.6768 120.26782
40.789509 1421.6768 120.26782
45.888317 1421.6768 120.26782
50.986935 1421.6768 120.26782
56.085552 1421.6768 120.26782
61.184364 1421.6768 120.26782
66.282974 1421.6768 120.26782
71.381783 1421.6768 120.26782
76.4804 1421.6768 120.26782
81.579018 1421.6768 120.26782
86.677826 1421.6768 120.26782
91.776451 1421.6768 120.26782
96.875259 1421.6768 120.26782
101.97387 1421.6768 120.26782
107.07249 1421.6768 120.26782
112.1713 1421.6768 120.26782
117.26991 1421.6768 120.26782
122.36873 1421.6768 120.26782
127.46734 1421.6768 120.26782
132.56595 1421.6768 120.26782
138.84827 1414.8135 144.51367
143.99071 1414.8135 144.51367
149.13335 1414.8135 144.51367
155.59081 1407.9503 168.75952
162.19028 1400.8127 193.9751
168.8811 1393.6749 219.19067
174.15857 1393.6749 219.19067
-30.329182 1423.8868 94.046875
-25.274302 1423.8868 94.046875
-20.394754 1416.9834 118.27563
-15.296041 1416.9834 118.27563
-10.197426 1416.9834 118.27563
-5.0987129 1416.9834 118.27563
0 1416.9834 118.27563
5.0986156 1416.9834 118.27563
10.197426 1416.9834 118.27563
15.296041 1416.9834 118.27563
20.394852 1416.9834 118.27563
25.493467 1416.9834 118.27563
30.592083 1416.9834 118.27563
35.690891 1416.9834 118.27563
40.789509 1416.9834 118.27563
45.888317 1416.9834 118.27563
50.986935 1416.9834 118.27563
56.085552 1416.9834 118.27563
61.184364 1416.9834 118.27563
66.282974 1416.9834 118.27563
71.381783 1416.9834 118.27563
76.4804 1416.9834 118.27563
81.579018 1416.9834 118.27563
86.677826 1416.9834 118.27563
91.776451 1416.9834 118.27563
96.875259 1416.9834 118.27563
101.97387 1416.9834 118.27563
107.07249 1416.9834 118.27563
112.1713 1416.9834 118.27563
117.26991 1416.9834 118.27563
122.36873 1416.9834 118.27563
127.46734 1416.9834 118.27563
133.70561 1410.0798 142.50439
138.84827 1410.0798 142.50439
143.99071 1410.0798 142.50439
149.13335 1410.0798 142.50439
155.59081 1403.1763 166.73315
163.60345 1388.817 217.12866
170.396 1381.3612 243.29541
175.72078 1381.3612 243.29541
-25.493467 1412.29 116.28345
-20.394754 1412.29 116.28345
-15.296041 1412.29 116.28345
-10.197426 1412.29 116.28345
-5.0987129 1412.29 116.28345
0 1412.29 116.28345
5.0986156 1412.29 116.28345
10.197426 1412.29 116.28345
15.296041 1412.29 116.28345
20.394852 1412.29 116.28345
25.493467 1412.29 116.28345
30.592083 1412.29 116.28345
35.690891 1412.29 116.28345
40.789509 1412.29 116.28345
45.888317 1412.29 116.28345
50.986935 1412.29 116.28345
56.085552 1412.29 116.28345
61.184364 1412.29 116.28345
66.282974 1412.29 116.28345
71.381783 1412.29 116.28345
76.4804 1412.29 116.28345
81.579018 1412.29 116.28345
86.677826 1412.29 116.28345
91.776451 1412.29 116.28345
96.875259 1412.29 116.28345
101.97387 1412.29 116.28345
107.07249 1412.29 116.28345
112.1713 1412.29 116.28345
117.26991 1412.29 116.28345
122.36873 1412.29 116.28345
128.56317 1405.3461 140.49512
133.70561 1405.3461 140.49512
138.84827 1405.3461 140.49512
143.99071 1405.3461 140.49512
150.40451 1398.4022 164.70654
158.326 1383.959 215.06641
165.071 1376.4597 241.21484
171.91087 1368.9602 267.36328
178.90309 1361.1831 294.48022
185.9937 1353.406 321.59692
193.24364 1345.3511 349.68262
198.7648 1345.3511 349.68262
-20.394754 1407.5967 114.29126
-15.296041 1407.5967 114.29126
-10.197426 1407.5967 114.29126
-5.0987129 1407.5967 114.29126
0 1407.5967 114.29126
5.0986156 1407.5967 114.29126
10.197426 1407.5967 114.29126
15.296041 1407.5967 114.29126
20.394852 1407.5967 114.29126
25.493467 1407.5967 114.29126
30.592083 1407.5967 114.29126
35.690891 1407.5967 114.29126
40.789509 1407.5967 114.29126
45.888317 1407.5967 114.29126
50.986935 1407.5967 114.29126
56.085552 1407.5967 114.29126
61.184364 1407.5967 114.29126
66.282974 1407.5967 114.29126
71.381783 1407.5967 114.29126
76.4804 1407.5967 114.29126
81.579018 1407.5967 114.29126
86.677826 1407.5967 114.29126
91.776451 1407.5967 114.29126
96.875259 1407.5967 114.29126
101.97387 1407.5967 114.29126
107.07249 1407.5967 114.29126
112.1713 1407.5967 114.29126
117.26991 1407.5967 114.29126
123.42072 1400.6123 138.4856
128.56317 1400.6123 138.4856
133.70561 1400.6123 138.4856
138.84827 1400.6123 138.4856
145.21805 1393.6282 162.68018
153.04855 1379.101 213.00439
159.7462 1371.5581 239.13428
166.53854 1364.0151 265.2644
171.91087 1364.0151 265.2644
180.52318 1348.3705 319.45947
185.9937 1348.3705 319.45947
193.24364 1340.2688 347.52515
198.7648 1340.2688 347.52515
204.28618 1340.2688 347.52515
209.80733 1340.2688 347.52515
213.34569 1348.3705 319.45947
218.81601 1348.3705 319.45947
226.37105 1340.2688 347.52515
231.89241 1340.2688 347.52515
-20.394754 1402.9032 112.29907
-15.296041 1402.9032 112.29907
-10.197426 1402.9032 112.29907
-5.0987129 1402.9032 112.29907
0 1402.9032 112.29907
5.0986156 1402.9032 112.29907
10.197426 1402.9032 112.29907
15.296041 1402.9032 112.29907
20.394852 1402.9032 112.29907
25.493467 1402.9032 112.29907
30.592083 1402.9032 112.29907
35.690891 1402.9032 112.29907
40.789509 1402.9032 112.29907
45.888317 1402.9032 112.29907
50.986935 1402.9032 112.29907
56.085552 1402.9032 112.29907
61.184364 1402.9032 112.29907
66.282974 1402.9032 112.29907
71.381783 1402.9032 112.29907
76.4804 1402.9032 112.29907
81.579018 1402.9032 112.29907
86.677826 1402.9032 112.29907
91.776451 1402.9032 112.29907
96.875259 1402.9032 112.29907
101.97387 1402.9032 112.29907
107.07249 1402.9032 112.29907
112.1713 1402.9032 112.29907
118.27808 1395.8787 136.47632
123.42072 1395.8787 136.47632
128.56317 1395.8787 136.47632
133.70561 1395.8787 136.47632
138.84827 1395.8787 136.47632
145.21805 1388.854 160.65356
153.04855 1374.243 210.94238
159.7462 1366.6565 237.05371
165.071 1366.6565 237.05371
171.91087 1359.0699 263.16528
178.90309 1351.2025 290.24365
185.9937 1343.335 317.32202
191.464 1343.335 317.32202
196.93433 1343.335 317.32202
202.40485 1343.335 317.32202
207.87517 1343.335 317.32202
213.34569 1343.335 317.32202
218.81601 1343.335 317.32202
224.28632 1343.335 317.32202
229.75684 1343.335 317.32202
235.22717 1343.335 317.32202
242.93494 1335.1864 345.36792
-15.296041 1398.2098 110.30664
-10.197426 1398.2098 110.30664
-5.0987129 1398.2098 110.30664
0 1398.2098 110.30664
5.0986156 1398.2098 110.30664
10.197426 1398.2098 110.30664
15.296041 1398.2098 110.30664
20.394852 1398.2098 110.30664
25.493467 1398.2098 110.30664
30.592083 1398.2098 110.30664
35.690891 1398.2098 110.30664
40.789509 1398.2098 110.30664
45.888317 1398.2098 110.30664
50.986935 1398.2098 110.30664
56.085552 1398.2098 110.30664
61.184364 1398.2098 110.30664
66.282974 1398.2098 110.30664
71.381783 1398.2098 110.30664
76.4804 1398.2098 110.30664
81.579018 1398.2098 110.30664
86.677826 1398.2098 110.30664
91.776451 1398.2098 110.30664
96.875259 1398.2098 110.30664
101.97387 1398.2098 110.30664
107.07249 1398.2098 110.30664
112.1713 1398.2098 110.30664
117.26991 1398.2098 110.30664
123.42072 1391.1449 134.46704
128.56317 1391.1449 134.46704
133.70561 1391.1449 134.46704
138.84827 1391.1449 134.46704
145.21805 1384.08 158.6272
153.04855 1369.3849 208.88013
159.7462 1361.7549 234.9729
165.071 1361.7549 234.9729
171.91087 1354.1248 261.06616
178.90309 1346.212 288.12549
185.9937 1338.2994 315.18457
191.464 1338.2994 315.18457
196.93433 1338.2994 315.18457
202.40485 1338.2994 315.18457
206.00961 1346.212 288.12549
211.43105 1346.212 288.12549
216.85228 1346.212 288.12549
224.28632 1338.2994 315.18457
229.75684 1338.2994 315.18457
235.22717 1338.2994 315.18457
242.93494 1330.104 343.21045
-15.427542 1386.4111 132.45752
-10.285093 1386.4111 132.45752
-5.1425467 1386.4111 132.45752
0 1386.4111 132.45752
5.1424484 1386.4111 132.45752
10.285093 1386.4111 132.45752
15.296041 1393.5165 108.31445
20.394852 1393.5165 108.31445
25.493467 1393.5165 108.31445
30.592083 1393.5165 108.31445
35.690891 1393.5165 108.31445
40.789509 1393.5165 108.31445
45.888317 1393.5165 108.31445
50.986935 1393.5165 108.31445
56.085552 1393.5165 108.31445
61.184364 1393.5165 108.31445
66.282974 1393.5165 108.31445
71.381783 1393.5165 108.31445
76.4804 1393.5165 108.31445
81.579018 1393.5165 108.31445
86.677826 1393.5165 108.31445
91.776451 1393.5165 108.31445
96.875259 1393.5165 108.31445
101.97387 1393.5165 108.31445
107.07249 1393.5165 108.31445
112.1713 1393.5165 108.31445
117.26991 1393.5165 108.31445
123.42072 1386.4111 132.45752
128.56317 1386.4111 132.45752
134.84529 1379.3059 156.60059
140.03175 1379.3059 156.60059
147.7709 1364.527 206.81812
154.42142 1356.8533 232.89233
159.7462 1356.8533 232.89233
165.071 1356.8533 232.89233
171.91087 1349.1796 258.96704
177.283 1349.1796 258.96704
184.32451 1341.2217 286.00732
189.74574 1341.2217 286.00732
195.16696 1341.2217 286.00732
200.58839 1341.2217 286.00732
206.00961 1341.2217 286.00732
211.43105 1341.2217 286.00732
216.85228 1341.2217 286.00732
224.28632 1333.2639 313.04712
229.75684 1333.2639 313.04712
235.22717 1333.2639 313.04712
240.69769 1333.2639 313.04712
248.45612 1325.0217 341.05322
-15.427542 1381.6775 130.44824
-10.285093 1381.6775 130.44824
-5.1425467 1381.6775 130.44824
0 1381.6775 130.44824
5.1424484 1381.6775 130.44824
10.285093 1381.6775 130.44824
15.427542 1381.6775 130.44824
20.570187 1381.6775 130.44824
25.712635 1381.6775 130.44824
30.855083 1381.6775 130.44824
35.997726 1381.6775 130.44824
41.140175 1381.6775 130.44824
45.888317 1388.823 106.32227
50.986935 1388.823 106.32227
56.085552 1388.823 106.32227
61.184364 1388.823 106.32227
66.282974 1388.823 106.32227
71.381783 1388.823 106.32227
76.4804 1388.823 106.32227
81.579018 1388.823 106.32227
86.677826 1388.823 106.32227
91.776451 1388.823 106.32227
96.875259 1388.823 106.32227
101.97387 1388.823 106.32227
107.07249 1388.823 106.32227
112.1713 1388.823 106.32227
117.26991 1388.823 106.32227
123.42072 1381.6775 130.44824
128.56317 1381.6775 130.44824
134.84529 1374.5317 154.57422
140.03175 1374.5317 154.57422
147.7709 1359.6689 204.7561
153.04855 1359.6689 204.7561
159.7462 1351.9518 230.81177
165.071 1351.9518 230.81177
170.396 1351.9518 230.81177
177.283 1344.2344 256.86792
182.65533 1344.2344 256.86792
189.74574 1336.2314 283.88892
193.39961 1344.2344 256.86792
198.77194 1344.2344 256.86792
204.14407 1344.2344 256.86792
209.5164 1344.2344 256.86792
216.85228 1336.2314 283.88892
222.2735 1336.2314 283.88892
229.75684 1328.2284 310.90967
233.11615 1336.2314 283.88892
238.53758 1336.2314 283.88892
246.16801 1328.2284 310.90967
-15.427542 1376.9437 128.43896
-10.285093 1376.9437 128.43896
-5.1425467 1376.9437 128.43896
0 1376.9437 128.43896
5.1424484 1376.9437 128.43896
10.285093 1376.9437 128.43896
15.427542 1376.9437 128.43896
20.570187 1376.9437 128.43896
25.712635 1376.9437 128.43896
30.855083 1376.9437 128.43896
35.997726 1376.9437 128.43896
41.140175 1376.9437 128.43896
46.282822 1376.9437 128.43896
51.42527 1376.9437 128.43896
56.085552 1384.1296 104.33008
61.184364 1384.1296 104.33008
66.282974 1384.1296 104.33008
71.995453 1376.9437 128.43896
77.137901 1376.9437 128.43896
82.28035 1376.9437 128.43896
86.677826 1384.1296 104.33008
91.776451 1384.1296 104.33008
96.875259 1384.1296 104.33008
102.85054 1376.9437 128.43896
107.07249 1384.1296 104.33008
112.1713 1384.1296 104.33008
118.27808 1376.9437 128.43896
123.42072 1376.9437 128.43896
128.56317 1376.9437 128.43896
134.84529 1369.7577 152.54785
141.2626 1362.2844 177.62085
147.7709 1354.811 202.69385
153.04855 1354.811 202.69385
158.326 1354.811 202.69385
163.60345 1354.811 202.69385
168.8811 1354.811 202.69385
175.72078 1347.0502 228.7312
181.04578 1347.0502 228.7312
186.37057 1347.0502 228.7312
191.69536 1347.0502 228.7312
197.02036 1347.0502 228.7312
202.34515 1347.0502 228.7312
207.67015 1347.0502 228.7312
214.88853 1339.2893 254.7688
220.26068 1339.2893 254.7688
227.69493 1331.2411 281.77075
233.11615 1331.2411 281.77075
238.53758 1331.2411 281.77075
243.9588 1331.2411 281.77075
-15.427542 1372.21 126.42944
-10.285093 1372.21 126.42944
-5.1425467 1372.21 126.42944
0 1372.21 126.42944
5.1424484 1372.21 126.42944
10.285093 1372.21 126.42944
15.427542 1372.21 126.42944
20.570187 1372.21 126.42944
25.712635 1372.21 126.42944
30.855083 1372.21 126.42944
35.997726 1372.21 126.42944
41.140175 1372.21 126.42944
46.282822 1372.21 126.42944
51.42527 1372.21 126.42944
56.567715 1372.21 126.42944
61.184364 1379.4363 102.33789
66.282974 1379.4363 102.33789
71.995453 1372.21 126.42944
77.137901 1372.21 126.42944
82.28035 1372.21 126.42944
86.677826 1379.4363 102.33789
91.776451 1379.4363 102.33789
96.875259 1379.4363 102.33789
102.85054 1372.21 126.42944
107.99298 1372.21 126.42944
113.13563 1372.21 126.42944
118.27808 1372.21 126.42944
123.42072 1372.21 126.42944
128.56317 1372.21 126.42944
136.03053 1357.4684 175.57666
141.2626 1357.4684 175.57666
147.7709 1349.953 200.63184
153.04855 1349.953 200.63184
158.326 1349.953 200.63184
163.60345 1349.953 200.63184
168.8811 1349.953 200.63184
174.15857 1349.953 200.63184
179.43622 1349.953 200.63184
184.71367 1349.953 200.63184
189.99112 1349.953 200.63184
195.26877 1349.953 200.63184
202.34515 1342.1487 226.65063
207.67015 1342.1487 226.65063
212.99493 1342.1487 226.65063
218.31973 1342.1487 226.65063
225.63301 1334.3441 252.66968
231.00513 1334.3441 252.66968
236.37747 1334.3441 252.66968
241.7496 1334.3441 252.66968
-15.427542 1367.4763 124.42017
-10.285093 1367.4763 124.42017
-5.1425467 1367.4763 124.42017
0 1367.4763 124.42017
5.1424484 1367.4763 124.42017
10.37276 1360.2096 148.49487
15.559041 1360.2096 148.49487
20.570187 1367.4763 124.42017
25.712635 1367.4763 124.42017
30.855083 1367.4763 124.42017
35.997726 1367.4763 124.42017
41.140175 1367.4763 124.42017
46.282822 1367.4763 124.42017
51.42527 1367.4763 124.42017
56.567715 1367.4763 124.42017
61.710361 1367.4763 124.42017
66.852806 1367.4763 124.42017
71.995453 1367.4763 124.42017
77.137901 1367.4763 124.42017
82.28035 1367.4763 124.42017
87.422989 1367.4763 124.42017
92.565445 1367.4763 124.42017
97.708092 1367.4763 124.42017
102.85054 1367.4763 124.42017
107.99298 1367.4763 124.42017
113.13563 1367.4763 124.42017
118.27808 1367.4763 124.42017
123.42072 1367.4763 124.42017
128.56317 1367.4763 124.42017
136.03053 1352.6523 173.53223
141.2626 1352.6523 173.53223
147.7709 1345.095 198.56982
153.04855 1345.095 198.56982
158.326 1345.095 198.56982
162.19028 1352.6523 173.53223
167.42235 1352.6523 173.53223
172.65421 1352.6523 173.53223
177.88628 1352.6523 173.53223
183.11813 1352.6523 173.53223
188.35001 1352.6523 173.53223
195.26877 1345.095 198.56982
200.54623 1345.095 198.56982
205.8239 1345.095 198.56982
211.10133 1345.095 198.56982
218.31973 1337.2471 224.57007
223.64473 1337.2471 224.57007
228.96953 1337.2471 224.57007
234.29451 1337.2471 224.57007
241.7496 1329.3989 250.57056
-15.427542 1362.7426 122.41089
-10.285093 1362.7426 122.41089
-5.1425467 1362.7426 122.41089
0 1362.7426 122.41089
5.1424484 1362.7426 122.41089
10.37276 1355.4355 146.46826
15.427542 1362.7426 122.41089
20.570187 1362.7426 122.41089
25.712635 1362.7426 122.41089
30.855083 1362.7426 122.41089
35.997726 1362.7426 122.41089
41.140175 1362.7426 122.41089
46.282822 1362.7426 122.41089
51.42527 1362.7426 122.41089
56.567715 1362.7426 122.41089
61.710361 1362.7426 122.41089
66.852806 1362.7426 122.41089
71.995453 1362.7426 122.41089
77.137901 1362.7426 122.41089
82.28035 1362.7426 122.41089
87.422989 1362.7426 122.41089
92.565445 1362.7426 122.41089
97.708092 1362.7426 122.41089
102.85054 1362.7426 122.41089
107.99298 1362.7426 122.41089
113.13563 1362.7426 122.41089
118.27808 1362.7426 122.41089
123.42072 1362.7426 122.41089
128.56317 1362.7426 122.41089
136.03053 1347.8363 171.48804
141.2626 1347.8363 171.48804
146.49446 1347.8363 171.48804
151.72653 1347.8363 171.48804
156.9584 1347.8363 171.48804
162.19028 1347.8363 171.48804
165.96358 1355.4355 146.46826
171.14984 1355.4355 146.46826
176.33632 1355.4355 146.46826
183.11813 1347.8363 171.48804
188.35001 1347.8363 171.48804
193.58208 1347.8363 171.48804
198.81393 1347.8363 171.48804
205.8239 1340.2369 196.50757
211.10133 1340.2369 196.50757
218.31973 1332.3455 222.4895
223.64473 1332.3455 222.4895
228.96953 1332.3455 222.4895
234.29451 1332.3455 222.4895
239.61931 1332.3455 222.4895
251.63832 1308.0863 302.35986
-15.559041 1350.6615 144.44189
-10.285093 1358.0088 120.40161
-5.1425467 1358.0088 120.40161
0 1358.0088 120.40161
5.1424484 1358.0088 120.40161
10.285093 1358.0088 120.40161
15.427542 1358.0088 120.40161
20.570187 1358.0088 120.40161
25.712635 1358.0088 120.40161
30.855083 1358.0088 120.40161
35.997726 1358.0088 120.40161
41.140175 1358.0088 120.40161
46.282822 1358.0088 120.40161
51.42527 1358.0088 120.40161
56.567715 1358.0088 120.40161
61.710361 1358.0088 120.40161
66.852806 1358.0088 120.40161
71.995453 1358.0088 120.40161
77.137901 1358.0088 120.40161
82.28035 1358.0088 120.40161
87.422989 1358.0088 120.40161
92.565445 1358.0088 120.40161
97.708092 1358.0088 120.40161
102.85054 1358.0088 120.40161
107.99298 1358.0088 120.40161
113.13563 1358.0088 120.40161
118.27808 1358.0088 120.40161
123.42072 1358.0088 120.40161
129.65901 1350.6615 144.44189
136.03053 1343.0203 169.4436
141.2626 1343.0203 169.4436
146.49446 1343.0203 169.4436
151.72653 1343.0203 169.4436
156.9584 1343.0203 169.4436
160.7771 1350.6615 144.44189
165.96358 1350.6615 144.44189
171.14984 1350.6615 144.44189
176.33632 1350.6615 144.44189
181.52261 1350.6615 144.44189
186.70889 1350.6615 144.44189
191.89537 1350.6615 144.44189
198.81393 1343.0203 169.4436
204.04601 1343.0203 169.4436
211.10133 1335.379 194.44556
216.37878 1335.379 194.44556
221.65645 1335.379 194.44556
226.93391 1335.379 194.44556
232.21156 1335.379 194.44556
239.61931 1327.4438 220.40894
247.12175 1319.5087 246.37256
-15.559041 1345.8875 142.41528
-10.37276 1345.8875 142.41528
-5.1425467 1353.2751 118.39209
0 1353.2751 118.39209
5.1424484 1353.2751 118.39209
10.285093 1353.2751 118.39209
15.427542 1353.2751 118.39209
20.570187 1353.2751 118.39209
25.712635 1353.2751 118.39209
30.855083 1353.2751 118.39209
35.997726 1353.2751 118.39209
41.140175 1353.2751 118.39209
46.282822 1353.2751 118.39209
51.42527 1353.2751 118.39209
56.567715 1353.2751 118.39209
61.710361 1353.2751 118.39209
66.852806 1353.2751 118.39209
71.995453 1353.2751 118.39209
77.137901 1353.2751 118.39209
82.28035 1353.2751 118.39209
87.422989 1353.2751 118.39209
92.565445 1353.2751 118.39209
97.708092 1353.2751 118.39209
102.85054 1353.2751 118.39209
107.99298 1353.2751 118.39209
113.13563 1353.2751 118.39209
119.28625 1345.8875 142.41528
124.47272 1345.8875 142.41528
129.65901 1345.8875 142.41528
136.03053 1338.2042 167.39941
141.2626 1338.2042 167.39941
146.49446 1338.2042 167.39941
151.72653 1338.2042 167.39941
155.59081 1345.8875 142.41528
160.7771 1345.8875 142.41528
164.5609 1353.2751 118.39209
169.70334 1353.2751 118.39209
176.33632 1345.8875 142.41528
181.52261 1345.8875 142.41528
186.70889 1345.8875 142.41528
191.89537 1345.8875 142.41528
198.81393 1338.2042 167.39941
204.04601 1338.2042 167.39941
209.27788 1338.2042 167.39941
216.37878 1330.521 192.38354
221.65645 1330.521 192.38354
226.93391 1330.521 192.38354
232.21156 1330.521 192.38354
239.61931 1322.5424 218.32837
244.94411 1322.5424 218.32837
252.49408 1314.5636 244.27344
-10.463933 1333.3882 165.35522
-5.1863799 1341.1133 140.38892
0 1348.5414 116.38281
5.1424484 1348.5414 116.38281
10.285093 1348.5414 116.38281
15.427542 1348.5414 116.38281
20.570187 1348.5414 116.38281
25.712635 1348.5414 116.38281
30.855083 1348.5414 116.38281
35.997726 1348.5414 116.38281
41.140175 1348.5414 116.38281
46.282822 1348.5414 116.38281
51.42527 1348.5414 116.38281
56.567715 1348.5414 116.38281
61.710361 1348.5414 116.38281
66.852806 1348.5414 116.38281
71.995453 1348.5414 116.38281
77.137901 1348.5414 116.38281
82.28035 1348.5414 116.38281
87.422989 1348.5414 116.38281
92.565445 1348.5414 116.38281
97.708092 1348.5414 116.38281
102.85054 1348.5414 116.38281
107.99298 1348.5414 116.38281
113.13563 1348.5414 116.38281
119.28625 1341.1133 140.38892
124.47272 1341.1133 140.38892
129.65901 1341.1133 140.38892
136.03053 1333.3882 165.35522
141.2626 1333.3882 165.35522
146.49446 1333.3882 165.35522
151.72653 1333.3882 165.35522
155.59081 1341.1133 140.38892
160.7771 1341.1133 140.38892
164.5609 1348.5414 116.38281
169.70334 1348.5414 116.38281
174.84598 1348.5414 116.38281
179.98843 1348.5414 116.38281
186.70889 1341.1133 140.38892
191.89537 1341.1133 140.38892
197.08165 1341.1133 140.38892
204.04601 1333.3882 165.35522
209.27788 1333.3882 165.35522
214.50974 1333.3882 165.35522
221.65645 1325.6631 190.32129
226.93391 1325.6631 190.32129
232.21156 1325.6631 190.32129
239.61931 1317.6409 216.2478
244.94411 1317.6409 216.2478
250.2691 1317.6409 216.2478
-10.555108 1320.8051 188.25928
-5.1863799 1336.3392 138.36255
0 1343.8076 114.37354
5.1424484 1343.8076 114.37354
10.285093 1343.8076 114.37354
15.427542 1343.8076 114.37354
20.570187 1343.8076 114.37354
25.712635 1343.8076 114.37354
30.855083 1343.8076 114.37354
35.997726 1343.8076 114.37354
41.140175 1343.8076 114.37354
46.282822 1343.8076 114.37354
51.42527 1343.8076 114.37354
56.567715 1343.8076 114.37354
61.710361 1343.8076 114.37354
66.852806 1343.8076 114.37354
71.995453 1343.8076 114.37354
77.137901 1343.8076 114.37354
82.28035 1343.8076 114.37354
88.168159 1336.3392 138.36255
93.354446 1336.3392 138.36255
98.540924 1336.3392 138.36255
103.7272 1336.3392 138.36255
108.91348 1336.3392 138.36255
114.09996 1336.3392 138.36255
