ply
format ascii 1.0
comment PCL generated
element vertex 1546
property float x
property float y
property float z
element camera 0
property float view_px
property float view_py
property float view_pz
property float x_axisx
property float x_axisy
property float x_axisz
property float y_axisx
property float y_axisy
property float y_axisz
property float z_axisx
property float z_axisy
property float z_axisz
property float focal
property float scalex
property float scaley
property float centerx
property float centery
property int viewportx
property int viewporty
property float k1
property float k2
end_header
226.27126 1007.7136 -28.290039
231.41371 1007.7136 -28.290039
234.53983 1018.0468 -51.062988
237.57848 1028.38 -73.835938
240.61342 1038.2997 -95.697754
245.62631 1038.2997 -95.697754
250.63901 1038.2997 -95.697754
255.65172 1038.2997 -95.697754
260.66461 1038.2997 -95.697754
265.67731 1038.2997 -95.697754
270.69022 1038.2997 -95.697754
275.70291 1038.2997 -95.697754
283.07211 1028.38 -73.835938
288.12704 1028.38 -73.835938
293.18185 1028.38 -73.835938
298.23685 1028.38 -73.835938
303.29163 1028.38 -73.835938
308.34637 1028.38 -73.835938
316.11902 1018.0468 -51.062988
321.21765 1018.0468 -51.062988
326.31647 1018.0468 -51.062988
331.41507 1018.0468 -51.062988
339.40668 1007.7136 -28.290039
344.54932 1007.7136 -28.290039
-98.540825 992.6062 -7.543457
-93.354446 992.6062 -7.543457
-88.943138 981.81787 16.122314
-83.711174 981.81787 16.122314
-78.479202 981.81787 16.122314
-73.247231 981.81787 16.122314
-68.015266 981.81787 16.122314
-62.783401 981.81787 16.122314
-57.551434 981.81787 16.122314
-52.319469 981.81787 16.122314
-47.087502 981.81787 16.122314
-41.490841 992.6062 -7.543457
-35.997726 1002.9797 -30.299316
-30.855181 1002.9797 -30.299316
-25.931801 992.6062 -7.543457
-20.74542 992.6062 -7.543457
-15.559041 992.6062 -7.543457
-10.285093 1002.9797 -30.299316
-5.1425467 1002.9797 -30.299316
0 1002.9797 -30.299316
5.1424484 1002.9797 -30.299316
10.285093 1002.9797 -30.299316
15.427542 1002.9797 -30.299316
20.570187 1002.9797 -30.299316
25.712635 1002.9797 -30.299316
30.855083 1002.9797 -30.299316
35.997726 1002.9797 -30.299316
41.140175 1002.9797 -30.299316
46.282822 1002.9797 -30.299316
51.42527 1002.9797 -30.299316
56.567715 1002.9797 -30.299316
61.710361 1002.9797 -30.299316
66.852806 1002.9797 -30.299316
71.995453 1002.9797 -30.299316
77.137901 1002.9797 -30.299316
82.28035 1002.9797 -30.299316
86.677826 1013.3533 -53.055176
91.776451 1013.3533 -53.055176
96.875259 1013.3533 -53.055176
101.97387 1013.3533 -53.055176
107.07249 1013.3533 -53.055176
112.1713 1013.3533 -53.055176
118.27808 1002.9797 -30.299316
123.42072 1002.9797 -30.299316
128.56317 1002.9797 -30.299316
133.70561 1002.9797 -30.299316
138.84827 1002.9797 -30.299316
143.99071 1002.9797 -30.299316
149.13335 1002.9797 -30.299316
154.2758 1002.9797 -30.299316
159.41826 1002.9797 -30.299316
164.5609 1002.9797 -30.299316
169.70334 1002.9797 -30.299316
174.84598 1002.9797 -30.299316
179.98843 1002.9797 -30.299316
186.70889 992.6062 -7.543457
191.89537 992.6062 -7.543457
197.08165 992.6062 -7.543457
202.26811 992.6062 -7.543457
207.45441 992.6062 -7.543457
210.84354 1002.9797 -30.299316
215.98618 1002.9797 -30.299316
221.12862 1002.9797 -30.299316
226.27126 1002.9797 -30.299316
229.44121 1013.3533 -53.055176
234.53983 1013.3533 -53.055176
237.57848 1023.7268 -75.811035
240.61342 1033.6853 -97.65625
245.62631 1033.6853 -97.65625
250.63901 1033.6853 -97.65625
255.65172 1033.6853 -97.65625
260.66461 1033.6853 -97.65625
267.90753 1023.7268 -75.811035
272.96252 1023.7268 -75.811035
278.0173 1023.7268 -75.811035
283.07211 1023.7268 -75.811035
288.12704 1023.7268 -75.811035
293.18185 1023.7268 -75.811035
298.23685 1023.7268 -75.811035
303.29163 1023.7268 -75.811035
311.0202 1013.3533 -53.055176
316.11902 1013.3533 -53.055176
321.21765 1013.3533 -53.055176
326.31647 1013.3533 -53.055176
331.41507 1013.3533 -53.055176
339.40668 1002.9797 -30.299316
344.54932 1002.9797 -30.299316
-99.406967 977.00171 14.078125
-94.175003 977.00171 14.078125
-88.943138 977.00171 14.078125
-83.711174 977.00171 14.078125
-78.479202 977.00171 14.078125
-73.247231 977.00171 14.078125
-68.015266 977.00171 14.078125
-62.783401 977.00171 14.078125
-57.551434 977.00171 14.078125
-52.319469 977.00171 14.078125
-47.087502 977.00171 14.078125
-41.490841 987.83215 -9.5700684
-35.997726 998.24597 -32.308838
-30.855181 998.24597 -32.308838
-25.931801 987.83215 -9.5700684
-20.74542 987.83215 -9.5700684
-15.427542 998.24597 -32.308838
-10.285093 998.24597 -32.308838
-5.1425467 998.24597 -32.308838
0 998.24597 -32.308838
5.1424484 998.24597 -32.308838
10.285093 998.24597 -32.308838
15.427542 998.24597 -32.308838
20.570187 998.24597 -32.308838
25.712635 998.24597 -32.308838
30.855083 998.24597 -32.308838
35.997726 998.24597 -32.308838
41.140175 998.24597 -32.308838
46.282822 998.24597 -32.308838
51.42527 998.24597 -32.308838
56.567715 998.24597 -32.308838
61.710361 998.24597 -32.308838
66.852806 998.24597 -32.308838
71.995453 998.24597 -32.308838
77.137901 998.24597 -32.308838
82.28035 998.24597 -32.308838
87.422989 998.24597 -32.308838
92.565445 998.24597 -32.308838
97.708092 998.24597 -32.308838
102.85054 998.24597 -32.308838
107.99298 998.24597 -32.308838
113.13563 998.24597 -32.308838
118.27808 998.24597 -32.308838
123.42072 998.24597 -32.308838
128.56317 998.24597 -32.308838
133.70561 998.24597 -32.308838
138.84827 998.24597 -32.308838
143.99071 998.24597 -32.308838
149.13335 998.24597 -32.308838
154.2758 998.24597 -32.308838
159.41826 998.24597 -32.308838
164.5609 998.24597 -32.308838
169.70334 998.24597 -32.308838
174.84598 998.24597 -32.308838
181.52261 987.83215 -9.5700684
186.70889 987.83215 -9.5700684
191.89537 987.83215 -9.5700684
197.08165 987.83215 -9.5700684
202.26811 987.83215 -9.5700684
207.45441 987.83215 -9.5700684
210.84354 998.24597 -32.308838
215.98618 998.24597 -32.308838
221.12862 998.24597 -32.308838
226.27126 998.24597 -32.308838
229.44121 1008.6599 -55.047363
232.5235 1019.0737 -77.786133
237.57848 1019.0737 -77.786133
240.61342 1029.071 -99.61499
245.62631 1029.071 -99.61499
250.63901 1029.071 -99.61499
255.65172 1029.071 -99.61499
260.66461 1029.071 -99.61499
265.67731 1029.071 -99.61499
272.96252 1019.0737 -77.786133
278.0173 1019.0737 -77.786133
283.07211 1019.0737 -77.786133
288.12704 1019.0737 -77.786133
293.18185 1019.0737 -77.786133
298.23685 1019.0737 -77.786133
303.29163 1019.0737 -77.786133
308.34637 1019.0737 -77.786133
316.11902 1008.6599 -55.047363
321.21765 1008.6599 -55.047363
326.31647 1008.6599 -55.047363
331.41507 1008.6599 -55.047363
339.40668 998.24597 -32.308838
344.54932 998.24597 -32.308838
-99.406967 972.18579 12.033691
-94.175003 972.18579 12.033691
-88.943138 972.18579 12.033691
-83.711174 972.18579 12.033691
-78.479202 972.18579 12.033691
-73.247231 972.18579 12.033691
-68.015266 972.18579 12.033691
-62.783401 972.18579 12.033691
-57.551434 972.18579 12.033691
-52.319469 972.18579 12.033691
-47.087502 972.18579 12.033691
-41.490841 983.05811 -11.596436
-36.304562 983.05811 -11.596436
-31.118181 983.05811 -11.596436
-25.931801 983.05811 -11.596436
-20.74542 983.05811 -11.596436
-15.427542 993.51233 -34.318115
-10.285093 993.51233 -34.318115
-5.1425467 993.51233 -34.318115
0 993.51233 -34.318115
5.1424484 993.51233 -34.318115
10.285093 993.51233 -34.318115
15.427542 993.51233 -34.318115
20.570187 993.51233 -34.318115
25.712635 993.51233 -34.318115
30.855083 993.51233 -34.318115
35.997726 993.51233 -34.318115
41.140175 993.51233 -34.318115
46.282822 993.51233 -34.318115
51.42527 993.51233 -34.318115
56.567715 993.51233 -34.318115
61.710361 993.51233 -34.318115
66.852806 993.51233 -34.318115
71.995453 993.51233 -34.318115
77.137901 993.51233 -34.318115
82.28035 993.51233 -34.318115
87.422989 993.51233 -34.318115
92.565445 993.51233 -34.318115
97.708092 993.51233 -34.318115
102.85054 993.51233 -34.318115
107.99298 993.51233 -34.318115
113.13563 993.51233 -34.318115
118.27808 993.51233 -34.318115
123.42072 993.51233 -34.318115
128.56317 993.51233 -34.318115
133.70561 993.51233 -34.318115
138.84827 993.51233 -34.318115
143.99071 993.51233 -34.318115
149.13335 993.51233 -34.318115
154.2758 993.51233 -34.318115
159.41826 993.51233 -34.318115
164.5609 993.51233 -34.318115
169.70334 993.51233 -34.318115
174.84598 993.51233 -34.318115
181.52261 983.05811 -11.596436
186.70889 983.05811 -11.596436
191.89537 983.05811 -11.596436
197.08165 983.05811 -11.596436
202.26811 983.05811 -11.596436
207.45441 983.05811 -11.596436
210.84354 993.51233 -34.318115
215.98618 993.51233 -34.318115
221.12862 993.51233 -34.318115
224.34259 1003.9666 -57.039551
229.44121 1003.9666 -57.039551
232.5235 1014.4208 -79.76123
235.60069 1024.4568 -101.57373
240.61342 1024.4568 -101.57373
245.62631 1024.4568 -101.57373
250.63901 1024.4568 -101.57373
255.65172 1024.4568 -101.57373
260.66461 1024.4568 -101.57373
265.67731 1024.4568 -101.57373
272.96252 1014.4208 -79.76123
278.0173 1014.4208 -79.76123
283.07211 1014.4208 -79.76123
288.12704 1014.4208 -79.76123
293.18185 1014.4208 -79.76123
298.23685 1014.4208 -79.76123
303.29163 1014.4208 -79.76123
308.34637 1014.4208 -79.76123
316.11902 1003.9666 -57.039551
321.21765 1003.9666 -57.039551
329.1218 993.51233 -34.318115
334.26425 993.51233 -34.318115
339.40668 993.51233 -34.318115
344.54932 993.51233 -34.318115
-94.175003 967.36975 9.989502
-88.943138 967.36975 9.989502
-83.711174 967.36975 9.989502
-78.479202 967.36975 9.989502
-73.247231 967.36975 9.989502
-68.015266 967.36975 9.989502
-62.783401 967.36975 9.989502
-57.551434 967.36975 9.989502
-52.319469 967.36975 9.989502
-47.087502 967.36975 9.989502
-41.490841 978.28394 -13.623047
-36.304562 978.28394 -13.623047
-31.118181 978.28394 -13.623047
-25.931801 978.28394 -13.623047
-20.74542 978.28394 -13.623047
-15.559041 978.28394 -13.623047
-10.285093 988.77856 -36.327393
-5.1425467 988.77856 -36.327393
0 988.77856 -36.327393
5.1424484 988.77856 -36.327393
10.37276 978.28394 -13.623047
15.559041 978.28394 -13.623047
20.74552 978.28394 -13.623047
25.712635 988.77856 -36.327393
30.855083 988.77856 -36.327393
35.997726 988.77856 -36.327393
41.140175 988.77856 -36.327393
46.282822 988.77856 -36.327393
51.42527 988.77856 -36.327393
56.567715 988.77856 -36.327393
61.710361 988.77856 -36.327393
66.852806 988.77856 -36.327393
71.995453 988.77856 -36.327393
77.137901 988.77856 -36.327393
82.28035 988.77856 -36.327393
87.422989 988.77856 -36.327393
92.565445 988.77856 -36.327393
97.708092 988.77856 -36.327393
102.85054 988.77856 -36.327393
107.99298 988.77856 -36.327393
113.13563 988.77856 -36.327393
118.27808 988.77856 -36.327393
123.42072 988.77856 -36.327393
128.56317 988.77856 -36.327393
133.70561 988.77856 -36.327393
138.84827 988.77856 -36.327393
143.99071 988.77856 -36.327393
149.13335 988.77856 -36.327393
154.2758 988.77856 -36.327393
159.41826 988.77856 -36.327393
164.5609 988.77856 -36.327393
169.70334 988.77856 -36.327393
174.84598 988.77856 -36.327393
181.52261 978.28394 -13.623047
186.70889 978.28394 -13.623047
191.89537 978.28394 -13.623047
197.08165 978.28394 -13.623047
202.26811 978.28394 -13.623047
207.45441 978.28394 -13.623047
210.84354 988.77856 -36.327393
215.98618 988.77856 -36.327393
221.12862 988.77856 -36.327393
224.34259 999.27319 -59.031738
229.44121 999.27319 -59.031738
232.5235 1009.7677 -81.736328
235.60069 1019.8424 -103.53223
240.61342 1019.8424 -103.53223
245.62631 1019.8424 -103.53223
250.63901 1019.8424 -103.53223
255.65172 1019.8424 -103.53223
260.66461 1019.8424 -103.53223
265.67731 1019.8424 -103.53223
270.69022 1019.8424 -103.53223
278.0173 1009.7677 -81.736328
283.07211 1009.7677 -81.736328
288.12704 1009.7677 -81.736328
293.18185 1009.7677 -81.736328
298.23685 1009.7677 -81.736328
303.29163 1009.7677 -81.736328
311.0202 999.27319 -59.031738
316.11902 999.27319 -59.031738
321.21765 999.27319 -59.031738
329.1218 988.77856 -36.327393
337.1134 978.28394 -13.623047
342.29968 978.28394 -13.623047
-94.99556 951.59741 31.539795
-89.718109 951.59741 31.539795
-83.711174 962.55371 7.9453125
-78.479202 962.55371 7.9453125
-73.247231 962.55371 7.9453125
-68.015266 962.55371 7.9453125
-62.783401 962.55371 7.9453125
-57.551434 962.55371 7.9453125
-52.319469 962.55371 7.9453125
-47.087502 962.55371 7.9453125
-41.490841 973.51001 -15.649414
-36.304562 973.51001 -15.649414
-31.118181 973.51001 -15.649414
-25.931801 973.51001 -15.649414
-20.74542 973.51001 -15.649414
-15.559041 973.51001 -15.649414
-10.37276 973.51001 -15.649414
-5.1863799 973.51001 -15.649414
0 973.51001 -15.649414
5.1862807 973.51001 -15.649414
10.37276 973.51001 -15.649414
15.559041 973.51001 -15.649414
20.74552 973.51001 -15.649414
25.712635 984.04492 -38.33667
30.855083 984.04492 -38.33667
35.997726 984.04492 -38.33667
41.140175 984.04492 -38.33667
46.282822 984.04492 -38.33667
51.42527 984.04492 -38.33667
56.567715 984.04492 -38.33667
61.710361 984.04492 -38.33667
66.852806 984.04492 -38.33667
71.995453 984.04492 -38.33667
77.137901 984.04492 -38.33667
82.28035 984.04492 -38.33667
87.422989 984.04492 -38.33667
92.565445 984.04492 -38.33667
97.708092 984.04492 -38.33667
102.85054 984.04492 -38.33667
107.99298 984.04492 -38.33667
113.13563 984.04492 -38.33667
118.27808 984.04492 -38.33667
123.42072 984.04492 -38.33667
128.56317 984.04492 -38.33667
133.70561 984.04492 -38.33667
138.84827 984.04492 -38.33667
143.99071 984.04492 -38.33667
149.13335 984.04492 -38.33667
154.2758 984.04492 -38.33667
159.41826 984.04492 -38.33667
164.5609 984.04492 -38.33667
171.14984 973.51001 -15.649414
176.33632 973.51001 -15.649414
181.52261 973.51001 -15.649414
186.70889 973.51001 -15.649414
191.89537 973.51001 -15.649414
197.08165 973.51001 -15.649414
202.26811 973.51001 -15.649414
207.45441 973.51001 -15.649414
212.6407 973.51001 -15.649414
215.98618 984.04492 -38.33667
221.12862 984.04492 -38.33667
226.27126 984.04492 -38.33667
229.44121 994.57983 -61.023926
232.5235 1005.1147 -83.711182
237.57848 1005.1147 -83.711182
242.63324 1005.1147 -83.711182
247.68822 1005.1147 -83.711182
252.74301 1005.1147 -83.711182
257.79779 1005.1147 -83.711182
262.85278 1005.1147 -83.711182
265.67731 1015.2281 -105.49097
270.69022 1015.2281 -105.49097
278.0173 1005.1147 -83.711182
283.07211 1005.1147 -83.711182
288.12704 1005.1147 -83.711182
293.18185 1005.1147 -83.711182
298.23685 1005.1147 -83.711182
303.29163 1005.1147 -83.711182
308.34637 1005.1147 -83.711182
316.11902 994.57983 -61.023926
321.21765 994.57983 -61.023926
329.1218 984.04492 -38.33667
334.26425 984.04492 -38.33667
-106.49747 935.31812 53.961426
-101.17258 935.31812 53.961426
-95.847679 935.31812 53.961426
-89.718109 946.73938 29.477783
-84.440552 946.73938 29.477783
-78.479202 957.73767 5.9008789
-73.247231 957.73767 5.9008789
-68.015266 957.73767 5.9008789
-62.783401 957.73767 5.9008789
-57.551434 957.73767 5.9008789
-52.319469 957.73767 5.9008789
-47.087502 957.73767 5.9008789
-41.855534 957.73767 5.9008789
-36.304562 968.73584 -17.676025
-31.118181 968.73584 -17.676025
-25.931801 968.73584 -17.676025
-20.74542 968.73584 -17.676025
-15.559041 968.73584 -17.676025
-10.37276 968.73584 -17.676025
-5.1863799 968.73584 -17.676025
0 968.73584 -17.676025
5.1862807 968.73584 -17.676025
10.37276 968.73584 -17.676025
15.559041 968.73584 -17.676025
20.74552 968.73584 -17.676025
25.712635 979.31116 -40.346191
30.855083 979.31116 -40.346191
35.997726 979.31116 -40.346191
41.140175 979.31116 -40.346191
46.282822 979.31116 -40.346191
51.42527 979.31116 -40.346191
56.567715 979.31116 -40.346191
61.710361 979.31116 -40.346191
66.852806 979.31116 -40.346191
71.995453 979.31116 -40.346191
77.137901 979.31116 -40.346191
82.28035 979.31116 -40.346191
87.422989 979.31116 -40.346191
92.565445 979.31116 -40.346191
97.708092 979.31116 -40.346191
102.85054 979.31116 -40.346191
107.99298 979.31116 -40.346191
113.13563 979.31116 -40.346191
118.27808 979.31116 -40.346191
123.42072 979.31116 -40.346191
128.56317 979.31116 -40.346191
133.70561 979.31116 -40.346191
138.84827 979.31116 -40.346191
143.99071 979.31116 -40.346191
149.13335 979.31116 -40.346191
154.2758 979.31116 -40.346191
159.41826 979.31116 -40.346191
164.5609 979.31116 -40.346191
171.14984 968.73584 -17.676025
176.33632 968.73584 -17.676025
183.11813 957.73767 5.9008789
188.35001 957.73767 5.9008789
193.58208 957.73767 5.9008789
198.81393 957.73767 5.9008789
204.04601 957.73767 5.9008789
207.45441 968.73584 -17.676025
212.6407 968.73584 -17.676025
215.98618 979.31116 -40.346191
221.12862 979.31116 -40.346191
226.27126 979.31116 -40.346191
229.44121 989.88647 -63.016357
232.5235 1000.4617 -85.686523
237.57848 1000.4617 -85.686523
242.63324 1000.4617 -85.686523
247.68822 1000.4617 -85.686523
252.74301 1000.4617 -85.686523
257.79779 1000.4617 -85.686523
262.85278 1000.4617 -85.686523
267.90753 1000.4617 -85.686523
272.96252 1000.4617 -85.686523
278.0173 1000.4617 -85.686523
283.07211 1000.4617 -85.686523
288.12704 1000.4617 -85.686523
293.18185 1000.4617 -85.686523
298.23685 1000.4617 -85.686523
303.29163 1000.4617 -85.686523
308.34637 1000.4617 -85.686523
316.11902 989.88647 -63.016357
323.97916 979.31116 -40.346191
329.1218 979.31116 -40.346191
334.26425 979.31116 -40.346191
-113.84747 907.06226 101.71753
-106.49747 930.41663 51.880859
-101.17258 930.41663 51.880859
-95.847679 930.41663 51.880859
-89.718109 941.88147 27.415771
-84.440552 941.88147 27.415771
-78.479202 952.92175 3.8566895
-73.247231 952.92175 3.8566895
-68.015266 952.92175 3.8566895
-62.783401 952.92175 3.8566895
-57.551434 952.92175 3.8566895
-52.319469 952.92175 3.8566895
-47.087502 952.92175 3.8566895
-41.855534 952.92175 3.8566895
-36.623669 952.92175 3.8566895
-31.118181 963.96191 -19.702393
-25.931801 963.96191 -19.702393
-20.74542 963.96191 -19.702393
-15.559041 963.96191 -19.702393
-10.37276 963.96191 -19.702393
-5.1863799 963.96191 -19.702393
0 963.96191 -19.702393
5.1862807 963.96191 -19.702393
10.37276 963.96191 -19.702393
15.559041 963.96191 -19.702393
20.74552 963.96191 -19.702393
25.712635 974.57751 -42.355469
30.855083 974.57751 -42.355469
35.997726 974.57751 -42.355469
41.140175 974.57751 -42.355469
46.282822 974.57751 -42.355469
51.42527 974.57751 -42.355469
56.567715 974.57751 -42.355469
61.710361 974.57751 -42.355469
66.852806 974.57751 -42.355469
71.995453 974.57751 -42.355469
77.137901 974.57751 -42.355469
82.28035 974.57751 -42.355469
87.422989 974.57751 -42.355469
92.565445 974.57751 -42.355469
97.708092 974.57751 -42.355469
102.85054 974.57751 -42.355469
107.99298 974.57751 -42.355469
113.13563 974.57751 -42.355469
118.27808 974.57751 -42.355469
123.42072 974.57751 -42.355469
128.56317 974.57751 -42.355469
133.70561 974.57751 -42.355469
138.84827 974.57751 -42.355469
143.99071 974.57751 -42.355469
149.13335 974.57751 -42.355469
154.2758 974.57751 -42.355469
160.7771 963.96191 -19.702393
165.96358 963.96191 -19.702393
171.14984 963.96191 -19.702393
176.33632 963.96191 -19.702393
181.52261 963.96191 -19.702393
188.35001 952.92175 3.8566895
193.58208 952.92175 3.8566895
198.81393 952.92175 3.8566895
204.04601 952.92175 3.8566895
207.45441 963.96191 -19.702393
212.6407 963.96191 -19.702393
217.82718 963.96191 -19.702393
221.12862 974.57751 -42.355469
226.27126 974.57751 -42.355469
229.44121 985.19312 -65.008545
234.53983 985.19312 -65.008545
237.57848 995.80872 -87.661377
242.63324 995.80872 -87.661377
247.68822 995.80872 -87.661377
252.74301 995.80872 -87.661377
257.79779 995.80872 -87.661377
262.85278 995.80872 -87.661377
267.90753 995.80872 -87.661377
272.96252 995.80872 -87.661377
278.0173 995.80872 -87.661377
283.07211 995.80872 -87.661377
288.12704 995.80872 -87.661377
293.18185 995.80872 -87.661377
298.23685 995.80872 -87.661377
303.29163 995.80872 -87.661377
311.0202 985.19312 -65.008545
316.11902 985.19312 -65.008545
321.21765 985.19312 -65.008545
329.1218 974.57751 -42.355469
334.26425 974.57751 -42.355469
-113.84747 902.0719 99.599121
-107.44427 914.00647 74.24707
-102.07204 914.00647 74.24707
-96.699806 914.00647 74.24707
-89.718109 937.02332 25.353516
-84.440552 937.02332 25.353516
-78.479202 948.10559 1.8122559
-73.247231 948.10559 1.8122559
-68.015266 948.10559 1.8122559
-62.783401 948.10559 1.8122559
-57.551434 948.10559 1.8122559
-52.319469 948.10559 1.8122559
-47.087502 948.10559 1.8122559
-41.855534 948.10559 1.8122559
-36.623669 948.10559 1.8122559
-31.118181 959.18774 -21.729004
-25.931801 959.18774 -21.729004
-20.74542 959.18774 -21.729004
-15.559041 959.18774 -21.729004
-10.37276 959.18774 -21.729004
-5.1425467 969.84375 -44.364746
0 969.84375 -44.364746
5.1862807 959.18774 -21.729004
10.37276 959.18774 -21.729004
15.559041 959.18774 -21.729004
20.74552 959.18774 -21.729004
25.712635 969.84375 -44.364746
30.855083 969.84375 -44.364746
36.304562 959.18774 -21.729004
41.140175 969.84375 -44.364746
46.282822 969.84375 -44.364746
51.42527 969.84375 -44.364746
56.567715 969.84375 -44.364746
61.710361 969.84375 -44.364746
66.852806 969.84375 -44.364746
71.995453 969.84375 -44.364746
77.137901 969.84375 -44.364746
82.28035 969.84375 -44.364746
87.422989 969.84375 -44.364746
92.565445 969.84375 -44.364746
97.708092 969.84375 -44.364746
102.85054 969.84375 -44.364746
107.99298 969.84375 -44.364746
113.13563 969.84375 -44.364746
118.27808 969.84375 -44.364746
123.42072 969.84375 -44.364746
128.56317 969.84375 -44.364746
133.70561 969.84375 -44.364746
138.84827 969.84375 -44.364746
143.99071 969.84375 -44.364746
149.13335 969.84375 -44.364746
155.59081 959.18774 -21.729004
160.7771 959.18774 -21.729004
165.96358 959.18774 -21.729004
171.14984 959.18774 -21.729004
176.33632 959.18774 -21.729004
181.52261 959.18774 -21.729004
188.35001 948.10559 1.8122559
193.58208 948.10559 1.8122559
198.81393 948.10559 1.8122559
204.04601 948.10559 1.8122559
207.45441 959.18774 -21.729004
212.6407 959.18774 -21.729004
217.82718 959.18774 -21.729004
221.12862 969.84375 -44.364746
226.27126 969.84375 -44.364746
229.44121 980.49963 -67.000732
234.53983 980.49963 -67.000732
239.63864 980.49963 -67.000732
242.63324 991.15564 -89.636475
247.68822 991.15564 -89.636475
252.74301 991.15564 -89.636475
257.79779 991.15564 -89.636475
262.85278 991.15564 -89.636475
267.90753 991.15564 -89.636475
272.96252 991.15564 -89.636475
278.0173 991.15564 -89.636475
283.07211 991.15564 -89.636475
288.12704 991.15564 -89.636475
293.18185 991.15564 -89.636475
298.23685 991.15564 -89.636475
305.9216 980.49963 -67.000732
311.0202 980.49963 -67.000732
316.11902 980.49963 -67.000732
321.21765 980.49963 -67.000732
329.1218 969.84375 -44.364746
334.26425 969.84375 -44.364746
-113.84747 897.08167 97.480957
-107.44427 909.0614 72.147949
-102.07204 909.0614 72.147949
-96.699806 909.0614 72.147949
-90.522888 920.61353 47.719482
-84.440552 932.16541 23.291504
-79.163002 932.16541 23.291504
-73.247231 943.28967 -0.23193359
-68.015266 943.28967 -0.23193359
-62.783401 943.28967 -0.23193359
-57.551434 943.28967 -0.23193359
-52.319469 943.28967 -0.23193359
-47.087502 943.28967 -0.23193359
-41.855534 943.28967 -0.23193359
-36.623669 943.28967 -0.23193359
-31.118181 954.4137 -23.755371
-25.931801 954.4137 -23.755371
-20.74542 954.4137 -23.755371
-15.559041 954.4137 -23.755371
-10.285093 965.11011 -46.374023
-5.1425467 965.11011 -46.374023
0 965.11011 -46.374023
5.1862807 954.4137 -23.755371
10.37276 954.4137 -23.755371
15.559041 954.4137 -23.755371
20.74552 954.4137 -23.755371
25.712635 965.11011 -46.374023
30.855083 965.11011 -46.374023
36.304562 954.4137 -23.755371
41.140175 965.11011 -46.374023
46.282822 965.11011 -46.374023
51.42527 965.11011 -46.374023
56.567715 965.11011 -46.374023
61.710361 965.11011 -46.374023
66.852806 965.11011 -46.374023
71.995453 965.11011 -46.374023
77.137901 965.11011 -46.374023
82.28035 965.11011 -46.374023
87.422989 965.11011 -46.374023
92.565445 965.11011 -46.374023
97.708092 965.11011 -46.374023
102.85054 965.11011 -46.374023
107.99298 965.11011 -46.374023
113.13563 965.11011 -46.374023
118.27808 965.11011 -46.374023
123.42072 965.11011 -46.374023
128.56317 965.11011 -46.374023
133.70561 965.11011 -46.374023
138.84827 965.11011 -46.374023
143.99071 965.11011 -46.374023
149.13335 965.11011 -46.374023
155.59081 954.4137 -23.755371
160.7771 954.4137 -23.755371
165.96358 954.4137 -23.755371
171.14984 954.4137 -23.755371
176.33632 954.4137 -23.755371
181.52261 954.4137 -23.755371
188.35001 943.28967 -0.23193359
193.58208 943.28967 -0.23193359
198.81393 943.28967 -0.23193359
204.04601 943.28967 -0.23193359
207.45441 954.4137 -23.755371
212.6407 954.4137 -23.755371
217.82718 954.4137 -23.755371
223.01344 954.4137 -23.755371
226.27126 965.11011 -46.374023
231.41371 965.11011 -46.374023
234.53983 975.8064 -68.99292
239.63864 975.8064 -68.99292
244.73724 975.8064 -68.99292
247.68822 986.50269 -91.611572
252.74301 986.50269 -91.611572
257.79779 986.50269 -91.611572
262.85278 986.50269 -91.611572
267.90753 986.50269 -91.611572
272.96252 986.50269 -91.611572
278.0173 986.50269 -91.611572
283.07211 986.50269 -91.611572
288.12704 986.50269 -91.611572
293.18185 986.50269 -91.611572
298.23685 986.50269 -91.611572
305.9216 975.8064 -68.99292
311.0202 975.8064 -68.99292
316.11902 975.8064 -68.99292
321.21765 975.8064 -68.99292
329.1218 965.11011 -46.374023
337.1134 954.4137 -23.755371
-113.84747 892.09119 95.362549
-108.42614 892.09119 95.362549
-103.00481 892.09119 95.362549
-97.583481 892.09119 95.362549
-91.327667 904.11621 70.048828
-84.440552 927.30737 21.229492
-79.163002 927.30737 21.229492
-73.885452 927.30737 21.229492
-68.015266 938.47351 -2.276123
-62.783401 938.47351 -2.276123
-57.551434 938.47351 -2.276123
-52.319469 938.47351 -2.276123
-47.087502 938.47351 -2.276123
-41.855534 938.47351 -2.276123
-36.623669 938.47351 -2.276123
-31.391701 938.47351 -2.276123
-26.159735 938.47351 -2.276123
-20.74542 949.63965 -25.781738
-15.559041 949.63965 -25.781738
-10.285093 960.37622 -48.383545
-5.1425467 960.37622 -48.383545
0 949.63965 -25.781738
5.1862807 949.63965 -25.781738
10.37276 949.63965 -25.781738
15.559041 949.63965 -25.781738
20.74552 949.63965 -25.781738
25.712635 960.37622 -48.383545
30.855083 960.37622 -48.383545
35.997726 960.37622 -48.383545
41.140175 960.37622 -48.383545
46.282822 960.37622 -48.383545
51.42527 960.37622 -48.383545
56.567715 960.37622 -48.383545
61.710361 960.37622 -48.383545
66.852806 960.37622 -48.383545
71.995453 960.37622 -48.383545
77.137901 960.37622 -48.383545
82.28035 960.37622 -48.383545
87.422989 960.37622 -48.383545
92.565445 960.37622 -48.383545
97.708092 960.37622 -48.383545
102.85054 960.37622 -48.383545
107.99298 960.37622 -48.383545
113.13563 960.37622 -48.383545
118.27808 960.37622 -48.383545
123.42072 960.37622 -48.383545
128.56317 960.37622 -48.383545
133.70561 960.37622 -48.383545
138.84827 960.37622 -48.383545
143.99071 960.37622 -48.383545
149.13335 960.37622 -48.383545
154.2758 960.37622 -48.383545
159.41826 960.37622 -48.383545
165.96358 949.63965 -25.781738
171.14984 949.63965 -25.781738
176.33632 949.63965 -25.781738
181.52261 949.63965 -25.781738
188.35001 938.47351 -2.276123
193.58208 938.47351 -2.276123
198.81393 938.47351 -2.276123
204.04601 938.47351 -2.276123
209.27788 938.47351 -2.276123
212.6407 949.63965 -25.781738
217.82718 949.63965 -25.781738
223.01344 949.63965 -25.781738
226.27126 960.37622 -48.383545
231.41371 960.37622 -48.383545
234.53983 971.11292 -70.985107
239.63864 971.11292 -70.985107
244.73724 971.11292 -70.985107
249.83606 971.11292 -70.985107
252.74301 981.84961 -93.58667
257.79779 981.84961 -93.58667
262.85278 981.84961 -93.58667
267.90753 981.84961 -93.58667
272.96252 981.84961 -93.58667
280.42813 971.11292 -70.985107
283.07211 981.84961 -93.58667
288.12704 981.84961 -93.58667
295.72418 971.11292 -70.985107
300.823 971.11292 -70.985107
305.9216 971.11292 -70.985107
311.0202 971.11292 -70.985107
316.11902 971.11292 -70.985107
321.21765 971.11292 -70.985107
326.31647 971.11292 -70.985107
-108.42614 887.10095 93.244385
-103.00481 887.10095 93.244385
-97.583481 887.10095 93.244385
-91.327667 899.17114 67.949707
-84.440552 922.44946 19.167236
-79.163002 922.44946 19.167236
-73.885452 922.44946 19.167236
-68.607895 922.44946 19.167236
-63.330441 922.44946 19.167236
-57.551434 933.65759 -4.3205566
-52.319469 933.65759 -4.3205566
-47.087502 933.65759 -4.3205566
-41.855534 933.65759 -4.3205566
-36.623669 933.65759 -4.3205566
-31.391701 933.65759 -4.3205566
-26.159735 933.65759 -4.3205566
-20.74542 944.8656 -27.80835
-15.559041 944.8656 -27.80835
-10.37276 944.8656 -27.80835
-5.1863799 944.8656 -27.80835
0 944.8656 -27.80835
5.1862807 944.8656 -27.80835
10.37276 944.8656 -27.80835
15.559041 944.8656 -27.80835
20.74552 944.8656 -27.80835
25.712635 955.64258 -50.392822
30.855083 955.64258 -50.392822
35.997726 955.64258 -50.392822
41.140175 955.64258 -50.392822
46.282822 955.64258 -50.392822
51.42527 955.64258 -50.392822
56.567715 955.64258 -50.392822
61.710361 955.64258 -50.392822
66.852806 955.64258 -50.392822
71.995453 955.64258 -50.392822
77.137901 955.64258 -50.392822
82.28035 955.64258 -50.392822
87.422989 955.64258 -50.392822
92.565445 955.64258 -50.392822
98.540924 944.8656 -27.80835
103.7272 944.8656 -27.80835
108.91348 944.8656 -27.80835
114.09996 944.8656 -27.80835
119.28625 944.8656 -27.80835
124.47272 944.8656 -27.80835
129.65901 944.8656 -27.80835
134.84529 944.8656 -27.80835
140.03175 944.8656 -27.80835
143.99071 955.64258 -50.392822
149.13335 955.64258 -50.392822
154.2758 955.64258 -50.392822
159.41826 955.64258 -50.392822
165.96358 944.8656 -27.80835
171.14984 944.8656 -27.80835
176.33632 944.8656 -27.80835
181.52261 944.8656 -27.80835
186.70889 944.8656 -27.80835
191.89537 944.8656 -27.80835
198.81393 933.65759 -4.3205566
204.04601 933.65759 -4.3205566
207.45441 944.8656 -27.80835
212.6407 944.8656 -27.80835
217.82718 944.8656 -27.80835
221.12862 955.64258 -50.392822
226.27126 955.64258 -50.392822
229.44121 966.41968 -72.977295
234.53983 966.41968 -72.977295
239.63864 966.41968 -72.977295
242.63324 977.19666 -95.561768
247.68822 977.19666 -95.561768
252.74301 977.19666 -95.561768
257.79779 977.19666 -95.561768
262.85278 977.19666 -95.561768
267.90753 977.19666 -95.561768
272.96252 977.19666 -95.561768
280.42813 966.41968 -72.977295
283.07211 977.19666 -95.561768
288.12704 977.19666 -95.561768
295.72418 966.41968 -72.977295
300.823 966.41968 -72.977295
305.9216 966.41968 -72.977295
311.0202 966.41968 -72.977295
313.40137 977.19666 -95.561768
318.45618 977.19666 -95.561768
326.31647 966.41968 -72.977295
-103.00481 882.1106 91.125977
-97.583481 882.1106 91.125977
-91.327667 894.22595 65.850586
-84.440552 917.59143 17.105225
-79.163002 917.59143 17.105225
-73.885452 917.59143 17.105225
-68.607895 917.59143 17.105225
-63.330441 917.59143 17.105225
-58.052891 917.59143 17.105225
-52.319469 928.84143 -6.3647461
-47.087502 928.84143 -6.3647461
-41.855534 928.84143 -6.3647461
-36.623669 928.84143 -6.3647461
-31.391701 928.84143 -6.3647461
-26.159735 928.84143 -6.3647461
-20.74542 940.09143 -29.834717
-15.559041 940.09143 -29.834717
-10.37276 940.09143 -29.834717
-5.1863799 940.09143 -29.834717
0 940.09143 -29.834717
5.1862807 940.09143 -29.834717
10.37276 940.09143 -29.834717
15.559041 940.09143 -29.834717
20.74552 940.09143 -29.834717
25.712635 950.90881 -52.4021
30.855083 950.90881 -52.4021
35.997726 950.90881 -52.4021
41.140175 950.90881 -52.4021
46.282822 950.90881 -52.4021
51.42527 950.90881 -52.4021
56.567715 950.90881 -52.4021
61.710361 950.90881 -52.4021
66.852806 950.90881 -52.4021
71.995453 950.90881 -52.4021
77.137901 950.90881 -52.4021
82.28035 950.90881 -52.4021
87.422989 950.90881 -52.4021
92.565445 950.90881 -52.4021
98.540924 940.09143 -29.834717
103.7272 940.09143 -29.834717
108.91348 940.09143 -29.834717
114.09996 940.09143 -29.834717
119.28625 940.09143 -29.834717
124.47272 940.09143 -29.834717
129.65901 940.09143 -29.834717
134.84529 940.09143 -29.834717
140.03175 940.09143 -29.834717
145.21805 940.09143 -29.834717
150.40451 940.09143 -29.834717
155.59081 940.09143 -29.834717
160.7771 940.09143 -29.834717
165.96358 940.09143 -29.834717
171.14984 940.09143 -29.834717
176.33632 940.09143 -29.834717
181.52261 940.09143 -29.834717
186.70889 940.09143 -29.834717
191.89537 940.09143 -29.834717
198.81393 928.84143 -6.3647461
204.04601 928.84143 -6.3647461
207.45441 940.09143 -29.834717
212.6407 940.09143 -29.834717
217.82718 940.09143 -29.834717
221.12862 950.90881 -52.4021
226.27126 950.90881 -52.4021
229.44121 961.7262 -74.969482
234.53983 961.7262 -74.969482
239.63864 961.7262 -74.969482
242.63324 972.54358 -97.536865
247.68822 972.54358 -97.536865
252.74301 972.54358 -97.536865
257.79779 972.54358 -97.536865
262.85278 972.54358 -97.536865
267.90753 972.54358 -97.536865
272.96252 972.54358 -97.536865
278.0173 972.54358 -97.536865
283.07211 972.54358 -97.536865
288.12704 972.54358 -97.536865
295.72418 961.7262 -74.969482
300.823 961.7262 -74.969482
305.9216 961.7262 -74.969482
311.0202 961.7262 -74.969482
313.40137 972.54358 -97.536865
318.45618 972.54358 -97.536865
326.31647 961.7262 -74.969482
-103.00481 877.12024 89.007812
-96.699806 889.28088 63.751465
-90.522888 901.0072 39.397217
-84.440552 912.73352 15.043213
-79.163002 912.73352 15.043213
-73.885452 912.73352 15.043213
-68.607895 912.73352 15.043213
-63.330441 912.73352 15.043213
-58.052891 912.73352 15.043213
-52.319469 924.02551 -8.4089355
-47.087502 924.02551 -8.4089355
-41.855534 924.02551 -8.4089355
-36.623669 924.02551 -8.4089355
-31.391701 924.02551 -8.4089355
-26.159735 924.02551 -8.4089355
-20.74542 935.3175 -31.861328
-15.559041 935.3175 -31.861328
-10.37276 935.3175 -31.861328
-5.1863799 935.3175 -31.861328
0 935.3175 -31.861328
5.1862807 935.3175 -31.861328
10.285093 946.17517 -54.411377
15.427542 946.17517 -54.411377
20.74552 935.3175 -31.861328
25.712635 946.17517 -54.411377
30.855083 946.17517 -54.411377
35.997726 946.17517 -54.411377
41.140175 946.17517 -54.411377
46.282822 946.17517 -54.411377
51.42527 946.17517 -54.411377
56.567715 946.17517 -54.411377
61.710361 946.17517 -54.411377
66.852806 946.17517 -54.411377
71.995453 946.17517 -54.411377
77.137901 946.17517 -54.411377
82.28035 946.17517 -54.411377
88.168159 935.3175 -31.861328
92.565445 946.17517 -54.411377
97.708092 946.17517 -54.411377
103.7272 935.3175 -31.861328
107.99298 946.17517 -54.411377
113.13563 946.17517 -54.411377
118.27808 946.17517 -54.411377
123.42072 946.17517 -54.411377
129.65901 935.3175 -31.861328
134.84529 935.3175 -31.861328
140.03175 935.3175 -31.861328
145.21805 935.3175 -31.861328
150.40451 935.3175 -31.861328
155.59081 935.3175 -31.861328
160.7771 935.3175 -31.861328
164.5609 946.17517 -54.411377
169.70334 946.17517 -54.411377
176.33632 935.3175 -31.861328
181.52261 935.3175 -31.861328
186.70889 935.3175 -31.861328
191.89537 935.3175 -31.861328
198.81393 924.02551 -8.4089355
204.04601 924.02551 -8.4089355
207.45441 935.3175 -31.861328
212.6407 935.3175 -31.861328
217.82718 935.3175 -31.861328
221.12862 946.17517 -54.411377
226.27126 946.17517 -54.411377
229.44121 957.03296 -76.96167
234.53983 957.03296 -76.96167
237.57848 967.89062 -99.511963
240.61342 978.31396 -121.16016
245.62631 978.31396 -121.16016
252.74301 967.89062 -99.511963
257.79779 967.89062 -99.511963
262.85278 967.89062 -99.511963
267.90753 967.89062 -99.511963
272.96252 967.89062 -99.511963
278.0173 967.89062 -99.511963
283.07211 967.89062 -99.511963
288.12704 967.89062 -99.511963
295.72418 957.03296 -76.96167
300.823 957.03296 -76.96167
305.9216 957.03296 -76.96167
311.0202 957.03296 -76.96167
313.40137 967.89062 -99.511963
318.45618 967.89062 -99.511963
-103.00481 872.12988 86.889404
-95.847679 896.10559 37.31665
-90.522888 896.10559 37.31665
-84.440552 907.87549 12.980957
-79.163002 907.87549 12.980957
-73.885452 907.87549 12.980957
-68.607895 907.87549 12.980957
-63.330441 907.87549 12.980957
-58.052891 907.87549 12.980957
-52.319469 919.20947 -10.453369
-47.087502 919.20947 -10.453369
-41.855534 919.20947 -10.453369
-36.623669 919.20947 -10.453369
-31.391701 919.20947 -10.453369
-26.159735 919.20947 -10.453369
-20.74542 930.54333 -33.887695
-15.559041 930.54333 -33.887695
-10.37276 930.54333 -33.887695
-5.1863799 930.54333 -33.887695
0 930.54333 -33.887695
5.1862807 930.54333 -33.887695
10.285093 941.44141 -56.420898
15.427542 941.44141 -56.420898
20.74552 930.54333 -33.887695
25.712635 941.44141 -56.420898
30.855083 941.44141 -56.420898
35.997726 941.44141 -56.420898
41.140175 941.44141 -56.420898
46.282822 941.44141 -56.420898
51.42527 941.44141 -56.420898
56.567715 941.44141 -56.420898
61.710361 941.44141 -56.420898
66.852806 941.44141 -56.420898
71.995453 941.44141 -56.420898
77.137901 941.44141 -56.420898
82.28035 941.44141 -56.420898
87.422989 941.44141 -56.420898
92.565445 941.44141 -56.420898
97.708092 941.44141 -56.420898
102.85054 941.44141 -56.420898
107.99298 941.44141 -56.420898
113.13563 941.44141 -56.420898
118.27808 941.44141 -56.420898
123.42072 941.44141 -56.420898
129.65901 930.54333 -33.887695
134.84529 930.54333 -33.887695
140.03175 930.54333 -33.887695
145.21805 930.54333 -33.887695
150.40451 930.54333 -33.887695
155.59081 930.54333 -33.887695
160.7771 930.54333 -33.887695
164.5609 941.44141 -56.420898
169.70334 941.44141 -56.420898
174.84598 941.44141 -56.420898
181.52261 930.54333 -33.887695
186.70889 930.54333 -33.887695
191.89537 930.54333 -33.887695
198.81393 919.20947 -10.453369
204.04601 919.20947 -10.453369
209.27788 919.20947 -10.453369
212.6407 930.54333 -33.887695
217.82718 930.54333 -33.887695
221.12862 941.44141 -56.420898
226.27126 941.44141 -56.420898
229.44121 952.33948 -78.954102
234.53983 952.33948 -78.954102
237.57848 963.23755 -101.48706
240.61342 973.69958 -123.1189
245.62631 973.69958 -123.1189
252.74301 963.23755 -101.48706
257.79779 963.23755 -101.48706
262.85278 963.23755 -101.48706
270.23071 952.33948 -78.954102
272.96252 963.23755 -101.48706
278.0173 963.23755 -101.48706
283.07211 963.23755 -101.48706
288.12704 963.23755 -101.48706
295.72418 952.33948 -78.954102
300.823 952.33948 -78.954102
305.9216 952.33948 -78.954102
311.0202 952.33948 -78.954102
316.11902 952.33948 -78.954102
321.21765 952.33948 -78.954102
-101.17258 891.2041 35.236084
-95.847679 891.2041 35.236084
-90.522888 891.2041 35.236084
-84.440552 903.01746 10.918945
-79.163002 903.01746 10.918945
-73.885452 903.01746 10.918945
-68.607895 903.01746 10.918945
-63.330441 903.01746 10.918945
-58.052891 903.01746 10.918945
-52.319469 914.39343 -12.497559
-47.087502 914.39343 -12.497559
-41.855534 914.39343 -12.497559
-36.623669 914.39343 -12.497559
-31.391701 914.39343 -12.497559
-26.159735 914.39343 -12.497559
-20.927767 914.39343 -12.497559
-15.695801 914.39343 -12.497559
-10.37276 925.76929 -35.914062
-5.1863799 925.76929 -35.914062
0 925.76929 -35.914062
5.1862807 925.76929 -35.914062
10.37276 925.76929 -35.914062
15.559041 925.76929 -35.914062
20.570187 936.70776 -58.430176
25.712635 936.70776 -58.430176
30.855083 936.70776 -58.430176
35.997726 936.70776 -58.430176
41.140175 936.70776 -58.430176
46.282822 936.70776 -58.430176
51.42527 936.70776 -58.430176
56.567715 936.70776 -58.430176
61.710361 936.70776 -58.430176
66.852806 936.70776 -58.430176
71.995453 936.70776 -58.430176
77.137901 936.70776 -58.430176
82.28035 936.70776 -58.430176
87.422989 936.70776 -58.430176
92.565445 936.70776 -58.430176
97.708092 936.70776 -58.430176
102.85054 936.70776 -58.430176
108.91348 925.76929 -35.914062
114.09996 925.76929 -35.914062
118.27808 936.70776 -58.430176
123.42072 936.70776 -58.430176
128.56317 936.70776 -58.430176
133.70561 936.70776 -58.430176
138.84827 936.70776 -58.430176
143.99071 936.70776 -58.430176
149.13335 936.70776 -58.430176
155.59081 925.76929 -35.914062
160.7771 925.76929 -35.914062
164.5609 936.70776 -58.430176
169.70334 936.70776 -58.430176
174.84598 936.70776 -58.430176
181.52261 925.76929 -35.914062
186.70889 925.76929 -35.914062
193.58208 914.39343 -12.497559
198.81393 914.39343 -12.497559
204.04601 914.39343 -12.497559
207.45441 925.76929 -35.914062
212.6407 925.76929 -35.914062
217.82718 925.76929 -35.914062
221.12862 936.70776 -58.430176
226.27126 936.70776 -58.430176
229.44121 947.64624 -80.946289
234.53983 947.64624 -80.946289
237.57848 958.58459 -103.46216
240.61342 969.08533 -125.07739
245.62631 969.08533 -125.07739
252.74301 958.58459 -103.46216
257.79779 958.58459 -103.46216
262.85278 958.58459 -103.46216
267.90753 958.58459 -103.46216
272.96252 958.58459 -103.46216
278.0173 958.58459 -103.46216
283.07211 958.58459 -103.46216
288.12704 958.58459 -103.46216
295.72418 947.64624 -80.946289
300.823 947.64624 -80.946289
305.9216 947.64624 -80.946289
311.0202 947.64624 -80.946289
316.11902 947.64624 -80.946289
321.21765 947.64624 -80.946289
-101.17258 886.30249 33.155518
-95.847679 886.30249 33.155518
-90.522888 886.30249 33.155518
-84.440552 898.15942 8.8569336
-79.163002 898.15942 8.8569336
-73.885452 898.15942 8.8569336
-68.607895 898.15942 8.8569336
-63.330441 898.15942 8.8569336
-58.052891 898.15942 8.8569336
-52.319469 909.57739 -14.541992
-47.087502 909.57739 -14.541992
-41.855534 909.57739 -14.541992
-36.623669 909.57739 -14.541992
-31.391701 909.57739 -14.541992
-26.159735 909.57739 -14.541992
-20.927767 909.57739 -14.541992
-15.695801 909.57739 -14.541992
-10.463933 909.57739 -14.541992
-5.2319665 909.57739 -14.541992
0 920.99524 -37.940674
5.1862807 920.99524 -37.940674
10.37276 920.99524 -37.940674
15.559041 920.99524 -37.940674
20.570187 931.974 -60.439453
25.712635 931.974 -60.439453
30.855083 931.974 -60.439453
35.997726 931.974 -60.439453
41.140175 931.974 -60.439453
46.282822 931.974 -60.439453
51.42527 931.974 -60.439453
56.567715 931.974 -60.439453
61.710361 931.974 -60.439453
66.852806 931.974 -60.439453
71.995453 931.974 -60.439453
77.137901 931.974 -60.439453
82.28035 931.974 -60.439453
87.422989 931.974 -60.439453
92.565445 931.974 -60.439453
97.708092 931.974 -60.439453
102.85054 931.974 -60.439453
108.91348 920.99524 -37.940674
114.09996 920.99524 -37.940674
118.27808 931.974 -60.439453
123.42072 931.974 -60.439453
128.56317 931.974 -60.439453
133.70561 931.974 -60.439453
138.84827 931.974 -60.439453
143.99071 931.974 -60.439453
149.13335 931.974 -60.439453
155.59081 920.99524 -37.940674
160.7771 920.99524 -37.940674
164.5609 931.974 -60.439453
169.70334 931.974 -60.439453
174.84598 931.974 -60.439453
181.52261 920.99524 -37.940674
186.70889 920.99524 -37.940674
191.89537 920.99524 -37.940674
198.81393 909.57739 -14.541992
204.04601 909.57739 -14.541992
207.45441 920.99524 -37.940674
212.6407 920.99524 -37.940674
217.82718 920.99524 -37.940674
221.12862 931.974 -60.439453
226.27126 931.974 -60.439453
229.44121 942.95276 -82.938477
234.53983 942.95276 -82.938477
237.57848 953.93152 -105.43726
240.61342 964.47095 -127.03613
245.62631 964.47095 -127.03613
252.74301 953.93152 -105.43726
257.79779 953.93152 -105.43726
262.85278 953.93152 -105.43726
267.90753 953.93152 -105.43726
272.96252 953.93152 -105.43726
280.42813 942.95276 -82.938477
285.52676 942.95276 -82.938477
290.62555 942.95276 -82.938477
295.72418 942.95276 -82.938477
303.40918 931.974 -60.439453
308.55161 931.974 -60.439453
313.69406 931.974 -60.439453
321.55435 920.99524 -37.940674
-100.27312 893.30139 6.7946777
-94.99556 893.30139 6.7946777
-89.718109 893.30139 6.7946777
-84.440552 893.30139 6.7946777
-79.163002 893.30139 6.7946777
-73.885452 893.30139 6.7946777
-68.607895 893.30139 6.7946777
-63.330441 893.30139 6.7946777
-58.052891 893.30139 6.7946777
-52.319469 904.76123 -16.586182
-47.087502 904.76123 -16.586182
-41.855534 904.76123 -16.586182
-36.623669 904.76123 -16.586182
-31.391701 904.76123 -16.586182
-26.387667 893.30139 6.7946777
-20.927767 904.76123 -16.586182
-15.695801 904.76123 -16.586182
-10.463933 904.76123 -16.586182
-5.2319665 904.76123 -16.586182
0 916.22107 -39.967041
5.1862807 916.22107 -39.967041
10.37276 916.22107 -39.967041
15.559041 916.22107 -39.967041
20.74552 916.22107 -39.967041
25.931801 916.22107 -39.967041
31.118082 916.22107 -39.967041
35.997726 927.24023 -62.448975
41.140175 927.24023 -62.448975
46.282822 927.24023 -62.448975
51.42527 927.24023 -62.448975
56.567715 927.24023 -62.448975
61.710361 927.24023 -62.448975
66.852806 927.24023 -62.448975
71.995453 927.24023 -62.448975
77.137901 927.24023 -62.448975
82.28035 927.24023 -62.448975
87.422989 927.24023 -62.448975
92.565445 927.24023 -62.448975
97.708092 927.24023 -62.448975
102.85054 927.24023 -62.448975
107.99298 927.24023 -62.448975
113.13563 927.24023 -62.448975
118.27808 927.24023 -62.448975
123.42072 927.24023 -62.448975
128.56317 927.24023 -62.448975
133.70561 927.24023 -62.448975
138.84827 927.24023 -62.448975
143.99071 927.24023 -62.448975
150.40451 916.22107 -39.967041
155.59081 916.22107 -39.967041
160.7771 916.22107 -39.967041
165.96358 916.22107 -39.967041
171.14984 916.22107 -39.967041
176.33632 916.22107 -39.967041
181.52261 916.22107 -39.967041
186.70889 916.22107 -39.967041
191.89537 916.22107 -39.967041
198.81393 904.76123 -16.586182
202.26811 916.22107 -39.967041
207.45441 916.22107 -39.967041
212.6407 916.22107 -39.967041
215.98618 927.24023 -62.448975
221.12862 927.24023 -62.448975
226.27126 927.24023 -62.448975
229.44121 938.25928 -84.930664
234.53983 938.25928 -84.930664
237.57848 949.27844 -107.41235
242.63324 949.27844 -107.41235
247.68822 949.27844 -107.41235
252.74301 949.27844 -107.41235
257.79779 949.27844 -107.41235
262.85278 949.27844 -107.41235
267.90753 949.27844 -107.41235
275.32953 938.25928 -84.930664
280.42813 938.25928 -84.930664
285.52676 938.25928 -84.930664
290.62555 938.25928 -84.930664
295.72418 938.25928 -84.930664
300.823 938.25928 -84.930664
305.9216 938.25928 -84.930664
313.69406 927.24023 -62.448975
318.8367 927.24023 -62.448975
-99.406967 899.94531 -18.630371
-94.175003 899.94531 -18.630371
-89.718109 888.44348 4.732666
-84.440552 888.44348 4.732666
-79.163002 888.44348 4.732666
-73.885452 888.44348 4.732666
-68.607895 888.44348 4.732666
-63.330441 888.44348 4.732666
-58.052891 888.44348 4.732666
-52.319469 899.94531 -18.630371
-47.087502 899.94531 -18.630371
-41.855534 899.94531 -18.630371
-36.623669 899.94531 -18.630371
-31.391701 899.94531 -18.630371
-26.387667 888.44348 4.732666
-21.110115 888.44348 4.732666
-15.83256 888.44348 4.732666
-10.463933 899.94531 -18.630371
-5.2319665 899.94531 -18.630371
0 899.94531 -18.630371
5.2318668 899.94531 -18.630371
10.37276 911.44702 -41.993652
15.559041 911.44702 -41.993652
20.74552 911.44702 -41.993652
25.931801 911.44702 -41.993652
30.855083 922.50659 -64.458252
35.997726 922.50659 -64.458252
41.140175 922.50659 -64.458252
46.282822 922.50659 -64.458252
51.863602 911.44702 -41.993652
57.049881 911.44702 -41.993652
62.236362 911.44702 -41.993652
66.852806 922.50659 -64.458252
71.995453 922.50659 -64.458252
77.137901 922.50659 -64.458252
82.28035 922.50659 -64.458252
87.422989 922.50659 -64.458252
92.565445 922.50659 -64.458252
97.708092 922.50659 -64.458252
102.85054 922.50659 -64.458252
107.99298 922.50659 -64.458252
113.13563 922.50659 -64.458252
118.27808 922.50659 -64.458252
123.42072 922.50659 -64.458252
129.65901 911.44702 -41.993652
134.84529 911.44702 -41.993652
138.84827 922.50659 -64.458252
143.99071 922.50659 -64.458252
150.40451 911.44702 -41.993652
155.59081 911.44702 -41.993652
160.7771 911.44702 -41.993652
165.96358 911.44702 -41.993652
171.14984 911.44702 -41.993652
176.33632 911.44702 -41.993652
181.52261 911.44702 -41.993652
186.70889 911.44702 -41.993652
191.89537 911.44702 -41.993652
198.81393 899.94531 -18.630371
202.26811 911.44702 -41.993652
207.45441 911.44702 -41.993652
210.84354 922.50659 -64.458252
215.98618 922.50659 -64.458252
221.12862 922.50659 -64.458252
224.34259 933.56604 -86.922852
229.44121 933.56604 -86.922852
232.5235 944.62549 -109.38745
237.57848 944.62549 -109.38745
242.63324 944.62549 -109.38745
247.68822 944.62549 -109.38745
252.74301 944.62549 -109.38745
257.79779 944.62549 -109.38745
262.85278 944.62549 -109.38745
267.90753 944.62549 -109.38745
275.32953 933.56604 -86.922852
280.42813 933.56604 -86.922852
285.52676 933.56604 -86.922852
290.62555 933.56604 -86.922852
