ply
format ascii 1.0
comment PCL generated
element vertex 1552
property float x
property float y
property float z
element camera 0
property float view_px
property float view_py
property float view_pz
property float x_axisx
property float x_axisy
property float x_axisz
property float y_axisx
property float y_axisy
property float y_axisz
property float z_axisx
property float z_axisy
property float z_axisz
property float focal
property float scalex
property float scaley
property float centerx
property float centery
property int viewportx
property int viewporty
property float k1
property float k2
end_header
-47.087502 880.68127 -26.807617
-41.855534 880.68127 -26.807617
-36.623669 880.68127 -26.807617
-31.391701 880.68127 -26.807617
-26.159735 880.68127 -26.807617
-20.927767 880.68127 -26.807617
-15.695801 880.68127 -26.807617
-10.555108 869.01147 -3.515625
-5.277554 869.01147 -3.515625
0 869.01147 -3.515625
5.2318668 880.68127 -26.807617
10.463933 880.68127 -26.807617
15.695801 880.68127 -26.807617
20.927866 880.68127 -26.807617
26.159735 880.68127 -26.807617
31.391602 880.68127 -26.807617
36.623669 880.68127 -26.807617
41.490841 892.35083 -50.099365
46.677322 892.35083 -50.099365
51.863602 892.35083 -50.099365
58.052788 869.01147 -3.515625
63.330441 869.01147 -3.515625
68.607895 869.01147 -3.515625
73.247337 880.68127 -26.807617
78.479202 880.68127 -26.807617
84.44046 869.01147 -3.515625
89.718109 869.01147 -3.515625
94.99556 869.01147 -3.515625
100.27322 869.01147 -3.515625
105.55067 869.01147 -3.515625
110.82812 869.01147 -3.515625
116.10578 869.01147 -3.515625
121.38322 869.01147 -3.515625
126.66088 869.01147 -3.515625
131.93834 869.01147 -3.515625
137.21579 869.01147 -3.515625
142.49345 869.01147 -3.515625
147.7709 869.01147 -3.515625
153.04855 869.01147 -3.515625
159.7462 856.89307 20.671875
163.60345 869.01147 -3.515625
168.8811 869.01147 -3.515625
175.72078 856.89307 20.671875
181.04578 856.89307 20.671875
186.37057 856.89307 20.671875
193.39961 844.77454 44.859863
198.77194 844.77454 44.859863
204.14407 844.77454 44.859863
211.43105 832.20715 69.943359
214.88853 844.77454 44.859863
220.26068 844.77454 44.859863
225.63301 844.77454 44.859863
231.00513 844.77454 44.859863
292.86804 856.89307 20.671875
298.19284 856.89307 20.671875
309.01453 832.20715 69.943359
314.43576 832.20715 69.943359
319.85718 832.20715 69.943359
325.27841 832.20715 69.943359
330.69965 832.20715 69.943359
336.12106 832.20715 69.943359
341.5423 832.20715 69.943359
343.82175 844.77454 44.859863
349.19388 844.77454 44.859863
357.80618 832.20715 69.943359
363.2276 832.20715 69.943359
368.64883 832.20715 69.943359
377.45767 819.63989 95.026611
382.92801 819.63989 95.026611
388.39835 819.63989 95.026611
393.86884 819.63989 95.026611
399.33917 819.63989 95.026611
401.17679 832.20715 69.943359
406.59802 832.20715 69.943359
-284.98679 864.15344 -5.5778809
-279.70923 864.15344 -5.5778809
-274.43176 864.15344 -5.5778809
-269.15424 864.15344 -5.5778809
-261.59735 875.86511 -28.851807
-256.36539 875.86511 -28.851807
-251.13341 875.86511 -28.851807
-245.90155 875.86511 -28.851807
-240.66959 875.86511 -28.851807
-235.43761 875.86511 -28.851807
-230.20564 875.86511 -28.851807
-226.93391 864.15344 -5.5778809
-221.65645 864.15344 -5.5778809
-216.37889 864.15344 -5.5778809
-211.10133 864.15344 -5.5778809
-205.82379 864.15344 -5.5778809
-200.54623 864.15344 -5.5778809
-195.26877 864.15344 -5.5778809
-189.99123 864.15344 -5.5778809
-184.71367 864.15344 -5.5778809
-122.47205 851.99146 18.591309
-117.14725 851.99146 18.591309
-110.82822 864.15344 -5.5778809
-105.55067 864.15344 -5.5778809
-100.27312 864.15344 -5.5778809
-94.99556 864.15344 -5.5778809
-89.718109 864.15344 -5.5778809
-84.440552 864.15344 -5.5778809
-79.163002 864.15344 -5.5778809
-73.885452 864.15344 -5.5778809
-68.015266 875.86511 -28.851807
-62.783401 875.86511 -28.851807
-57.551434 875.86511 -28.851807
-52.319469 875.86511 -28.851807
-47.087502 875.86511 -28.851807
-41.855534 875.86511 -28.851807
-36.623669 875.86511 -28.851807
-31.391701 875.86511 -28.851807
-26.159735 875.86511 -28.851807
-20.927767 875.86511 -28.851807
-15.695801 875.86511 -28.851807
-10.463933 875.86511 -28.851807
-5.2319665 875.86511 -28.851807
0 864.15344 -5.5778809
5.2318668 875.86511 -28.851807
10.463933 875.86511 -28.851807
15.83256 864.15344 -5.5778809
20.927866 875.86511 -28.851807
26.159735 875.86511 -28.851807
31.391602 875.86511 -28.851807
36.623669 875.86511 -28.851807
41.490841 887.57666 -52.125977
46.677322 887.57666 -52.125977
52.319469 875.86511 -28.851807
57.551338 875.86511 -28.851807
63.330441 864.15344 -5.5778809
68.607895 864.15344 -5.5778809
73.247337 875.86511 -28.851807
78.479202 875.86511 -28.851807
84.44046 864.15344 -5.5778809
89.718109 864.15344 -5.5778809
94.99556 864.15344 -5.5778809
100.27322 864.15344 -5.5778809
105.55067 864.15344 -5.5778809
110.82812 864.15344 -5.5778809
116.10578 864.15344 -5.5778809
121.38322 864.15344 -5.5778809
126.66088 864.15344 -5.5778809
131.93834 864.15344 -5.5778809
137.21579 864.15344 -5.5778809
142.49345 864.15344 -5.5778809
147.7709 864.15344 -5.5778809
154.42142 851.99146 18.591309
159.7462 851.99146 18.591309
165.071 851.99146 18.591309
170.396 851.99146 18.591309
175.72078 851.99146 18.591309
181.04578 851.99146 18.591309
186.37057 851.99146 18.591309
193.39961 839.82935 42.760742
198.77194 839.82935 42.760742
206.00961 827.2168 67.824951
211.43105 827.2168 67.824951
216.85228 827.2168 67.824951
222.2735 827.2168 67.824951
227.69493 827.2168 67.824951
233.11615 827.2168 67.824951
303.59311 827.2168 67.824951
309.01453 827.2168 67.824951
314.43576 827.2168 67.824951
319.85718 827.2168 67.824951
325.27841 827.2168 67.824951
330.69965 827.2168 67.824951
336.12106 827.2168 67.824951
341.5423 827.2168 67.824951
343.82175 839.82935 42.760742
349.19388 839.82935 42.760742
357.80618 827.2168 67.824951
363.2276 827.2168 67.824951
368.64883 827.2168 67.824951
377.45767 814.60425 92.88916
382.92801 814.60425 92.88916
388.39835 814.60425 92.88916
393.86884 814.60425 92.88916
399.33917 814.60425 92.88916
401.17679 827.2168 67.824951
406.59802 827.2168 67.824951
-284.98679 859.29553 -7.6398926
-279.70923 859.29553 -7.6398926
-274.43176 859.29553 -7.6398926
-269.15424 859.29553 -7.6398926
-261.59735 871.04919 -30.89624
-256.36539 871.04919 -30.89624
-251.13341 871.04919 -30.89624
-245.90155 871.04919 -30.89624
-240.66959 871.04919 -30.89624
-235.43761 871.04919 -30.89624
-230.20564 871.04919 -30.89624
-224.97366 871.04919 -30.89624
-221.65645 859.29553 -7.6398926
-216.37889 859.29553 -7.6398926
-211.10133 859.29553 -7.6398926
-205.82379 859.29553 -7.6398926
-200.54623 859.29553 -7.6398926
-195.26877 859.29553 -7.6398926
-123.56087 834.88416 40.661621
-117.14725 847.08984 16.510742
-111.82236 847.08984 16.510742
-106.49747 847.08984 16.510742
-100.27312 859.29553 -7.6398926
-94.99556 859.29553 -7.6398926
-89.718109 859.29553 -7.6398926
-84.440552 859.29553 -7.6398926
-79.163002 859.29553 -7.6398926
-73.885452 859.29553 -7.6398926
-68.607895 859.29553 -7.6398926
-63.330441 859.29553 -7.6398926
-57.551434 871.04919 -30.89624
-52.319469 871.04919 -30.89624
-47.087502 871.04919 -30.89624
-41.855534 871.04919 -30.89624
-36.623669 871.04919 -30.89624
-31.391701 871.04919 -30.89624
-26.159735 871.04919 -30.89624
-20.927767 871.04919 -30.89624
-15.695801 871.04919 -30.89624
-10.463933 871.04919 -30.89624
-5.2319665 871.04919 -30.89624
0 859.29553 -7.6398926
5.2318668 871.04919 -30.89624
10.463933 871.04919 -30.89624
15.83256 859.29553 -7.6398926
21.110216 859.29553 -7.6398926
26.159735 871.04919 -30.89624
31.391602 871.04919 -30.89624
36.623669 871.04919 -30.89624
41.855534 871.04919 -30.89624
47.087601 871.04919 -30.89624
52.319469 871.04919 -30.89624
57.551338 871.04919 -30.89624
62.783401 871.04919 -30.89624
68.015266 871.04919 -30.89624
73.247337 871.04919 -30.89624
78.479202 871.04919 -30.89624
84.44046 859.29553 -7.6398926
89.718109 859.29553 -7.6398926
94.99556 859.29553 -7.6398926
100.27322 859.29553 -7.6398926
105.55067 859.29553 -7.6398926
110.82812 859.29553 -7.6398926
116.10578 859.29553 -7.6398926
121.38322 859.29553 -7.6398926
126.66088 859.29553 -7.6398926
131.93834 859.29553 -7.6398926
138.44662 847.08984 16.510742
143.77162 847.08984 16.510742
149.09642 847.08984 16.510742
154.42142 847.08984 16.510742
159.7462 847.08984 16.510742
165.071 847.08984 16.510742
170.396 847.08984 16.510742
175.72078 847.08984 16.510742
182.65533 834.88416 40.661621
188.02748 834.88416 40.661621
193.39961 834.88416 40.661621
200.58839 822.22656 65.706787
206.00961 822.22656 65.706787
211.43105 822.22656 65.706787
216.85228 822.22656 65.706787
222.2735 822.22656 65.706787
227.69493 822.22656 65.706787
233.11615 822.22656 65.706787
309.01453 822.22656 65.706787
314.43576 822.22656 65.706787
319.85718 822.22656 65.706787
325.27841 822.22656 65.706787
330.69965 822.22656 65.706787
336.12106 822.22656 65.706787
341.5423 822.22656 65.706787
343.82175 834.88416 40.661621
349.19388 834.88416 40.661621
357.80618 822.22656 65.706787
363.2276 822.22656 65.706787
368.64883 822.22656 65.706787
374.07025 822.22656 65.706787
379.49149 822.22656 65.706787
384.91272 822.22656 65.706787
393.86884 809.56885 90.751709
399.33917 809.56885 90.751709
401.17679 822.22656 65.706787
406.59802 822.22656 65.706787
-298.19293 842.18823 14.430176
-292.86804 842.18823 14.430176
-284.98679 854.4375 -9.7021484
-279.70923 854.4375 -9.7021484
-274.43176 854.4375 -9.7021484
-269.15424 854.4375 -9.7021484
-263.87668 854.4375 -9.7021484
-258.59912 854.4375 -9.7021484
-251.13341 866.23303 -32.94043
-245.90155 866.23303 -32.94043
-240.66959 866.23303 -32.94043
-235.43761 866.23303 -32.94043
-230.20564 866.23303 -32.94043
-224.97366 866.23303 -32.94043
-221.65645 854.4375 -9.7021484
-216.37889 854.4375 -9.7021484
-211.10133 854.4375 -9.7021484
-205.82379 854.4375 -9.7021484
-200.54623 854.4375 -9.7021484
-123.56087 829.93896 38.5625
-117.14725 842.18823 14.430176
-111.82236 842.18823 14.430176
-106.49747 842.18823 14.430176
-101.17258 842.18823 14.430176
-94.99556 854.4375 -9.7021484
-89.718109 854.4375 -9.7021484
-84.440552 854.4375 -9.7021484
-79.163002 854.4375 -9.7021484
-73.885452 854.4375 -9.7021484
-68.607895 854.4375 -9.7021484
-63.330441 854.4375 -9.7021484
-57.551434 866.23303 -32.94043
-52.319469 866.23303 -32.94043
-47.087502 866.23303 -32.94043
-41.855534 866.23303 -32.94043
-36.623669 866.23303 -32.94043
-31.391701 866.23303 -32.94043
-26.159735 866.23303 -32.94043
-20.927767 866.23303 -32.94043
-15.695801 866.23303 -32.94043
-10.463933 866.23303 -32.94043
-5.2319665 866.23303 -32.94043
0 854.4375 -9.7021484
5.2318668 866.23303 -32.94043
10.463933 866.23303 -32.94043
15.83256 854.4375 -9.7021484
21.110216 854.4375 -9.7021484
26.387667 854.4375 -9.7021484
31.665119 854.4375 -9.7021484
36.623669 866.23303 -32.94043
41.855534 866.23303 -32.94043
47.087601 866.23303 -32.94043
52.319469 866.23303 -32.94043
57.551338 866.23303 -32.94043
62.783401 866.23303 -32.94043
68.015266 866.23303 -32.94043
73.247337 866.23303 -32.94043
79.163002 854.4375 -9.7021484
84.44046 854.4375 -9.7021484
89.718109 854.4375 -9.7021484
94.99556 854.4375 -9.7021484
100.27322 854.4375 -9.7021484
105.55067 854.4375 -9.7021484
110.82812 854.4375 -9.7021484
116.10578 854.4375 -9.7021484
121.38322 854.4375 -9.7021484
126.66088 854.4375 -9.7021484
131.93834 854.4375 -9.7021484
138.44662 842.18823 14.430176
143.77162 842.18823 14.430176
149.09642 842.18823 14.430176
154.42142 842.18823 14.430176
159.7462 842.18823 14.430176
165.071 842.18823 14.430176
170.396 842.18823 14.430176
175.72078 842.18823 14.430176
182.65533 829.93896 38.5625
188.02748 829.93896 38.5625
193.39961 829.93896 38.5625
200.58839 817.23608 63.588623
206.00961 817.23608 63.588623
211.43105 817.23608 63.588623
216.85228 817.23608 63.588623
222.2735 817.23608 63.588623
227.69493 817.23608 63.588623
235.22717 804.5332 88.614258
317.28317 804.5332 88.614258
319.85718 817.23608 63.588623
325.27841 817.23608 63.588623
330.69965 817.23608 63.588623
336.12106 817.23608 63.588623
341.5423 817.23608 63.588623
346.96371 817.23608 63.588623
352.38495 817.23608 63.588623
357.80618 817.23608 63.588623
363.2276 817.23608 63.588623
368.64883 817.23608 63.588623
374.07025 817.23608 63.588623
379.49149 817.23608 63.588623
384.91272 817.23608 63.588623
390.33414 817.23608 63.588623
395.75537 817.23608 63.588623
401.17679 817.23608 63.588623
406.59802 817.23608 63.588623
-298.19293 837.28674 12.349609
-292.86804 837.28674 12.349609
-284.98679 849.57959 -11.76416
-279.70923 849.57959 -11.76416
-274.43176 849.57959 -11.76416
-269.15424 849.57959 -11.76416
-263.87668 849.57959 -11.76416
-258.59912 849.57959 -11.76416
-253.32158 849.57959 -11.76416
-248.04411 849.57959 -11.76416
-242.76656 849.57959 -11.76416
-237.48901 849.57959 -11.76416
-232.21146 849.57959 -11.76416
-226.93391 849.57959 -11.76416
-221.65645 849.57959 -11.76416
-214.50984 861.41711 -34.984619
-209.27788 861.41711 -34.984619
-205.82379 849.57959 -11.76416
-123.56087 824.9939 36.463379
-117.14725 837.28674 12.349609
-111.82236 837.28674 12.349609
-106.49747 837.28674 12.349609
-101.17258 837.28674 12.349609
-94.99556 849.57959 -11.76416
-89.718109 849.57959 -11.76416
-84.440552 849.57959 -11.76416
-79.163002 849.57959 -11.76416
-73.885452 849.57959 -11.76416
-68.607895 849.57959 -11.76416
-63.330441 849.57959 -11.76416
-57.551434 861.41711 -34.984619
-52.319469 861.41711 -34.984619
-47.087502 861.41711 -34.984619
-41.855534 861.41711 -34.984619
-36.623669 861.41711 -34.984619
-31.391701 861.41711 -34.984619
-26.159735 861.41711 -34.984619
-20.927767 861.41711 -34.984619
-15.695801 861.41711 -34.984619
-10.463933 861.41711 -34.984619
-5.277554 849.57959 -11.76416
0 849.57959 -11.76416
5.2318668 861.41711 -34.984619
10.463933 861.41711 -34.984619
15.83256 849.57959 -11.76416
21.110216 849.57959 -11.76416
26.387667 849.57959 -11.76416
31.665119 849.57959 -11.76416
36.623669 861.41711 -34.984619
41.855534 861.41711 -34.984619
47.087601 861.41711 -34.984619
52.319469 861.41711 -34.984619
57.551338 861.41711 -34.984619
62.783401 861.41711 -34.984619
68.015266 861.41711 -34.984619
73.247337 861.41711 -34.984619
79.163002 849.57959 -11.76416
84.44046 849.57959 -11.76416
89.718109 849.57959 -11.76416
94.99556 849.57959 -11.76416
100.27322 849.57959 -11.76416
105.55067 849.57959 -11.76416
110.82812 849.57959 -11.76416
116.10578 849.57959 -11.76416
121.38322 849.57959 -11.76416
126.66088 849.57959 -11.76416
131.93834 849.57959 -11.76416
138.44662 837.28674 12.349609
143.77162 837.28674 12.349609
149.09642 837.28674 12.349609
154.42142 837.28674 12.349609
159.7462 837.28674 12.349609
165.071 837.28674 12.349609
170.396 837.28674 12.349609
175.72078 837.28674 12.349609
182.65533 824.9939 36.463379
188.02748 824.9939 36.463379
193.39961 824.9939 36.463379
200.58839 812.24585 61.470215
206.00961 812.24585 61.470215
213.34569 799.4978 86.476807
216.85228 812.24585 61.470215
222.2735 812.24585 61.470215
229.75684 799.4978 86.476807
237.41357 786.29431 112.37695
242.93494 786.29431 112.37695
322.75369 799.4978 86.476807
328.224 799.4978 86.476807
333.69434 799.4978 86.476807
339.16486 799.4978 86.476807
341.5423 812.24585 61.470215
346.96371 812.24585 61.470215
352.38495 812.24585 61.470215
357.80618 812.24585 61.470215
363.2276 812.24585 61.470215
368.64883 812.24585 61.470215
374.07025 812.24585 61.470215
379.49149 812.24585 61.470215
384.91272 812.24585 61.470215
390.33414 812.24585 61.470215
395.75537 812.24585 61.470215
401.17679 812.24585 61.470215
406.59802 812.24585 61.470215
412.01923 812.24585 61.470215
-295.5419 844.72144 -13.826172
-290.26434 844.72144 -13.826172
-284.98679 844.72144 -13.826172
-279.70923 844.72144 -13.826172
-274.43176 844.72144 -13.826172
-269.15424 844.72144 -13.826172
-263.87668 844.72144 -13.826172
-258.59912 844.72144 -13.826172
-253.32158 844.72144 -13.826172
-248.04411 844.72144 -13.826172
-242.76656 844.72144 -13.826172
-237.48901 844.72144 -13.826172
-232.21146 844.72144 -13.826172
-226.93391 844.72144 -13.826172
-221.65645 844.72144 -13.826172
-214.50984 856.60095 -37.029053
-209.27788 856.60095 -37.029053
-123.56087 820.04871 34.364258
-117.14725 832.38513 10.268799
-111.82236 832.38513 10.268799
-106.49747 832.38513 10.268799
-101.17258 832.38513 10.268799
-94.99556 844.72144 -13.826172
-89.718109 844.72144 -13.826172
-84.440552 844.72144 -13.826172
-79.163002 844.72144 -13.826172
-73.885452 844.72144 -13.826172
-68.607895 844.72144 -13.826172
-62.783401 856.60095 -37.029053
-57.551434 856.60095 -37.029053
-52.319469 856.60095 -37.029053
-47.087502 856.60095 -37.029053
-41.855534 856.60095 -37.029053
-36.623669 856.60095 -37.029053
-31.391701 856.60095 -37.029053
-26.159735 856.60095 -37.029053
-21.110115 844.72144 -13.826172
-15.83256 844.72144 -13.826172
-10.463933 856.60095 -37.029053
-5.2319665 856.60095 -37.029053
0 856.60095 -37.029053
5.2318668 856.60095 -37.029053
10.463933 856.60095 -37.029053
15.83256 844.72144 -13.826172
21.110216 844.72144 -13.826172
26.387667 844.72144 -13.826172
31.665119 844.72144 -13.826172
36.942772 844.72144 -13.826172
41.855534 856.60095 -37.029053
47.087601 856.60095 -37.029053
52.319469 856.60095 -37.029053
57.551338 856.60095 -37.029053
62.783401 856.60095 -37.029053
68.015266 856.60095 -37.029053
73.247337 856.60095 -37.029053
79.163002 844.72144 -13.826172
84.44046 844.72144 -13.826172
89.718109 844.72144 -13.826172
94.99556 844.72144 -13.826172
100.27322 844.72144 -13.826172
105.55067 844.72144 -13.826172
110.82812 844.72144 -13.826172
116.10578 844.72144 -13.826172
121.38322 844.72144 -13.826172
126.66088 844.72144 -13.826172
131.93834 844.72144 -13.826172
137.21579 844.72144 -13.826172
142.49345 844.72144 -13.826172
149.09642 832.38513 10.268799
153.04855 844.72144 -13.826172
158.326 844.72144 -13.826172
165.071 832.38513 10.268799
170.396 832.38513 10.268799
177.283 820.04871 34.364258
182.65533 820.04871 34.364258
188.02748 820.04871 34.364258
193.39961 820.04871 34.364258
200.58839 807.25537 59.352051
206.00961 807.25537 59.352051
213.34569 794.46216 84.339355
218.81601 794.46216 84.339355
224.28632 794.46216 84.339355
229.75684 794.46216 84.339355
237.41357 781.21191 110.21973
242.93494 781.21191 110.21973
328.224 794.46216 84.339355
333.69434 794.46216 84.339355
336.12106 807.25537 59.352051
341.5423 807.25537 59.352051
346.96371 807.25537 59.352051
352.38495 807.25537 59.352051
357.80618 807.25537 59.352051
363.2276 807.25537 59.352051
368.64883 807.25537 59.352051
374.07025 807.25537 59.352051
379.49149 807.25537 59.352051
384.91272 807.25537 59.352051
390.33414 807.25537 59.352051
395.75537 807.25537 59.352051
401.17679 807.25537 59.352051
406.59802 807.25537 59.352051
412.01923 807.25537 59.352051
-295.5419 839.86353 -15.888184
-290.26434 839.86353 -15.888184
-284.98679 839.86353 -15.888184
-279.70923 839.86353 -15.888184
-274.43176 839.86353 -15.888184
-269.15424 839.86353 -15.888184
-263.87668 839.86353 -15.888184
-258.59912 839.86353 -15.888184
-253.32158 839.86353 -15.888184
-248.04411 839.86353 -15.888184
-242.76656 839.86353 -15.888184
-237.48901 839.86353 -15.888184
-232.21146 839.86353 -15.888184
-226.93391 839.86353 -15.888184
-221.65645 839.86353 -15.888184
-216.37889 839.86353 -15.888184
-211.10133 839.86353 -15.888184
-123.56087 815.10364 32.265137
-117.14725 827.48364 8.1882324
-111.82236 827.48364 8.1882324
-106.49747 827.48364 8.1882324
-101.17258 827.48364 8.1882324
-94.99556 839.86353 -15.888184
-89.718109 839.86353 -15.888184
-84.440552 839.86353 -15.888184
-79.163002 839.86353 -15.888184
-73.885452 839.86353 -15.888184
-68.607895 839.86353 -15.888184
-62.783401 851.78503 -39.073242
-57.551434 851.78503 -39.073242
-52.319469 851.78503 -39.073242
-47.087502 851.78503 -39.073242
-41.855534 851.78503 -39.073242
-36.623669 851.78503 -39.073242
-31.391701 851.78503 -39.073242
-26.159735 851.78503 -39.073242
-21.110115 839.86353 -15.888184
-15.83256 839.86353 -15.888184
-10.463933 851.78503 -39.073242
-5.2319665 851.78503 -39.073242
0 851.78503 -39.073242
5.2318668 851.78503 -39.073242
10.463933 851.78503 -39.073242
15.83256 839.86353 -15.888184
21.110216 839.86353 -15.888184
26.387667 839.86353 -15.888184
31.665119 839.86353 -15.888184
36.942772 839.86353 -15.888184
41.855534 851.78503 -39.073242
47.087601 851.78503 -39.073242
52.319469 851.78503 -39.073242
57.551338 851.78503 -39.073242
62.783401 851.78503 -39.073242
68.015266 851.78503 -39.073242
73.247337 851.78503 -39.073242
78.479202 851.78503 -39.073242
84.44046 839.86353 -15.888184
89.718109 839.86353 -15.888184
94.99556 839.86353 -15.888184
100.27322 839.86353 -15.888184
105.55067 839.86353 -15.888184
110.82812 839.86353 -15.888184
116.10578 839.86353 -15.888184
121.38322 839.86353 -15.888184
126.66088 839.86353 -15.888184
131.93834 839.86353 -15.888184
137.21579 839.86353 -15.888184
142.49345 839.86353 -15.888184
149.09642 827.48364 8.1882324
153.04855 839.86353 -15.888184
158.326 839.86353 -15.888184
165.071 827.48364 8.1882324
170.396 827.48364 8.1882324
177.283 815.10364 32.265137
182.65533 815.10364 32.265137
188.02748 815.10364 32.265137
193.39961 815.10364 32.265137
200.58839 802.26514 57.233643
206.00961 802.26514 57.233643
213.34569 789.42676 82.201904
218.81601 789.42676 82.201904
224.28632 789.42676 82.201904
229.75684 789.42676 82.201904
237.41357 776.12964 108.0625
242.93494 776.12964 108.0625
328.224 789.42676 82.201904
333.69434 789.42676 82.201904
336.12106 802.26514 57.233643
341.5423 802.26514 57.233643
343.82175 815.10364 32.265137
349.19388 815.10364 32.265137
354.56601 815.10364 32.265137
363.2276 802.26514 57.233643
368.64883 802.26514 57.233643
370.68283 815.10364 32.265137
376.05496 815.10364 32.265137
381.42706 815.10364 32.265137
390.33414 802.26514 57.233643
395.75537 802.26514 57.233643
401.17679 802.26514 57.233643
406.59802 802.26514 57.233643
412.01923 802.26514 57.233643
417.44067 802.26514 57.233643
-300.81946 835.00549 -17.950439
-295.5419 835.00549 -17.950439
-290.26434 835.00549 -17.950439
-284.98679 835.00549 -17.950439
-279.70923 835.00549 -17.950439
-274.43176 835.00549 -17.950439
-269.15424 835.00549 -17.950439
-263.87668 835.00549 -17.950439
-258.59912 835.00549 -17.950439
-253.32158 835.00549 -17.950439
-248.04411 835.00549 -17.950439
-242.76656 835.00549 -17.950439
-237.48901 835.00549 -17.950439
-232.21146 835.00549 -17.950439
-226.93391 835.00549 -17.950439
-221.65645 835.00549 -17.950439
-216.37889 835.00549 -17.950439
-211.10133 835.00549 -17.950439
-128.93311 810.15845 30.166016
-122.47205 822.58203 6.107666
-117.14725 822.58203 6.107666
-111.82236 822.58203 6.107666
-106.49747 822.58203 6.107666
-100.27312 835.00549 -17.950439
-94.99556 835.00549 -17.950439
-89.718109 835.00549 -17.950439
-84.440552 835.00549 -17.950439
-79.163002 835.00549 -17.950439
-73.885452 835.00549 -17.950439
-68.607895 835.00549 -17.950439
-62.783401 846.96899 -41.117676
-57.551434 846.96899 -41.117676
-52.319469 846.96899 -41.117676
-47.087502 846.96899 -41.117676
-41.855534 846.96899 -41.117676
-36.623669 846.96899 -41.117676
-31.391701 846.96899 -41.117676
-26.159735 846.96899 -41.117676
-21.110115 835.00549 -17.950439
-15.83256 835.00549 -17.950439
-10.463933 846.96899 -41.117676
-5.2319665 846.96899 -41.117676
0 846.96899 -41.117676
5.2318668 846.96899 -41.117676
10.463933 846.96899 -41.117676
15.83256 835.00549 -17.950439
21.110216 835.00549 -17.950439
26.387667 835.00549 -17.950439
31.665119 835.00549 -17.950439
36.942772 835.00549 -17.950439
41.855534 846.96899 -41.117676
47.087601 846.96899 -41.117676
52.319469 846.96899 -41.117676
57.551338 846.96899 -41.117676
62.783401 846.96899 -41.117676
68.015266 846.96899 -41.117676
73.247337 846.96899 -41.117676
78.479202 846.96899 -41.117676
84.44046 835.00549 -17.950439
89.718109 835.00549 -17.950439
94.99556 835.00549 -17.950439
100.27322 835.00549 -17.950439
105.55067 835.00549 -17.950439
110.82812 835.00549 -17.950439
116.10578 835.00549 -17.950439
121.38322 835.00549 -17.950439
126.66088 835.00549 -17.950439
131.93834 835.00549 -17.950439
137.21579 835.00549 -17.950439
143.77162 822.58203 6.107666
149.09642 822.58203 6.107666
153.04855 835.00549 -17.950439
158.326 835.00549 -17.950439
165.071 822.58203 6.107666
170.396 822.58203 6.107666
177.283 810.15845 30.166016
182.65533 810.15845 30.166016
188.02748 810.15845 30.166016
193.39961 810.15845 30.166016
200.58839 797.27478 55.115479
206.00961 797.27478 55.115479
213.34569 784.39111 80.064453
218.81601 784.39111 80.064453
224.28632 784.39111 80.064453
229.75684 784.39111 80.064453
237.41357 771.04724 105.90503
242.93494 771.04724 105.90503
333.69434 784.39111 80.064453
336.12106 797.27478 55.115479
341.5423 797.27478 55.115479
343.82175 810.15845 30.166016
349.19388 810.15845 30.166016
354.56601 810.15845 30.166016
363.2276 797.27478 55.115479
365.31049 810.15845 30.166016
370.68283 810.15845 30.166016
376.05496 810.15845 30.166016
381.42706 810.15845 30.166016
390.33414 797.27478 55.115479
395.75537 797.27478 55.115479
401.17679 797.27478 55.115479
406.59802 797.27478 55.115479
412.01923 797.27478 55.115479
417.44067 797.27478 55.115479
-300.81946 830.14758 -20.012451
-295.5419 830.14758 -20.012451
-290.26434 830.14758 -20.012451
-284.98679 830.14758 -20.012451
-279.70923 830.14758 -20.012451
-274.43176 830.14758 -20.012451
-269.15424 830.14758 -20.012451
-263.87668 830.14758 -20.012451
-258.59912 830.14758 -20.012451
-253.32158 830.14758 -20.012451
-248.04411 830.14758 -20.012451
-242.76656 830.14758 -20.012451
-237.48901 830.14758 -20.012451
-232.21146 830.14758 -20.012451
-228.96953 817.68054 4.0270996
-223.64473 817.68054 4.0270996
-218.31984 817.68054 4.0270996
-212.99493 817.68054 4.0270996
-128.93311 805.21338 28.067139
-122.47205 817.68054 4.0270996
-117.14725 817.68054 4.0270996
-111.82236 817.68054 4.0270996
-106.49747 817.68054 4.0270996
-100.27312 830.14758 -20.012451
-94.99556 830.14758 -20.012451
-89.718109 830.14758 -20.012451
-84.440552 830.14758 -20.012451
-79.163002 830.14758 -20.012451
-73.885452 830.14758 -20.012451
-68.607895 830.14758 -20.012451
-62.783401 842.15295 -43.161865
-57.551434 842.15295 -43.161865
-52.319469 842.15295 -43.161865
-47.087502 842.15295 -43.161865
-41.855534 842.15295 -43.161865
-36.623669 842.15295 -43.161865
-31.391701 842.15295 -43.161865
-26.159735 842.15295 -43.161865
-20.927767 842.15295 -43.161865
-15.83256 830.14758 -20.012451
-10.555108 830.14758 -20.012451
-5.277554 830.14758 -20.012451
0 830.14758 -20.012451
5.2774534 830.14758 -20.012451
10.555108 830.14758 -20.012451
15.83256 830.14758 -20.012451
21.110216 830.14758 -20.012451
26.387667 830.14758 -20.012451
31.665119 830.14758 -20.012451
36.942772 830.14758 -20.012451
42.22023 830.14758 -20.012451
47.497883 830.14758 -20.012451
52.775333 830.14758 -20.012451
58.052788 830.14758 -20.012451
62.783401 842.15295 -43.161865
68.015266 842.15295 -43.161865
73.247337 842.15295 -43.161865
78.479202 842.15295 -43.161865
84.44046 830.14758 -20.012451
89.718109 830.14758 -20.012451
94.99556 830.14758 -20.012451
100.27322 830.14758 -20.012451
105.55067 830.14758 -20.012451
110.82812 830.14758 -20.012451
116.10578 830.14758 -20.012451
121.38322 830.14758 -20.012451
126.66088 830.14758 -20.012451
131.93834 830.14758 -20.012451
137.21579 830.14758 -20.012451
143.77162 817.68054 4.0270996
149.09642 817.68054 4.0270996
153.04855 830.14758 -20.012451
158.326 830.14758 -20.012451
165.071 817.68054 4.0270996
170.396 817.68054 4.0270996
175.72078 817.68054 4.0270996
181.04578 817.68054 4.0270996
186.37057 817.68054 4.0270996
191.69536 817.68054 4.0270996
198.77194 805.21338 28.067139
206.00961 792.28455 52.99707
213.34569 779.35571 77.927002
218.81601 779.35571 77.927002
224.28632 779.35571 77.927002
229.75684 779.35571 77.927002
237.41357 765.96497 103.7478
242.93494 765.96497 103.7478
333.69434 779.35571 77.927002
336.12106 792.28455 52.99707
341.5423 792.28455 52.99707
343.82175 805.21338 28.067139
349.19388 805.21338 28.067139
354.56601 805.21338 28.067139
363.2276 792.28455 52.99707
365.31049 805.21338 28.067139
370.68283 805.21338 28.067139
376.05496 805.21338 28.067139
381.42706 805.21338 28.067139
390.33414 792.28455 52.99707
395.75537 792.28455 52.99707
401.17679 792.28455 52.99707
406.59802 792.28455 52.99707
412.01923 792.28455 52.99707
417.44067 792.28455 52.99707
-306.09692 825.28955 -22.074707
-300.81946 825.28955 -22.074707
-295.5419 825.28955 -22.074707
-290.26434 825.28955 -22.074707
-284.98679 825.28955 -22.074707
-279.70923 825.28955 -22.074707
-274.43176 825.28955 -22.074707
-269.15424 825.28955 -22.074707
-263.87668 825.28955 -22.074707
-258.59912 825.28955 -22.074707
-253.32158 825.28955 -22.074707
-248.04411 825.28955 -22.074707
-242.76656 825.28955 -22.074707
-237.48901 825.28955 -22.074707
-232.21146 825.28955 -22.074707
-228.96953 812.77893 1.9465332
-223.64473 812.77893 1.9465332
-218.31984 812.77893 1.9465332
-128.93311 800.26807 25.968018
-122.47205 812.77893 1.9465332
-117.14725 812.77893 1.9465332
-111.82236 812.77893 1.9465332
-106.49747 812.77893 1.9465332
-100.27312 825.28955 -22.074707
-94.99556 825.28955 -22.074707
-89.718109 825.28955 -22.074707
-84.440552 825.28955 -22.074707
-78.479202 837.33691 -45.206055
-73.247231 837.33691 -45.206055
-68.015266 837.33691 -45.206055
-62.783401 837.33691 -45.206055
-57.551434 837.33691 -45.206055
-52.319469 837.33691 -45.206055
-47.087502 837.33691 -45.206055
-41.855534 837.33691 -45.206055
-36.623669 837.33691 -45.206055
-31.391701 837.33691 -45.206055
-26.159735 837.33691 -45.206055
-20.927767 837.33691 -45.206055
-15.83256 825.28955 -22.074707
-10.555108 825.28955 -22.074707
-5.277554 825.28955 -22.074707
0 825.28955 -22.074707
5.2774534 825.28955 -22.074707
10.555108 825.28955 -22.074707
15.83256 825.28955 -22.074707
21.110216 825.28955 -22.074707
26.387667 825.28955 -22.074707
31.665119 825.28955 -22.074707
36.942772 825.28955 -22.074707
42.22023 825.28955 -22.074707
47.497883 825.28955 -22.074707
52.775333 825.28955 -22.074707
58.052788 825.28955 -22.074707
63.330441 825.28955 -22.074707
68.015266 837.33691 -45.206055
73.247337 837.33691 -45.206055
79.163002 825.28955 -22.074707
84.44046 825.28955 -22.074707
89.718109 825.28955 -22.074707
94.99556 825.28955 -22.074707
100.27322 825.28955 -22.074707
105.55067 825.28955 -22.074707
110.82812 825.28955 -22.074707
116.10578 825.28955 -22.074707
121.38322 825.28955 -22.074707
126.66088 825.28955 -22.074707
131.93834 825.28955 -22.074707
137.21579 825.28955 -22.074707
143.77162 812.77893 1.9465332
149.09642 812.77893 1.9465332
154.42142 812.77893 1.9465332
159.7462 812.77893 1.9465332
165.071 812.77893 1.9465332
170.396 812.77893 1.9465332
175.72078 812.77893 1.9465332
181.04578 812.77893 1.9465332
186.37057 812.77893 1.9465332
191.69536 812.77893 1.9465332
198.77194 800.26807 25.968018
206.00961 787.29407 50.878906
213.34569 774.32007 75.789551
218.81601 774.32007 75.789551
224.28632 774.32007 75.789551
229.75684 774.32007 75.789551
237.41357 760.88257 101.59033
245.17221 747.44519 127.39087
250.7442 747.44519 127.39087
336.12106 787.29407 50.878906
341.5423 787.29407 50.878906
343.82175 800.26807 25.968018
349.19388 800.26807 25.968018
357.80618 787.29407 50.878906
363.2276 787.29407 50.878906
368.64883 787.29407 50.878906
374.07025 787.29407 50.878906
379.49149 787.29407 50.878906
384.91272 787.29407 50.878906
390.33414 787.29407 50.878906
395.75537 787.29407 50.878906
401.17679 787.29407 50.878906
406.59802 787.29407 50.878906
412.01923 787.29407 50.878906
421.22086 774.32007 75.789551
-306.09692 820.43152 -24.136719
-300.81946 820.43152 -24.136719
-295.5419 820.43152 -24.136719
-290.26434 820.43152 -24.136719
-284.98679 820.43152 -24.136719
-279.70923 820.43152 -24.136719
-274.43176 820.43152 -24.136719
-269.15424 820.43152 -24.136719
-263.87668 820.43152 -24.136719
-258.59912 820.43152 -24.136719
-253.32158 820.43152 -24.136719
-248.04411 820.43152 -24.136719
-242.76656 820.43152 -24.136719
-237.48901 820.43152 -24.136719
-232.21146 820.43152 -24.136719
-228.96953 807.8772 -0.1340332
-223.64473 807.8772 -0.1340332
-218.31984 807.8772 -0.1340332
-121.38322 820.43152 -24.136719
-116.10578 820.43152 -24.136719
-111.82236 807.8772 -0.1340332
-106.49747 807.8772 -0.1340332
-100.27312 820.43152 -24.136719
-94.99556 820.43152 -24.136719
-89.718109 820.43152 -24.136719
-84.440552 820.43152 -24.136719
-78.479202 832.52075 -47.250488
-73.247231 832.52075 -47.250488
-68.015266 832.52075 -47.250488
-62.783401 832.52075 -47.250488
-57.551434 832.52075 -47.250488
-52.319469 832.52075 -47.250488
-47.087502 832.52075 -47.250488
-41.855534 832.52075 -47.250488
-36.623669 832.52075 -47.250488
-31.391701 832.52075 -47.250488
-26.159735 832.52075 -47.250488
-20.927767 832.52075 -47.250488
-15.83256 820.43152 -24.136719
-10.555108 820.43152 -24.136719
-5.277554 820.43152 -24.136719
0 820.43152 -24.136719
5.2774534 820.43152 -24.136719
10.555108 820.43152 -24.136719
15.83256 820.43152 -24.136719
21.110216 820.43152 -24.136719
26.387667 820.43152 -24.136719
31.665119 820.43152 -24.136719
36.942772 820.43152 -24.136719
42.22023 820.43152 -24.136719
47.497883 820.43152 -24.136719
52.775333 820.43152 -24.136719
58.052788 820.43152 -24.136719
63.330441 820.43152 -24.136719
68.607895 820.43152 -24.136719
73.885544 820.43152 -24.136719
79.163002 820.43152 -24.136719
84.44046 820.43152 -24.136719
89.718109 820.43152 -24.136719
94.99556 820.43152 -24.136719
100.27322 820.43152 -24.136719
105.55067 820.43152 -24.136719
110.82812 820.43152 -24.136719
116.10578 820.43152 -24.136719
121.38322 820.43152 -24.136719
126.66088 820.43152 -24.136719
131.93834 820.43152 -24.136719
137.21579 820.43152 -24.136719
142.49345 820.43152 -24.136719
147.7709 820.43152 -24.136719
154.42142 807.8772 -0.1340332
159.7462 807.8772 -0.1340332
165.071 807.8772 -0.1340332
170.396 807.8772 -0.1340332
175.72078 807.8772 -0.1340332
181.04578 807.8772 -0.1340332
188.02748 795.32288 23.868896
193.39961 795.32288 23.868896
200.58839 782.30371 48.760498
206.00961 782.30371 48.760498
213.34569 769.28455 73.6521
218.81601 769.28455 73.6521
224.28632 769.28455 73.6521
229.75684 769.28455 73.6521
237.41357 755.80017 99.433105
242.93494 755.80017 99.433105
248.45612 755.80017 99.433105
333.0773 795.32288 23.868896
338.4494 795.32288 23.868896
343.82175 795.32288 23.868896
349.19388 795.32288 23.868896
357.80618 782.30371 48.760498
363.2276 782.30371 48.760498
368.64883 782.30371 48.760498
374.07025 782.30371 48.760498
379.49149 782.30371 48.760498
384.91272 782.30371 48.760498
390.33414 782.30371 48.760498
395.75537 782.30371 48.760498
397.54388 795.32288 23.868896
402.91602 795.32288 23.868896
412.01923 782.30371 48.760498
421.22086 769.28455 73.6521
-306.09692 815.57349 -26.19873
-300.81946 815.57349 -26.19873
-295.5419 815.57349 -26.19873
-290.26434 815.57349 -26.19873
-284.98679 815.57349 -26.19873
-279.70923 815.57349 -26.19873
-274.43176 815.57349 -26.19873
-269.15424 815.57349 -26.19873
-263.87668 815.57349 -26.19873
-258.59912 815.57349 -26.19873
-253.32158 815.57349 -26.19873
-248.04411 815.57349 -26.19873
-244.9442 802.97571 -2.2145996
-239.61931 802.97571 -2.2145996
-234.29442 802.97571 -2.2145996
-228.96953 802.97571 -2.2145996
-225.63301 790.37781 21.769775
-220.26077 790.37781 21.769775
-121.38322 815.57349 -26.19873
-116.10578 815.57349 -26.19873
-111.82236 802.97571 -2.2145996
-106.49747 802.97571 -2.2145996
-100.27312 815.57349 -26.19873
-94.99556 815.57349 -26.19873
-89.718109 815.57349 -26.19873
-84.440552 815.57349 -26.19873
-79.163002 815.57349 -26.19873
-73.247231 827.70483 -49.294678
-68.015266 827.70483 -49.294678
-62.783401 827.70483 -49.294678
-57.551434 827.70483 -49.294678
-52.319469 827.70483 -49.294678
-47.087502 827.70483 -49.294678
-41.855534 827.70483 -49.294678
-36.623669 827.70483 -49.294678
-31.391701 827.70483 -49.294678
-26.159735 827.70483 -49.294678
-20.927767 827.70483 -49.294678
-15.83256 815.57349 -26.19873
-10.555108 815.57349 -26.19873
-5.277554 815.57349 -26.19873
0 815.57349 -26.19873
5.2774534 815.57349 -26.19873
10.555108 815.57349 -26.19873
15.83256 815.57349 -26.19873
21.110216 815.57349 -26.19873
26.387667 815.57349 -26.19873
31.665119 815.57349 -26.19873
37.274155 802.97571 -2.2145996
42.22023 815.57349 -26.19873
47.497883 815.57349 -26.19873
52.775333 815.57349 -26.19873
58.052788 815.57349 -26.19873
63.330441 815.57349 -26.19873
68.607895 815.57349 -26.19873
73.885544 815.57349 -26.19873
79.163002 815.57349 -26.19873
84.44046 815.57349 -26.19873
89.718109 815.57349 -26.19873
94.99556 815.57349 -26.19873
100.27322 815.57349 -26.19873
105.55067 815.57349 -26.19873
110.82812 815.57349 -26.19873
116.10578 815.57349 -26.19873
121.38322 815.57349 -26.19873
126.66088 815.57349 -26.19873
131.93834 815.57349 -26.19873
137.21579 815.57349 -26.19873
142.49345 815.57349 -26.19873
147.7709 815.57349 -26.19873
154.42142 802.97571 -2.2145996
159.7462 802.97571 -2.2145996
165.071 802.97571 -2.2145996
170.396 802.97571 -2.2145996
177.283 790.37781 21.769775
182.65533 790.37781 21.769775
188.02748 790.37781 21.769775
193.39961 790.37781 21.769775
200.58839 777.31348 46.642334
206.00961 777.31348 46.642334
213.34569 764.24902 71.514648
218.81601 764.24902 71.514648
224.28632 764.24902 71.514648
229.75684 764.24902 71.514648
237.41357 750.7179 97.275635
242.93494 750.7179 97.275635
248.45612 750.7179 97.275635
338.4494 790.37781 21.769775
340.79199 802.97571 -2.2145996
346.11679 802.97571 -2.2145996
354.56601 790.37781 21.769775
363.2276 777.31348 46.642334
368.64883 777.31348 46.642334
374.07025 777.31348 46.642334
379.49149 777.31348 46.642334
384.91272 777.31348 46.642334
390.33414 777.31348 46.642334
395.75537 777.31348 46.642334
397.54388 790.37781 21.769775
399.36551 802.97571 -2.2145996
404.69031 802.97571 -2.2145996
421.22086 764.24902 71.514648
-303.45288 822.88867 -51.339111
-298.22101 822.88867 -51.339111
-295.5419 810.71545 -28.260986
-290.26434 810.71545 -28.260986
-284.98679 810.71545 -28.260986
-279.70923 810.71545 -28.260986
-274.43176 810.71545 -28.260986
-269.15424 810.71545 -28.260986
-263.87668 810.71545 -28.260986
-258.59912 810.71545 -28.260986
-255.59389 798.0741 -4.295166
-250.2691 798.0741 -4.295166
-244.9442 798.0741 -4.295166
-239.61931 798.0741 -4.295166
-234.29442 798.0741 -4.295166
-228.96953 798.0741 -4.295166
-225.63301 785.43262 19.670654
-220.26077 785.43262 19.670654
-121.38322 810.71545 -28.260986
-116.10578 810.71545 -28.260986
-111.82236 798.0741 -4.295166
-105.55067 810.71545 -28.260986
-100.27312 810.71545 -28.260986
-94.99556 810.71545 -28.260986
-89.718109 810.71545 -28.260986
-84.440552 810.71545 -28.260986
-79.163002 810.71545 -28.260986
-73.885452 810.71545 -28.260986
-68.015266 822.88867 -51.339111
-62.783401 822.88867 -51.339111
-57.551434 822.88867 -51.339111
-52.319469 822.88867 -51.339111
-47.087502 822.88867 -51.339111
-41.855534 822.88867 -51.339111
-36.623669 822.88867 -51.339111
-31.391701 822.88867 -51.339111
-26.159735 822.88867 -51.339111
-20.927767 822.88867 -51.339111
-15.83256 810.71545 -28.260986
-10.555108 810.71545 -28.260986
-5.277554 810.71545 -28.260986
0 810.71545 -28.260986
5.2774534 810.71545 -28.260986
10.555108 810.71545 -28.260986
15.83256 810.71545 -28.260986
21.110216 810.71545 -28.260986
26.387667 810.71545 -28.260986
31.665119 810.71545 -28.260986
36.942772 810.71545 -28.260986
42.22023 810.71545 -28.260986
47.497883 810.71545 -28.260986
52.775333 810.71545 -28.260986
58.052788 810.71545 -28.260986
63.330441 810.71545 -28.260986
68.607895 810.71545 -28.260986
73.885544 810.71545 -28.260986
79.163002 810.71545 -28.260986
84.44046 810.71545 -28.260986
89.718109 810.71545 -28.260986
94.99556 810.71545 -28.260986
100.27322 810.71545 -28.260986
105.55067 810.71545 -28.260986
110.82812 810.71545 -28.260986
116.10578 810.71545 -28.260986
121.38322 810.71545 -28.260986
126.66088 810.71545 -28.260986
131.93834 810.71545 -28.260986
137.21579 810.71545 -28.260986
143.77162 798.0741 -4.295166
149.09642 798.0741 -4.295166
154.42142 798.0741 -4.295166
159.7462 798.0741 -4.295166
165.071 798.0741 -4.295166
170.396 798.0741 -4.295166
177.283 785.43262 19.670654
182.65533 785.43262 19.670654
188.02748 785.43262 19.670654
193.39961 785.43262 19.670654
200.58839 772.323 44.523926
206.00961 772.323 44.523926
213.34569 759.2135 69.377197
218.81601 759.2135 69.377197
224.28632 759.2135 69.377197
229.75684 759.2135 69.377197
237.41357 745.6355 95.118408
245.17221 732.05774 120.85938
250.7442 732.05774 120.85938
338.4494 785.43262 19.670654
340.79199 798.0741 -4.295166
346.11679 798.0741 -4.295166
354.56601 785.43262 19.670654
363.2276 772.323 44.523926
368.64883 772.323 44.523926
374.07025 772.323 44.523926
379.49149 772.323 44.523926
381.42706 785.43262 19.670654
386.79941 785.43262 19.670654
392.17154 785.43262 19.670654
394.04071 798.0741 -4.295166
399.36551 798.0741 -4.295166
404.69031 798.0741 -4.295166
421.22086 759.2135 69.377197
-303.45288 818.07275 -53.383301
-298.22101 818.07275 -53.383301
-295.5419 805.85754 -30.322998
-290.26434 805.85754 -30.322998
-284.98679 805.85754 -30.322998
-279.70923 805.85754 -30.322998
-274.43176 805.85754 -30.322998
-269.15424 805.85754 -30.322998
-263.87668 805.85754 -30.322998
-258.59912 805.85754 -30.322998
-255.59389 793.17261 -6.3759766
-250.2691 793.17261 -6.3759766
-244.9442 793.17261 -6.3759766
-239.61931 793.17261 -6.3759766
-234.29442 793.17261 -6.3759766
-231.00513 780.48755 17.571533
-227.69493 767.33276 42.405762
-222.27361 767.33276 42.405762
-121.38322 805.85754 -30.322998
-116.10578 805.85754 -30.322998
-111.82236 793.17261 -6.3759766
-105.55067 805.85754 -30.322998
-100.27312 805.85754 -30.322998
-94.99556 805.85754 -30.322998
-89.718109 805.85754 -30.322998
-84.440552 805.85754 -30.322998
-79.163002 805.85754 -30.322998
-73.885452 805.85754 -30.322998
-68.607895 805.85754 -30.322998
-63.330441 805.85754 -30.322998
-58.052891 805.85754 -30.322998
-52.319469 818.07275 -53.383301
-47.087502 818.07275 -53.383301
-41.855534 818.07275 -53.383301
-36.623669 818.07275 -53.383301
-31.391701 818.07275 -53.383301
-26.159735 818.07275 -53.383301
-20.927767 818.07275 -53.383301
-15.83256 805.85754 -30.322998
-10.555108 805.85754 -30.322998
-5.277554 805.85754 -30.322998
0 805.85754 -30.322998
5.2774534 805.85754 -30.322998
10.555108 805.85754 -30.322998
15.83256 805.85754 -30.322998
21.110216 805.85754 -30.322998
26.387667 805.85754 -30.322998
31.665119 805.85754 -30.322998
36.942772 805.85754 -30.322998
42.22023 805.85754 -30.322998
47.497883 805.85754 -30.322998
52.775333 805.85754 -30.322998
58.052788 805.85754 -30.322998
63.330441 805.85754 -30.322998
68.607895 805.85754 -30.322998
73.885544 805.85754 -30.322998
79.163002 805.85754 -30.322998
84.44046 805.85754 -30.322998
89.718109 805.85754 -30.322998
94.99556 805.85754 -30.322998
100.27322 805.85754 -30.322998
105.55067 805.85754 -30.322998
110.82812 805.85754 -30.322998
116.10578 805.85754 -30.322998
121.38322 805.85754 -30.322998
127.79705 793.17261 -6.3759766
133.12184 793.17261 -6.3759766
138.44662 793.17261 -6.3759766
143.77162 793.17261 -6.3759766
149.09642 793.17261 -6.3759766
154.42142 793.17261 -6.3759766
159.7462 793.17261 -6.3759766
165.071 793.17261 -6.3759766
170.396 793.17261 -6.3759766
175.72078 793.17261 -6.3759766
181.04578 793.17261 -6.3759766
188.02748 780.48755 17.571533
193.39961 780.48755 17.571533
200.58839 767.33276 42.405762
206.00961 767.33276 42.405762
213.34569 754.17798 67.239746
218.81601 754.17798 67.239746
224.28632 754.17798 67.239746
229.75684 754.17798 67.239746
237.41357 740.55322 92.961182
245.17221 726.92871 118.68213
338.4494 780.48755 17.571533
343.82175 780.48755 17.571533
349.19388 780.48755 17.571533
357.80618 767.33276 42.405762
363.2276 767.33276 42.405762
368.64883 767.33276 42.405762
374.07025 767.33276 42.405762
379.49149 767.33276 42.405762
381.42706 780.48755 17.571533
386.79941 780.48755 17.571533
392.17154 780.48755 17.571533
394.04071 793.17261 -6.3759766
399.36551 793.17261 -6.3759766
404.69031 793.17261 -6.3759766
-311.37445 800.99951 -32.38501
-303.45288 813.25671 -55.427734
-298.22101 813.25671 -55.427734
-295.5419 800.99951 -32.38501
-290.26434 800.99951 -32.38501
-284.98679 800.99951 -32.38501
-279.70923 800.99951 -32.38501
-274.43176 800.99951 -32.38501
-269.15424 800.99951 -32.38501
-263.87668 800.99951 -32.38501
-258.59912 800.99951 -32.38501
-255.59389 788.271 -8.456543
-250.2691 788.271 -8.456543
-247.12184 775.54236 15.472412
-241.7496 775.54236 15.472412
-236.37737 775.54236 15.472412
-231.00513 775.54236 15.472412
-227.69493 762.34241 40.287598
-222.27361 762.34241 40.287598
-121.38322 800.99951 -32.38501
-116.10578 800.99951 -32.38501
-110.82822 800.99951 -32.38501
-105.55067 800.99951 -32.38501
-100.27312 800.99951 -32.38501
-94.99556 800.99951 -32.38501
-89.718109 800.99951 -32.38501
-84.440552 800.99951 -32.38501
-79.163002 800.99951 -32.38501
-73.885452 800.99951 -32.38501
-68.607895 800.99951 -32.38501
-63.330441 800.99951 -32.38501
-58.052891 800.99951 -32.38501
-52.319469 813.25671 -55.427734
-47.087502 813.25671 -55.427734
-41.855534 813.25671 -55.427734
-36.623669 813.25671 -55.427734
-31.391701 813.25671 -55.427734
-26.159735 813.25671 -55.427734
-20.927767 813.25671 -55.427734
-15.83256 800.99951 -32.38501
-10.555108 800.99951 -32.38501
-5.277554 800.99951 -32.38501
0 800.99951 -32.38501
5.2774534 800.99951 -32.38501
10.555108 800.99951 -32.38501
15.83256 800.99951 -32.38501
21.110216 800.99951 -32.38501
26.387667 800.99951 -32.38501
31.665119 800.99951 -32.38501
36.942772 800.99951 -32.38501
42.22023 800.99951 -32.38501
47.497883 800.99951 -32.38501
53.248734 788.271 -8.456543
58.573528 788.271 -8.456543
63.898525 788.271 -8.456543
68.607895 800.99951 -32.38501
73.885544 800.99951 -32.38501
79.163002 800.99951 -32.38501
85.197891 788.271 -8.456543
90.522888 788.271 -8.456543
95.847679 788.271 -8.456543
100.27322 800.99951 -32.38501
105.55067 800.99951 -32.38501
110.82812 800.99951 -32.38501
116.10578 800.99951 -32.38501
121.38322 800.99951 -32.38501
126.66088 800.99951 -32.38501
133.12184 788.271 -8.456543
138.44662 788.271 -8.456543
143.77162 788.271 -8.456543
149.09642 788.271 -8.456543
154.42142 788.271 -8.456543
159.7462 788.271 -8.456543
165.071 788.271 -8.456543
170.396 788.271 -8.456543
175.72078 788.271 -8.456543
181.04578 788.271 -8.456543
188.02748 775.54236 15.472412
193.39961 775.54236 15.472412
200.58839 762.34241 40.287598
206.00961 762.34241 40.287598
213.34569 749.14246 65.102295
218.81601 749.14246 65.102295
224.28632 749.14246 65.102295
229.75684 749.14246 65.102295
237.41357 735.47083 90.803711
245.17221 721.79944 116.50488
344.63519 749.14246 65.102295
346.96371 762.34241 40.287598
352.38495 762.34241 40.287598
357.80618 762.34241 40.287598
363.2276 762.34241 40.287598
368.64883 762.34241 40.287598
374.07025 762.34241 40.287598
379.49149 762.34241 40.287598
381.42706 775.54236 15.472412
386.79941 775.54236 15.472412
392.17154 775.54236 15.472412
394.04071 788.271 -8.456543
399.36551 788.271 -8.456543
404.69031 788.271 -8.456543
-311.37445 796.1416 -34.447266
-303.45288 808.44067 -57.471924
-298.22101 808.44067 -57.471924
-295.5419 796.1416 -34.447266
-290.26434 796.1416 -34.447266
-284.98679 796.1416 -34.447266
-279.70923 796.1416 -34.447266
-274.43176 796.1416 -34.447266
-269.15424 796.1416 -34.447266
-263.87668 796.1416 -34.447266
-258.59912 796.1416 -34.447266
-255.59389 783.36951 -10.537109
-250.2691 783.36951 -10.537109
-244.9442 783.36951 -10.537109
-241.7496 770.59729 13.373291
-236.37737 770.59729 13.373291
-231.00513 770.59729 13.373291
-225.63301 770.59729 13.373291
-121.38322 796.1416 -34.447266
-116.10578 796.1416 -34.447266
-110.82822 796.1416 -34.447266
-105.55067 796.1416 -34.447266
-100.27312 796.1416 -34.447266
-94.99556 796.1416 -34.447266
-89.718109 796.1416 -34.447266
-84.440552 796.1416 -34.447266
-79.163002 796.1416 -34.447266
-73.885452 796.1416 -34.447266
-68.607895 796.1416 -34.447266
-63.330441 796.1416 -34.447266
-58.052891 796.1416 -34.447266
-52.319469 808.44067 -57.471924
-47.087502 808.44067 -57.471924
-41.855534 808.44067 -57.471924
