ply
format ascii 1.0
comment PCL generated
element vertex 1571
property float x
property float y
property float z
element camera 0
property float view_px
property float view_py
property float view_pz
property float x_axisx
property float x_axisy
property float x_axisz
property float y_axisx
property float y_axisy
property float y_axisz
property float z_axisx
property float z_axisy
property float z_axisz
property float focal
property float scalex
property float scaley
property float centerx
property float centery
property int viewportx
property int viewporty
property float k1
property float k2
end_header
147.86218 938.25928 -84.930664
152.9608 938.25928 -84.930664
158.05943 938.25928 -84.930664
164.5609 927.24023 -62.448975
171.14984 916.22107 -39.967041
179.43622 893.30139 6.7946777
186.37057 881.40088 31.074707
191.69536 881.40088 31.074707
198.77194 869.50012 55.355225
204.14407 869.50012 55.355225
211.43105 857.15881 80.534668
216.85228 857.15881 80.534668
222.2735 857.15881 80.534668
227.69493 857.15881 80.534668
233.11615 857.15881 80.534668
238.53758 857.15881 80.534668
243.9588 857.15881 80.534668
-42.598946 876.49927 28.994141
-37.274155 876.49927 28.994141
-31.949263 876.49927 28.994141
-26.624367 876.49927 28.994141
-21.488834 864.55505 53.256104
-16.26388 852.16858 78.416504
-10.842655 852.16858 78.416504
-5.3722343 864.55505 53.256104
0 876.49927 28.994141
5.2774534 888.44348 4.732666
10.555108 888.44348 4.732666
15.83256 888.44348 4.732666
21.110216 888.44348 4.732666
26.387667 888.44348 4.732666
31.665119 888.44348 4.732666
36.942772 888.44348 4.732666
42.22023 888.44348 4.732666
47.087601 899.94531 -18.630371
52.319469 899.94531 -18.630371
57.049881 911.44702 -41.993652
62.236362 911.44702 -41.993652
66.852806 922.50659 -64.458252
71.995453 922.50659 -64.458252
76.4804 933.56604 -86.922852
81.579018 933.56604 -86.922852
86.677826 933.56604 -86.922852
90.98745 944.62549 -109.38745
96.042427 944.62549 -109.38745
101.09721 944.62549 -109.38745
107.07249 933.56604 -86.922852
112.1713 933.56604 -86.922852
117.26991 933.56604 -86.922852
122.36873 933.56604 -86.922852
127.46734 933.56604 -86.922852
132.56595 933.56604 -86.922852
137.66476 933.56604 -86.922852
142.76338 933.56604 -86.922852
147.86218 933.56604 -86.922852
152.9608 933.56604 -86.922852
158.05943 933.56604 -86.922852
164.5609 922.50659 -64.458252
171.14984 911.44702 -41.993652
179.43622 888.44348 4.732666
186.37057 876.49927 28.994141
191.69536 876.49927 28.994141
198.77194 864.55505 53.256104
204.14407 864.55505 53.256104
211.43105 852.16858 78.416504
216.85228 852.16858 78.416504
222.2735 852.16858 78.416504
229.75684 839.78198 103.57642
235.22717 839.78198 103.57642
238.53758 852.16858 78.416504
243.9588 852.16858 78.416504
-42.598946 871.59766 26.913574
-37.274155 871.59766 26.913574
-31.949263 871.59766 26.913574
-26.624367 871.59766 26.913574
-21.488834 859.60986 51.156982
-16.116598 859.60986 51.156982
-10.744469 859.60986 51.156982
-5.324894 871.59766 26.913574
0 871.59766 26.913574
5.2774534 883.58545 2.6704102
10.555108 883.58545 2.6704102
15.83256 883.58545 2.6704102
21.110216 883.58545 2.6704102
26.387667 883.58545 2.6704102
31.665119 883.58545 2.6704102
36.942772 883.58545 2.6704102
42.22023 883.58545 2.6704102
47.497883 883.58545 2.6704102
52.319469 895.12927 -20.674805
57.551338 895.12927 -20.674805
62.236362 906.67297 -44.02002
66.852806 917.77271 -66.467529
71.995453 917.77271 -66.467529
76.4804 928.87256 -88.915039
81.579018 928.87256 -88.915039
86.677826 928.87256 -88.915039
90.98745 939.97241 -111.36255
96.042427 939.97241 -111.36255
101.09721 939.97241 -111.36255
107.07249 928.87256 -88.915039
112.1713 928.87256 -88.915039
117.26991 928.87256 -88.915039
122.36873 928.87256 -88.915039
127.46734 928.87256 -88.915039
132.56595 928.87256 -88.915039
137.66476 928.87256 -88.915039
142.76338 928.87256 -88.915039
147.86218 928.87256 -88.915039
152.9608 928.87256 -88.915039
158.05943 928.87256 -88.915039
164.5609 917.77271 -66.467529
171.14984 906.67297 -44.02002
179.43622 883.58545 2.6704102
186.37057 871.59766 26.913574
191.69536 871.59766 26.913574
198.77194 859.60986 51.156982
204.14407 859.60986 51.156982
211.43105 847.1781 76.298096
216.85228 847.1781 76.298096
222.2735 847.1781 76.298096
229.75684 834.74634 101.43896
235.22717 834.74634 101.43896
240.69769 834.74634 101.43896
248.45612 821.87061 127.47827
-42.598946 866.69617 24.833008
-37.274155 866.69617 24.833008
-31.949263 866.69617 24.833008
-26.624367 866.69617 24.833008
-21.488834 854.66479 49.057861
-16.116598 854.66479 49.057861
-10.744469 854.66479 49.057861
-5.324894 866.69617 24.833008
0 866.69617 24.833008
5.2774534 878.72754 0.60839844
10.555108 878.72754 0.60839844
15.83256 878.72754 0.60839844
21.110216 878.72754 0.60839844
26.387667 878.72754 0.60839844
31.665119 878.72754 0.60839844
36.942772 878.72754 0.60839844
42.22023 878.72754 0.60839844
47.087601 890.31323 -22.718994
52.319469 890.31323 -22.718994
57.551338 890.31323 -22.718994
62.236362 901.89893 -46.046631
66.852806 913.03906 -68.476807
71.995453 913.03906 -68.476807
76.4804 924.17932 -90.907227
81.579018 924.17932 -90.907227
86.677826 924.17932 -90.907227
91.776451 924.17932 -90.907227
96.875259 924.17932 -90.907227
101.97387 924.17932 -90.907227
107.07249 924.17932 -90.907227
112.1713 924.17932 -90.907227
117.26991 924.17932 -90.907227
122.36873 924.17932 -90.907227
127.46734 924.17932 -90.907227
132.56595 924.17932 -90.907227
137.66476 924.17932 -90.907227
142.76338 924.17932 -90.907227
147.86218 924.17932 -90.907227
152.9608 924.17932 -90.907227
158.05943 924.17932 -90.907227
164.5609 913.03906 -68.476807
171.14984 901.89893 -46.046631
179.43622 878.72754 0.60839844
186.37057 866.69617 24.833008
191.69536 866.69617 24.833008
198.77194 854.66479 49.057861
204.14407 854.66479 49.057861
211.43105 842.18787 74.179932
218.81601 829.71094 99.301514
224.28632 829.71094 99.301514
229.75684 829.71094 99.301514
235.22717 829.71094 99.301514
240.69769 829.71094 99.301514
248.45612 816.78833 125.32104
-37.949188 837.19751 72.061523
-32.233299 849.71948 46.95874
-26.861067 849.71948 46.95874
-21.488834 849.71948 46.95874
-16.26388 837.19751 72.061523
-10.744469 849.71948 46.95874
-5.3722343 849.71948 46.95874
0 861.79456 22.752441
5.2774534 873.86938 -1.4536133
10.555108 873.86938 -1.4536133
15.83256 873.86938 -1.4536133
21.110216 873.86938 -1.4536133
26.387667 873.86938 -1.4536133
31.665119 873.86938 -1.4536133
36.942772 873.86938 -1.4536133
42.22023 873.86938 -1.4536133
47.087601 885.49719 -24.763428
52.319469 885.49719 -24.763428
57.049881 897.12476 -48.072998
62.236362 897.12476 -48.072998
66.852806 908.3053 -70.486328
71.995453 908.3053 -70.486328
76.4804 919.48584 -92.899414
81.579018 919.48584 -92.899414
86.677826 919.48584 -92.899414
91.776451 919.48584 -92.899414
96.875259 919.48584 -92.899414
101.97387 919.48584 -92.899414
107.07249 919.48584 -92.899414
112.1713 919.48584 -92.899414
117.26991 919.48584 -92.899414
122.36873 919.48584 -92.899414
128.56317 908.3053 -70.486328
132.56595 919.48584 -92.899414
137.66476 919.48584 -92.899414
142.76338 919.48584 -92.899414
147.86218 919.48584 -92.899414
152.9608 919.48584 -92.899414
159.41826 908.3053 -70.486328
164.5609 908.3053 -70.486328
171.14984 897.12476 -48.072998
179.43622 873.86938 -1.4536133
186.37057 861.79456 22.752441
191.69536 861.79456 22.752441
198.77194 849.71948 46.95874
206.00961 837.19751 72.061523
211.43105 837.19751 72.061523
218.81601 824.67529 97.164062
224.28632 824.67529 97.164062
229.75684 824.67529 97.164062
235.22717 824.67529 97.164062
240.69769 824.67529 97.164062
248.45612 811.70593 123.16357
-43.763157 819.63989 95.026611
-37.949188 832.20715 69.943359
-32.527863 832.20715 69.943359
-26.861067 844.77454 44.859863
-21.488834 844.77454 44.859863
-16.26388 832.20715 69.943359
-10.744469 844.77454 44.859863
-5.3722343 844.77454 44.859863
0 856.89307 20.671875
5.3247924 856.89307 20.671875
10.649788 856.89307 20.671875
15.83256 869.01147 -3.515625
21.110216 869.01147 -3.515625
26.387667 869.01147 -3.515625
31.665119 869.01147 -3.515625
36.942772 869.01147 -3.515625
42.22023 869.01147 -3.515625
47.087601 880.68127 -26.807617
52.319469 880.68127 -26.807617
57.049881 892.35083 -50.099365
61.710361 903.57166 -72.495605
66.852806 903.57166 -72.495605
71.995453 903.57166 -72.495605
76.4804 914.79248 -94.891602
81.579018 914.79248 -94.891602
86.677826 914.79248 -94.891602
91.776451 914.79248 -94.891602
96.875259 914.79248 -94.891602
101.97387 914.79248 -94.891602
107.07249 914.79248 -94.891602
112.1713 914.79248 -94.891602
117.26991 914.79248 -94.891602
122.36873 914.79248 -94.891602
128.56317 903.57166 -72.495605
133.70561 903.57166 -72.495605
137.66476 914.79248 -94.891602
142.76338 914.79248 -94.891602
147.86218 914.79248 -94.891602
154.2758 903.57166 -72.495605
159.41826 903.57166 -72.495605
164.5609 903.57166 -72.495605
171.14984 892.35083 -50.099365
179.43622 869.01147 -3.515625
186.37057 856.89307 20.671875
193.39961 844.77454 44.859863
198.77194 844.77454 44.859863
206.00961 832.20715 69.943359
211.43105 832.20715 69.943359
218.81601 819.63989 95.026611
224.28632 819.63989 95.026611
229.75684 819.63989 95.026611
237.41357 806.62366 121.00635
242.93494 806.62366 121.00635
248.45612 806.62366 121.00635
256.31622 793.60754 146.9856
-43.763157 814.60425 92.88916
-38.292843 814.60425 92.88916
-32.527863 827.2168 67.824951
-26.861067 839.82935 42.760742
-21.488834 839.82935 42.760742
-16.26388 827.2168 67.824951
-10.744469 839.82935 42.760742
-5.3722343 839.82935 42.760742
0 851.99146 18.591309
5.3247924 851.99146 18.591309
10.649788 851.99146 18.591309
15.83256 864.15344 -5.5778809
21.110216 864.15344 -5.5778809
26.387667 864.15344 -5.5778809
31.665119 864.15344 -5.5778809
36.942772 864.15344 -5.5778809
42.22023 864.15344 -5.5778809
47.087601 875.86511 -28.851807
51.863602 887.57666 -52.125977
57.049881 887.57666 -52.125977
61.710361 898.83789 -74.504883
66.852806 898.83789 -74.504883
71.995453 898.83789 -74.504883
76.4804 910.09912 -96.884033
81.579018 910.09912 -96.884033
86.677826 910.09912 -96.884033
91.776451 910.09912 -96.884033
96.875259 910.09912 -96.884033
101.97387 910.09912 -96.884033
107.07249 910.09912 -96.884033
112.1713 910.09912 -96.884033
118.27808 898.83789 -74.504883
123.42072 898.83789 -74.504883
128.56317 898.83789 -74.504883
133.70561 898.83789 -74.504883
137.66476 910.09912 -96.884033
142.76338 910.09912 -96.884033
147.86218 910.09912 -96.884033
154.2758 898.83789 -74.504883
159.41826 898.83789 -74.504883
165.96358 887.57666 -52.125977
174.15857 864.15344 -5.5778809
181.04578 851.99146 18.591309
186.37057 851.99146 18.591309
193.39961 839.82935 42.760742
200.58839 827.2168 67.824951
206.00961 827.2168 67.824951
211.43105 827.2168 67.824951
218.81601 814.60425 92.88916
224.28632 814.60425 92.88916
229.75684 814.60425 92.88916
237.41357 801.54126 118.84888
242.93494 801.54126 118.84888
250.7442 788.47827 144.80835
256.31622 788.47827 144.80835
-43.763157 809.56885 90.751709
-38.292843 809.56885 90.751709
-32.527863 822.22656 65.706787
-26.861067 834.88416 40.661621
-21.488834 834.88416 40.661621
-16.116598 834.88416 40.661621
-10.744469 834.88416 40.661621
-5.324894 847.08984 16.510742
0 847.08984 16.510742
5.3247924 847.08984 16.510742
10.649788 847.08984 16.510742
15.83256 859.29553 -7.6398926
21.110216 859.29553 -7.6398926
26.387667 859.29553 -7.6398926
31.665119 859.29553 -7.6398926
36.942772 859.29553 -7.6398926
42.22023 859.29553 -7.6398926
47.087601 871.04919 -30.89624
51.863602 882.80273 -54.152344
56.567715 894.10425 -76.51416
61.710361 894.10425 -76.51416
66.852806 894.10425 -76.51416
71.381783 905.40576 -98.876221
76.4804 905.40576 -98.876221
81.579018 905.40576 -98.876221
86.677826 905.40576 -98.876221
91.776451 905.40576 -98.876221
96.875259 905.40576 -98.876221
101.97387 905.40576 -98.876221
107.07249 905.40576 -98.876221
112.1713 905.40576 -98.876221
117.26991 905.40576 -98.876221
123.42072 894.10425 -76.51416
128.56317 894.10425 -76.51416
133.70561 894.10425 -76.51416
137.66476 905.40576 -98.876221
142.76338 905.40576 -98.876221
149.13335 894.10425 -76.51416
154.2758 894.10425 -76.51416
159.41826 894.10425 -76.51416
165.96358 882.80273 -54.152344
174.15857 859.29553 -7.6398926
181.04578 847.08984 16.510742
188.02748 834.88416 40.661621
193.39961 834.88416 40.661621
200.58839 822.22656 65.706787
206.00961 822.22656 65.706787
211.43105 822.22656 65.706787
216.85228 822.22656 65.706787
224.28632 809.56885 90.751709
229.75684 809.56885 90.751709
237.41357 796.45898 116.69165
242.93494 796.45898 116.69165
250.7442 783.34924 142.63135
258.73581 769.78735 169.46558
-38.292843 804.5332 88.614258
-32.527863 817.23608 63.588623
-27.106535 817.23608 63.588623
-21.685207 817.23608 63.588623
-16.116598 829.93896 38.5625
-10.744469 829.93896 38.5625
-5.324894 842.18823 14.430176
0 842.18823 14.430176
5.3247924 842.18823 14.430176
10.649788 842.18823 14.430176
15.97458 842.18823 14.430176
21.110216 854.4375 -9.7021484
26.387667 854.4375 -9.7021484
31.665119 854.4375 -9.7021484
36.942772 854.4375 -9.7021484
42.22023 854.4375 -9.7021484
47.087601 866.23303 -32.94043
51.863602 878.02856 -56.178955
56.567715 889.37048 -78.523682
61.710361 889.37048 -78.523682
66.852806 889.37048 -78.523682
71.381783 900.7124 -100.86841
76.4804 900.7124 -100.86841
81.579018 900.7124 -100.86841
86.677826 900.7124 -100.86841
91.776451 900.7124 -100.86841
96.875259 900.7124 -100.86841
101.97387 900.7124 -100.86841
107.07249 900.7124 -100.86841
112.1713 900.7124 -100.86841
117.26991 900.7124 -100.86841
123.42072 889.37048 -78.523682
128.56317 889.37048 -78.523682
133.70561 889.37048 -78.523682
137.66476 900.7124 -100.86841
142.76338 900.7124 -100.86841
149.13335 889.37048 -78.523682
154.2758 889.37048 -78.523682
159.41826 889.37048 -78.523682
165.96358 878.02856 -56.178955
174.15857 854.4375 -9.7021484
181.04578 842.18823 14.430176
188.02748 829.93896 38.5625
193.39961 829.93896 38.5625
198.77194 829.93896 38.5625
204.14407 829.93896 38.5625
209.5164 829.93896 38.5625
216.85228 817.23608 63.588623
222.2735 817.23608 63.588623
229.75684 804.5332 88.614258
237.41357 791.37659 114.53442
242.93494 791.37659 114.53442
250.7442 778.21997 140.4541
256.31622 778.21997 140.4541
-37.949188 812.24585 61.470215
-32.527863 812.24585 61.470215
-27.106535 812.24585 61.470215
-21.685207 812.24585 61.470215
-16.26388 812.24585 61.470215
-10.744469 824.9939 36.463379
-5.324894 837.28674 12.349609
0 837.28674 12.349609
5.3247924 837.28674 12.349609
10.649788 837.28674 12.349609
15.97458 837.28674 12.349609
21.299576 837.28674 12.349609
26.387667 849.57959 -11.76416
31.665119 849.57959 -11.76416
36.942772 849.57959 -11.76416
42.22023 849.57959 -11.76416
47.087601 861.41711 -34.984619
51.863602 873.25452 -58.205322
56.567715 884.63684 -80.532959
61.710361 884.63684 -80.532959
66.852806 884.63684 -80.532959
71.381783 896.01904 -102.8606
76.4804 896.01904 -102.8606
81.579018 896.01904 -102.8606
86.677826 896.01904 -102.8606
91.776451 896.01904 -102.8606
96.875259 896.01904 -102.8606
101.97387 896.01904 -102.8606
107.07249 896.01904 -102.8606
112.1713 896.01904 -102.8606
117.26991 896.01904 -102.8606
123.42072 884.63684 -80.532959
128.56317 884.63684 -80.532959
133.70561 884.63684 -80.532959
138.84827 884.63684 -80.532959
143.99071 884.63684 -80.532959
149.13335 884.63684 -80.532959
154.2758 884.63684 -80.532959
160.7771 873.25452 -58.205322
170.396 837.28674 12.349609
175.72078 837.28674 12.349609
181.04578 837.28674 12.349609
188.02748 824.9939 36.463379
193.39961 824.9939 36.463379
198.77194 824.9939 36.463379
204.14407 824.9939 36.463379
209.5164 824.9939 36.463379
216.85228 812.24585 61.470215
222.2735 812.24585 61.470215
229.75684 799.4978 86.476807
237.41357 786.29431 112.37695
242.93494 786.29431 112.37695
248.45612 786.29431 112.37695
256.31622 773.09094 138.27686
-37.949188 807.25537 59.352051
-32.527863 807.25537 59.352051
-26.861067 820.04871 34.364258
-21.488834 820.04871 34.364258
-16.26388 807.25537 59.352051
-10.744469 820.04871 34.364258
-5.3722343 820.04871 34.364258
0 832.38513 10.268799
5.3247924 832.38513 10.268799
10.649788 832.38513 10.268799
15.97458 832.38513 10.268799
21.299576 832.38513 10.268799
26.387667 844.72144 -13.826172
31.665119 844.72144 -13.826172
36.942772 844.72144 -13.826172
41.855534 856.60095 -37.029053
47.087601 856.60095 -37.029053
51.863602 868.48047 -60.231934
56.567715 879.90308 -82.542236
61.710361 879.90308 -82.542236
66.852806 879.90308 -82.542236
71.381783 891.32568 -104.85278
76.4804 891.32568 -104.85278
81.579018 891.32568 -104.85278
86.677826 891.32568 -104.85278
91.776451 891.32568 -104.85278
96.875259 891.32568 -104.85278
101.97387 891.32568 -104.85278
107.07249 891.32568 -104.85278
112.1713 891.32568 -104.85278
117.26991 891.32568 -104.85278
123.42072 879.90308 -82.542236
128.56317 879.90308 -82.542236
133.70561 879.90308 -82.542236
138.84827 879.90308 -82.542236
143.99071 879.90308 -82.542236
149.13335 879.90308 -82.542236
154.2758 879.90308 -82.542236
162.19028 856.60095 -37.029053
170.396 832.38513 10.268799
175.72078 832.38513 10.268799
181.04578 832.38513 10.268799
188.02748 820.04871 34.364258
193.39961 820.04871 34.364258
198.77194 820.04871 34.364258
204.14407 820.04871 34.364258
209.5164 820.04871 34.364258
216.85228 807.25537 59.352051
222.2735 807.25537 59.352051
229.75684 794.46216 84.339355
237.41357 781.21191 110.21973
242.93494 781.21191 110.21973
248.45612 781.21191 110.21973
256.31622 767.96179 136.09961
-37.949188 802.26514 57.233643
-32.233299 815.10364 32.265137
-26.861067 815.10364 32.265137
-21.488834 815.10364 32.265137
-16.26388 802.26514 57.233643
-10.744469 815.10364 32.265137
-5.3722343 815.10364 32.265137
0 827.48364 8.1882324
5.3247924 827.48364 8.1882324
10.649788 827.48364 8.1882324
15.97458 827.48364 8.1882324
21.299576 827.48364 8.1882324
26.387667 839.86353 -15.888184
31.665119 839.86353 -15.888184
36.942772 839.86353 -15.888184
41.855534 851.78503 -39.073242
46.677322 863.70642 -62.258301
51.863602 863.70642 -62.258301
56.567715 875.16943 -84.551758
61.710361 875.16943 -84.551758
66.852806 875.16943 -84.551758
71.381783 886.63232 -106.84497
76.4804 886.63232 -106.84497
81.579018 886.63232 -106.84497
86.677826 886.63232 -106.84497
91.776451 886.63232 -106.84497
96.875259 886.63232 -106.84497
101.97387 886.63232 -106.84497
107.07249 886.63232 -106.84497
112.1713 886.63232 -106.84497
117.26991 886.63232 -106.84497
123.42072 875.16943 -84.551758
128.56317 875.16943 -84.551758
133.70561 875.16943 -84.551758
138.84827 875.16943 -84.551758
143.99071 875.16943 -84.551758
150.40451 863.70642 -62.258301
155.59081 863.70642 -62.258301
163.60345 839.86353 -15.888184
170.396 827.48364 8.1882324
177.283 815.10364 32.265137
182.65533 815.10364 32.265137
188.02748 815.10364 32.265137
193.39961 815.10364 32.265137
198.77194 815.10364 32.265137
204.14407 815.10364 32.265137
209.5164 815.10364 32.265137
214.88853 815.10364 32.265137
222.2735 802.26514 57.233643
229.75684 789.42676 82.201904
235.22717 789.42676 82.201904
242.93494 776.12964 108.0625
250.7442 762.83276 133.92261
258.73581 749.07715 160.67456
-32.233299 810.15845 30.166016
-26.861067 810.15845 30.166016
-21.488834 810.15845 30.166016
-16.26388 797.27478 55.115479
-10.842655 797.27478 55.115479
-5.3722343 810.15845 30.166016
0 822.58203 6.107666
5.3247924 822.58203 6.107666
10.649788 822.58203 6.107666
15.97458 822.58203 6.107666
21.299576 822.58203 6.107666
26.624367 822.58203 6.107666
31.665119 835.00549 -17.950439
36.942772 835.00549 -17.950439
41.855534 846.96899 -41.117676
46.677322 858.93225 -64.284912
51.863602 858.93225 -64.284912
56.567715 870.43555 -86.561035
61.710361 870.43555 -86.561035
66.852806 870.43555 -86.561035
71.995453 870.43555 -86.561035
76.4804 881.93896 -108.83716
81.579018 881.93896 -108.83716
86.677826 881.93896 -108.83716
91.776451 881.93896 -108.83716
96.875259 881.93896 -108.83716
101.97387 881.93896 -108.83716
107.07249 881.93896 -108.83716
112.1713 881.93896 -108.83716
117.26991 881.93896 -108.83716
123.42072 870.43555 -86.561035
128.56317 870.43555 -86.561035
133.70561 870.43555 -86.561035
140.03175 858.93225 -64.284912
145.21805 858.93225 -64.284912
151.72653 846.96899 -41.117676
156.9584 846.96899 -41.117676
163.60345 835.00549 -17.950439
170.396 822.58203 6.107666
175.72078 822.58203 6.107666
181.04578 822.58203 6.107666
188.02748 810.15845 30.166016
193.39961 810.15845 30.166016
198.77194 810.15845 30.166016
204.14407 810.15845 30.166016
209.5164 810.15845 30.166016
214.88853 810.15845 30.166016
222.2735 797.27478 55.115479
229.75684 784.39111 80.064453
235.22717 784.39111 80.064453
242.93494 771.04724 105.90503
248.45612 771.04724 105.90503
256.31622 757.70349 131.74536
-32.233299 805.21338 28.067139
-26.861067 805.21338 28.067139
-21.488834 805.21338 28.067139
-16.26388 792.28455 52.99707
-10.842655 792.28455 52.99707
-5.3722343 805.21338 28.067139
0 805.21338 28.067139
5.3247924 817.68054 4.0270996
10.649788 817.68054 4.0270996
15.97458 817.68054 4.0270996
21.299576 817.68054 4.0270996
26.624367 817.68054 4.0270996
31.665119 830.14758 -20.012451
36.942772 830.14758 -20.012451
41.855534 842.15295 -43.161865
46.677322 854.15833 -66.311279
51.42527 865.7019 -88.570312
56.567715 865.7019 -88.570312
61.710361 865.7019 -88.570312
66.852806 865.7019 -88.570312
71.995453 865.7019 -88.570312
76.4804 877.24561 -110.82935
81.579018 877.24561 -110.82935
86.677826 877.24561 -110.82935
91.776451 877.24561 -110.82935
96.875259 877.24561 -110.82935
101.97387 877.24561 -110.82935
107.07249 877.24561 -110.82935
112.1713 877.24561 -110.82935
117.26991 877.24561 -110.82935
123.42072 865.7019 -88.570312
128.56317 865.7019 -88.570312
134.84529 854.15833 -66.311279
140.03175 854.15833 -66.311279
145.21805 854.15833 -66.311279
153.04855 830.14758 -20.012451
158.326 830.14758 -20.012451
165.071 817.68054 4.0270996
170.396 817.68054 4.0270996
175.72078 817.68054 4.0270996
181.04578 817.68054 4.0270996
186.37057 817.68054 4.0270996
191.69536 817.68054 4.0270996
198.77194 805.21338 28.067139
204.14407 805.21338 28.067139
209.5164 805.21338 28.067139
214.88853 805.21338 28.067139
222.2735 792.28455 52.99707
229.75684 779.35571 77.927002
235.22717 779.35571 77.927002
242.93494 765.96497 103.7478
248.45612 765.96497 103.7478
256.31622 752.57446 129.56812
-26.861067 800.26807 25.968018
-21.488834 800.26807 25.968018
-16.26388 787.29407 50.878906
-10.744469 800.26807 25.968018
-5.3722343 800.26807 25.968018
0 800.26807 25.968018
5.3247924 812.77893 1.9465332
10.649788 812.77893 1.9465332
15.97458 812.77893 1.9465332
21.299576 812.77893 1.9465332
26.624367 812.77893 1.9465332
31.665119 825.28955 -22.074707
36.942772 825.28955 -22.074707
41.855534 837.33691 -45.206055
46.677322 849.38416 -68.337646
51.42527 860.96814 -90.57959
56.567715 860.96814 -90.57959
61.710361 860.96814 -90.57959
66.852806 860.96814 -90.57959
71.995453 860.96814 -90.57959
76.4804 872.55212 -112.82178
81.579018 872.55212 -112.82178
86.677826 872.55212 -112.82178
91.776451 872.55212 -112.82178
96.875259 872.55212 -112.82178
101.97387 872.55212 -112.82178
107.07249 872.55212 -112.82178
112.1713 872.55212 -112.82178
118.27808 860.96814 -90.57959
123.42072 860.96814 -90.57959
128.56317 860.96814 -90.57959
134.84529 849.38416 -68.337646
140.03175 849.38416 -68.337646
146.49446 837.33691 -45.206055
153.04855 825.28955 -22.074707
158.326 825.28955 -22.074707
163.60345 825.28955 -22.074707
168.8811 825.28955 -22.074707
175.72078 812.77893 1.9465332
181.04578 812.77893 1.9465332
186.37057 812.77893 1.9465332
191.69536 812.77893 1.9465332
198.77194 800.26807 25.968018
204.14407 800.26807 25.968018
209.5164 800.26807 25.968018
216.85228 787.29407 50.878906
222.2735 787.29407 50.878906
229.75684 774.32007 75.789551
235.22717 774.32007 75.789551
242.93494 760.88257 101.59033
248.45612 760.88257 101.59033
253.97728 760.88257 101.59033
-26.861067 795.32288 23.868896
-21.488834 795.32288 23.868896
-16.26388 782.30371 48.760498
-10.744469 795.32288 23.868896
-5.3722343 795.32288 23.868896
0 795.32288 23.868896
5.3247924 807.8772 -0.1340332
10.649788 807.8772 -0.1340332
16.116598 795.32288 23.868896
21.299576 807.8772 -0.1340332
26.624367 807.8772 -0.1340332
31.94916 807.8772 -0.1340332
36.942772 820.43152 -24.136719
41.855534 832.52075 -47.250488
46.677322 844.60999 -70.364258
51.42527 856.23438 -92.589111
56.567715 856.23438 -92.589111
61.710361 856.23438 -92.589111
66.852806 856.23438 -92.589111
71.995453 856.23438 -92.589111
77.137901 856.23438 -92.589111
81.579018 867.85876 -114.81396
86.677826 867.85876 -114.81396
91.776451 867.85876 -114.81396
96.875259 867.85876 -114.81396
101.97387 867.85876 -114.81396
107.07249 867.85876 -114.81396
113.13563 856.23438 -92.589111
118.27808 856.23438 -92.589111
123.42072 856.23438 -92.589111
129.65901 844.60999 -70.364258
134.84529 844.60999 -70.364258
141.2626 832.52075 -47.250488
147.7709 820.43152 -24.136719
153.04855 820.43152 -24.136719
158.326 820.43152 -24.136719
163.60345 820.43152 -24.136719
168.8811 820.43152 -24.136719
175.72078 807.8772 -0.1340332
181.04578 807.8772 -0.1340332
186.37057 807.8772 -0.1340332
191.69536 807.8772 -0.1340332
197.02036 807.8772 -0.1340332
204.14407 795.32288 23.868896
209.5164 795.32288 23.868896
216.85228 782.30371 48.760498
222.2735 782.30371 48.760498
229.75684 769.28455 73.6521
235.22717 769.28455 73.6521
240.69769 769.28455 73.6521
248.45612 755.80017 99.433105
253.97728 755.80017 99.433105
-26.861067 790.37781 21.769775
-21.488834 790.37781 21.769775
-16.26388 777.31348 46.642334
-10.744469 790.37781 21.769775
-5.3722343 790.37781 21.769775
0 790.37781 21.769775
5.3247924 802.97571 -2.2145996
10.649788 802.97571 -2.2145996
16.116598 790.37781 21.769775
21.488937 790.37781 21.769775
26.624367 802.97571 -2.2145996
31.665119 815.57349 -26.19873
36.942772 815.57349 -26.19873
41.140175 851.50073 -94.598389
46.282822 851.50073 -94.598389
51.42527 851.50073 -94.598389
56.567715 851.50073 -94.598389
61.710361 851.50073 -94.598389
66.852806 851.50073 -94.598389
71.995453 851.50073 -94.598389
77.137901 851.50073 -94.598389
82.28035 851.50073 -94.598389
86.677826 863.16541 -116.80615
91.776451 863.16541 -116.80615
97.708092 851.50073 -94.598389
102.85054 851.50073 -94.598389
107.99298 851.50073 -94.598389
113.13563 851.50073 -94.598389
118.27808 851.50073 -94.598389
123.42072 851.50073 -94.598389
129.65901 839.83606 -72.390625
136.03053 827.70483 -49.294678
141.2626 827.70483 -49.294678
147.7709 815.57349 -26.19873
153.04855 815.57349 -26.19873
158.326 815.57349 -26.19873
163.60345 815.57349 -26.19873
168.8811 815.57349 -26.19873
175.72078 802.97571 -2.2145996
181.04578 802.97571 -2.2145996
186.37057 802.97571 -2.2145996
191.69536 802.97571 -2.2145996
197.02036 802.97571 -2.2145996
204.14407 790.37781 21.769775
211.43105 777.31348 46.642334
216.85228 777.31348 46.642334
222.2735 777.31348 46.642334
229.75684 764.24902 71.514648
235.22717 764.24902 71.514648
240.69769 764.24902 71.514648
246.16801 764.24902 71.514648
251.63832 764.24902 71.514648
-27.106535 772.323 44.523926
-21.685207 772.323 44.523926
-16.26388 772.323 44.523926
-10.842655 772.323 44.523926
-5.3722343 785.43262 19.670654
0 785.43262 19.670654
5.3721313 785.43262 19.670654
10.744469 785.43262 19.670654
16.116598 785.43262 19.670654
21.488937 785.43262 19.670654
26.624367 798.0741 -4.295166
31.665119 810.71545 -28.260986
36.623669 822.88867 -51.339111
41.140175 846.76697 -96.607666
46.282822 846.76697 -96.607666
51.42527 846.76697 -96.607666
56.567715 846.76697 -96.607666
61.710361 846.76697 -96.607666
66.852806 846.76697 -96.607666
71.995453 846.76697 -96.607666
77.137901 846.76697 -96.607666
82.28035 846.76697 -96.607666
87.422989 846.76697 -96.607666
92.565445 846.76697 -96.607666
97.708092 846.76697 -96.607666
102.85054 846.76697 -96.607666
107.99298 846.76697 -96.607666
113.13563 846.76697 -96.607666
118.27808 846.76697 -96.607666
123.42072 846.76697 -96.607666
129.65901 835.06189 -74.417236
136.03053 822.88867 -51.339111
141.2626 822.88867 -51.339111
147.7709 810.71545 -28.260986
153.04855 810.71545 -28.260986
158.326 810.71545 -28.260986
163.60345 810.71545 -28.260986
168.8811 810.71545 -28.260986
175.72078 798.0741 -4.295166
181.04578 798.0741 -4.295166
186.37057 798.0741 -4.295166
191.69536 798.0741 -4.295166
197.02036 798.0741 -4.295166
204.14407 785.43262 19.670654
211.43105 772.323 44.523926
216.85228 772.323 44.523926
222.2735 772.323 44.523926
229.75684 759.2135 69.377197
235.22717 759.2135 69.377197
240.69769 759.2135 69.377197
246.16801 759.2135 69.377197
251.63832 759.2135 69.377197
-21.881578 754.17798 67.239746
-16.26388 767.33276 42.405762
-10.842655 767.33276 42.405762
-5.4213276 767.33276 42.405762
0 780.48755 17.571533
5.3721313 780.48755 17.571533
10.744469 780.48755 17.571533
16.116598 780.48755 17.571533
21.299576 793.17261 -6.3759766
26.624367 793.17261 -6.3759766
31.665119 805.85754 -30.322998
36.623669 818.07275 -53.383301
41.490841 830.28784 -76.443604
46.282822 842.03333 -98.617188
51.42527 842.03333 -98.617188
56.567715 842.03333 -98.617188
61.710361 842.03333 -98.617188
66.852806 842.03333 -98.617188
71.995453 842.03333 -98.617188
77.137901 842.03333 -98.617188
82.28035 842.03333 -98.617188
87.422989 842.03333 -98.617188
92.565445 842.03333 -98.617188
97.708092 842.03333 -98.617188
102.85054 842.03333 -98.617188
107.99298 842.03333 -98.617188
113.13563 842.03333 -98.617188
118.27808 842.03333 -98.617188
124.47272 830.28784 -76.443604
130.79868 818.07275 -53.383301
136.03053 818.07275 -53.383301
142.49345 805.85754 -30.322998
147.7709 805.85754 -30.322998
153.04855 805.85754 -30.322998
158.326 805.85754 -30.322998
165.071 793.17261 -6.3759766
170.396 793.17261 -6.3759766
175.72078 793.17261 -6.3759766
181.04578 793.17261 -6.3759766
186.37057 793.17261 -6.3759766
191.69536 793.17261 -6.3759766
198.77194 780.48755 17.571533
204.14407 780.48755 17.571533
211.43105 767.33276 42.405762
216.85228 767.33276 42.405762
222.2735 767.33276 42.405762
227.69493 767.33276 42.405762
235.22717 754.17798 67.239746
240.69769 754.17798 67.239746
246.16801 754.17798 67.239746
-21.881578 749.14246 65.102295
-16.41116 749.14246 65.102295
-10.940842 749.14246 65.102295
-5.4704208 749.14246 65.102295
0 762.34241 40.287598
5.3721313 775.54236 15.472412
10.744469 775.54236 15.472412
16.116598 775.54236 15.472412
21.299576 788.271 -8.456543
26.387667 800.99951 -32.38501
31.665119 800.99951 -32.38501
36.623669 813.25671 -55.427734
41.490841 825.51379 -78.470215
46.282822 837.29944 -100.62646
51.42527 837.29944 -100.62646
56.567715 837.29944 -100.62646
61.710361 837.29944 -100.62646
66.852806 837.29944 -100.62646
71.995453 837.29944 -100.62646
77.137901 837.29944 -100.62646
82.28035 837.29944 -100.62646
87.422989 837.29944 -100.62646
92.565445 837.29944 -100.62646
97.708092 837.29944 -100.62646
102.85054 837.29944 -100.62646
107.99298 837.29944 -100.62646
113.13563 837.29944 -100.62646
118.27808 837.29944 -100.62646
124.47272 825.51379 -78.470215
130.79868 813.25671 -55.427734
136.03053 813.25671 -55.427734
142.49345 800.99951 -32.38501
147.7709 800.99951 -32.38501
153.04855 800.99951 -32.38501
158.326 800.99951 -32.38501
165.071 788.271 -8.456543
170.396 788.271 -8.456543
175.72078 788.271 -8.456543
181.04578 788.271 -8.456543
186.37057 788.271 -8.456543
191.69536 788.271 -8.456543
198.77194 775.54236 15.472412
204.14407 775.54236 15.472412
211.43105 762.34241 40.287598
216.85228 762.34241 40.287598
222.2735 762.34241 40.287598
227.69493 762.34241 40.287598
235.22717 749.14246 65.102295
240.69769 749.14246 65.102295
248.45612 735.47083 90.803711
-27.352001 744.10693 62.964844
-21.881578 744.10693 62.964844
-16.41116 744.10693 62.964844
-10.940842 744.10693 62.964844
-5.4704208 744.10693 62.964844
0 744.10693 62.964844
5.3721313 770.59729 13.373291
10.744469 770.59729 13.373291
16.116598 770.59729 13.373291
21.299576 783.36951 -10.537109
26.387667 796.1416 -34.447266
31.665119 796.1416 -34.447266
36.623669 808.44067 -57.471924
41.490841 820.73975 -80.496582
46.282822 832.56592 -102.63574
51.42527 832.56592 -102.63574
56.567715 832.56592 -102.63574
61.710361 832.56592 -102.63574
66.852806 832.56592 -102.63574
71.995453 832.56592 -102.63574
77.137901 832.56592 -102.63574
82.28035 832.56592 -102.63574
87.422989 832.56592 -102.63574
92.565445 832.56592 -102.63574
97.708092 832.56592 -102.63574
102.85054 832.56592 -102.63574
107.99298 832.56592 -102.63574
113.13563 832.56592 -102.63574
118.27808 832.56592 -102.63574
124.47272 820.73975 -80.496582
129.65901 820.73975 -80.496582
136.03053 808.44067 -57.471924
142.49345 796.1416 -34.447266
147.7709 796.1416 -34.447266
153.04855 796.1416 -34.447266
159.7462 783.36951 -10.537109
165.071 783.36951 -10.537109
170.396 783.36951 -10.537109
175.72078 783.36951 -10.537109
181.04578 783.36951 -10.537109
186.37057 783.36951 -10.537109
193.39961 770.59729 13.373291
198.77194 770.59729 13.373291
204.14407 770.59729 13.373291
211.43105 757.35205 38.169189
216.85228 757.35205 38.169189
222.2735 757.35205 38.169189
229.75684 744.10693 62.964844
237.41357 730.38867 88.646484
242.93494 730.38867 88.646484
-27.352001 739.07129 60.827393
-21.881578 739.07129 60.827393
-16.563698 725.30615 86.489014
-10.940842 739.07129 60.827393
-5.4704208 739.07129 60.827393
0 739.07129 60.827393
5.4212241 752.36169 36.051025
10.842655 752.36169 36.051025
16.116598 765.6521 11.27417
21.299576 778.46777 -12.617676
26.387667 791.28357 -36.509277
31.391602 803.62463 -59.516113
36.304562 815.96558 -82.522949
41.490841 815.96558 -82.522949
46.677322 815.96558 -82.522949
51.42527 827.83203 -104.64502
56.567715 827.83203 -104.64502
61.710361 827.83203 -104.64502
66.852806 827.83203 -104.64502
71.995453 827.83203 -104.64502
77.137901 827.83203 -104.64502
82.28035 827.83203 -104.64502
87.422989 827.83203 -104.64502
92.565445 827.83203 -104.64502
97.708092 827.83203 -104.64502
102.85054 827.83203 -104.64502
107.99298 827.83203 -104.64502
113.13563 827.83203 -104.64502
118.27808 827.83203 -104.64502
124.47272 815.96558 -82.522949
129.65901 815.96558 -82.522949
136.03053 803.62463 -59.516113
142.49345 791.28357 -36.509277
147.7709 791.28357 -36.509277
153.04855 791.28357 -36.509277
159.7462 778.46777 -12.617676
165.071 778.46777 -12.617676
170.396 778.46777 -12.617676
175.72078 778.46777 -12.617676
181.04578 778.46777 -12.617676
188.02748 765.6521 11.27417
193.39961 765.6521 11.27417
198.77194 765.6521 11.27417
204.14407 765.6521 11.27417
211.43105 752.36169 36.051025
218.81601 739.07129 60.827393
224.28632 739.07129 60.827393
229.75684 739.07129 60.827393
237.41357 725.30615 86.489014
242.93494 725.30615 86.489014
-27.352001 734.03589 58.689941
-21.881578 734.03589 58.689941
-16.563698 720.224 84.331787
-10.940842 734.03589 58.689941
-5.4704208 734.03589 58.689941
0 734.03589 58.689941
5.4212241 747.37146 33.932617
10.842655 747.37146 33.932617
16.116598 760.70703 9.175293
21.299576 773.56641 -14.698242
26.159735 798.80872 -61.560547
31.118082 811.19165 -84.549561
36.304562 811.19165 -84.549561
41.140175 823.09839 -106.65454
46.282822 823.09839 -106.65454
51.42527 823.09839 -106.65454
56.567715 823.09839 -106.65454
61.710361 823.09839 -106.65454
66.852806 823.09839 -106.65454
71.995453 823.09839 -106.65454
77.137901 823.09839 -106.65454
82.28035 823.09839 -106.65454
87.422989 823.09839 -106.65454
92.565445 823.09839 -106.65454
97.708092 823.09839 -106.65454
102.85054 823.09839 -106.65454
107.99298 823.09839 -106.65454
113.13563 823.09839 -106.65454
119.28625 811.19165 -84.549561
124.47272 811.19165 -84.549561
130.79868 798.80872 -61.560547
136.03053 798.80872 -61.560547
142.49345 786.42554 -38.571289
147.7709 786.42554 -38.571289
153.04855 786.42554 -38.571289
159.7462 773.56641 -14.698242
165.071 773.56641 -14.698242
170.396 773.56641 -14.698242
175.72078 773.56641 -14.698242
181.04578 773.56641 -14.698242
188.02748 760.70703 9.175293
193.39961 760.70703 9.175293
202.40485 734.03589 58.689941
207.87517 734.03589 58.689941
213.34569 734.03589 58.689941
218.81601 734.03589 58.689941
224.28632 734.03589 58.689941
229.75684 734.03589 58.689941
237.41357 720.224 84.331787
242.93494 720.224 84.331787
-27.352001 729.00037 56.55249
-21.881578 729.00037 56.55249
-16.563698 715.1416 82.174561
-11.042537 715.1416 82.174561
-5.4704208 729.00037 56.55249
0 729.00037 56.55249
5.4212241 742.3811 31.814453
10.842655 742.3811 31.814453
15.97458 768.66467 -16.778809
21.299576 768.66467 -16.778809
26.159735 793.99255 -63.604736
31.118082 806.41748 -86.575928
36.304562 806.41748 -86.575928
41.140175 818.36462 -108.66382
46.282822 818.36462 -108.66382
51.42527 818.36462 -108.66382
56.567715 818.36462 -108.66382
61.710361 818.36462 -108.66382
66.852806 818.36462 -108.66382
71.995453 818.36462 -108.66382
77.137901 818.36462 -108.66382
82.28035 818.36462 -108.66382
87.422989 818.36462 -108.66382
92.565445 818.36462 -108.66382
97.708092 818.36462 -108.66382
102.85054 818.36462 -108.66382
107.99298 818.36462 -108.66382
114.09996 806.41748 -86.575928
119.28625 806.41748 -86.575928
124.47272 806.41748 -86.575928
130.79868 793.99255 -63.604736
137.21579 781.5675 -40.633545
142.49345 781.5675 -40.633545
147.7709 781.5675 -40.633545
153.04855 781.5675 -40.633545
159.7462 768.66467 -16.778809
165.071 768.66467 -16.778809
170.396 768.66467 -16.778809
175.72078 768.66467 -16.778809
181.04578 768.66467 -16.778809
188.02748 755.76172 7.0761719
193.39961 755.76172 7.0761719
202.40485 729.00037 56.55249
207.87517 729.00037 56.55249
213.34569 729.00037 56.55249
218.81601 729.00037 56.55249
224.28632 729.00037 56.55249
229.75684 729.00037 56.55249
237.41357 715.1416 82.174561
-22.084965 710.05933 80.01709
-16.563698 710.05933 80.01709
-11.042537 710.05933 80.01709
-5.5212684 710.05933 80.01709
0 723.96484 54.415039
5.4212241 737.39075 29.696289
10.842655 737.39075 29.696289
15.97458 763.76318 -18.859375
21.110216 776.70959 -42.695557
26.159735 789.17664 -65.648926
31.391602 789.17664 -65.648926
36.304562 801.64355 -88.602539
41.490841 801.64355 -88.602539
46.677322 801.64355 -88.602539
51.863602 801.64355 -88.602539
56.567715 813.63098 -110.6731
61.710361 813.63098 -110.6731
66.852806 813.63098 -110.6731
71.995453 813.63098 -110.6731
77.137901 813.63098 -110.6731
82.28035 813.63098 -110.6731
87.422989 813.63098 -110.6731
92.565445 813.63098 -110.6731
97.708092 813.63098 -110.6731
102.85054 813.63098 -110.6731
108.91348 801.64355 -88.602539
114.09996 801.64355 -88.602539
119.28625 801.64355 -88.602539
125.5668 789.17664 -65.648926
130.79868 789.17664 -65.648926
137.21579 776.70959 -42.695557
142.49345 776.70959 -42.695557
149.09642 763.76318 -18.859375
154.42142 763.76318 -18.859375
159.7462 763.76318 -18.859375
165.071 763.76318 -18.859375
170.396 763.76318 -18.859375
175.72078 763.76318 -18.859375
182.65533 750.81665 4.9770508
189.74574 737.39075 29.696289
195.16696 737.39075 29.696289
202.40485 723.96484 54.415039
207.87517 723.96484 54.415039
213.34569 723.96484 54.415039
218.81601 723.96484 54.415039
224.28632 723.96484 54.415039
229.75684 723.96484 54.415039
-16.716238 691.02466 103.44189
-11.14423 691.02466 103.44189
-5.5721149 691.02466 103.44189
0 704.97693 77.859863
5.4703169 718.9292 52.277588
10.744469 745.87146 2.8779297
15.83256 771.85156 -44.757568
21.110216 771.85156 -44.757568
26.159735 784.36047 -67.693359
31.118082 796.86938 -90.628906
36.304562 796.86938 -90.628906
41.490841 796.86938 -90.628906
46.677322 796.86938 -90.628906
51.863602 796.86938 -90.628906
56.567715 808.89722 -112.68262
61.710361 808.89722 -112.68262
66.852806 808.89722 -112.68262
71.995453 808.89722 -112.68262
77.137901 808.89722 -112.68262
82.28035 808.89722 -112.68262
87.422989 808.89722 -112.68262
92.565445 808.89722 -112.68262
97.708092 808.89722 -112.68262
102.85054 808.89722 -112.68262
108.91348 796.86938 -90.628906
115.10287 784.36047 -67.693359
120.33474 784.36047 -67.693359
125.5668 784.36047 -67.693359
131.93834 771.85156 -44.757568
138.44662 758.86157 -20.939941
143.77162 758.86157 -20.939941
149.09642 758.86157 -20.939941
154.42142 758.86157 -20.939941
159.7462 758.86157 -20.939941
165.071 758.86157 -20.939941
171.91087 745.87146 2.8779297
177.283 745.87146 2.8779297
184.32451 732.40039 27.577881
189.74574 732.40039 27.577881
196.93433 718.9292 52.277588
202.40485 718.9292 52.277588
207.87517 718.9292 52.277588
213.34569 718.9292 52.277588
218.81601 718.9292 52.277588
224.28632 718.9292 52.277588
231.89241 704.97693 77.859863
-22.498753 671.41382 127.7085
-17.031837 656.93201 154.15186
-11.35463 656.93201 154.15186
-5.6773152 656.93201 154.15186
0 671.41382 127.7085
10.744469 740.92639 0.77880859
15.83256 766.99365 -46.819824
20.927866 779.54456 -69.737549
25.931801 792.09534 -92.655273
31.118082 792.09534 -92.655273
36.304562 792.09534 -92.655273
41.140175 804.16357 -114.69189
46.282822 804.16357 -114.69189
51.42527 804.16357 -114.69189
56.567715 804.16357 -114.69189
61.710361 804.16357 -114.69189
66.852806 804.16357 -114.69189
71.995453 804.16357 -114.69189
77.137901 804.16357 -114.69189
82.28035 804.16357 -114.69189
87.422989 804.16357 -114.69189
92.565445 804.16357 -114.69189
97.708092 804.16357 -114.69189
103.7272 792.09534 -92.655273
108.91348 792.09534 -92.655273
115.10287 779.54456 -69.737549
120.33474 779.54456 -69.737549
126.66088 766.99365 -46.819824
131.93834 766.99365 -46.819824
138.44662 753.96008 -23.020508
143.77162 753.96008 -23.020508
149.09642 753.96008 -23.020508
154.42142 753.96008 -23.020508
159.7462 753.96008 -23.020508
165.071 753.96008 -23.020508
171.91087 740.92639 0.77880859
177.283 740.92639 0.77880859
182.65533 740.92639 0.77880859
189.74574 727.41016 25.459717
196.93433 713.8938 50.140137
202.40485 713.8938 50.140137
207.87517 713.8938 50.140137
213.34569 713.8938 50.140137
218.81601 713.8938 50.140137
224.28632 713.8938 50.140137
231.89241 699.89465 75.702637
-22.498753 666.23621 125.51074
-17.194897 636.69141 179.23755
-11.463337 636.69141 179.23755
-5.7316685 636.69141 179.23755
0 651.70605 151.93359
5.6246076 666.23621 125.51074
10.555108 762.1355 -48.881836
15.695801 774.72852 -71.781982
20.927866 774.72852 -71.781982
25.931801 787.32129 -94.681885
31.118082 787.32129 -94.681885
36.304562 787.32129 -94.681885
41.140175 799.42981 -116.70117
46.282822 799.42981 -116.70117
51.42527 799.42981 -116.70117
56.567715 799.42981 -116.70117
61.710361 799.42981 -116.70117
66.852806 799.42981 -116.70117
71.995453 799.42981 -116.70117
77.137901 799.42981 -116.70117
82.28035 799.42981 -116.70117
87.422989 799.42981 -116.70117
92.565445 799.42981 -116.70117
97.708092 799.42981 -116.70117
103.7272 787.32129 -94.681885
108.91348 787.32129 -94.681885
115.10287 774.72852 -71.781982
120.33474 774.72852 -71.781982
126.66088 762.1355 -48.881836
131.93834 762.1355 -48.881836
138.44662 749.05835 -25.101318
143.77162 749.05835 -25.101318
149.09642 749.05835 -25.101318
155.79427 735.9812 -1.3203125
161.16641 735.9812 -1.3203125
166.53854 735.9812 -1.3203125
171.91087 735.9812 -1.3203125
177.283 735.9812 -1.3203125
182.65533 735.9812 -1.3203125
191.464 708.85815 48.002686
196.93433 708.85815 48.002686
202.40485 708.85815 48.002686
209.80733 694.81226 73.545166
213.34569 708.85815 48.002686
218.81601 708.85815 48.002686
224.28632 708.85815 48.002686
231.89241 694.81226 73.545166
-22.926565 631.41553 176.99805
-17.194897 631.41553 176.99805
-11.463337 631.41553 176.99805
-5.7316685 631.41553 176.99805
0 631.41553 176.99805
5.6772065 646.4801 149.71533
10.555108 757.27759 -50.943848
15.695801 769.91248 -73.826172
20.927866 769.91248 -73.826172
25.931801 782.54724 -96.708252
31.118082 782.54724 -96.708252
36.304562 782.54724 -96.708252
41.490841 782.54724 -96.708252
46.677322 782.54724 -96.708252
51.42527 794.69617 -118.71045
56.567715 794.69617 -118.71045
61.710361 794.69617 -118.71045
66.852806 794.69617 -118.71045
71.995453 794.69617 -118.71045
77.137901 794.69617 -118.71045
82.28035 794.69617 -118.71045
87.422989 794.69617 -118.71045
93.354446 782.54724 -96.708252
98.540924 782.54724 -96.708252
103.7272 782.54724 -96.708252
108.91348 782.54724 -96.708252
115.10287 769.91248 -73.826172
121.38322 757.27759 -50.943848
126.66088 757.27759 -50.943848
131.93834 757.27759 -50.943848
138.44662 744.15698 -27.181641
145.04982 731.03613 -3.4194336
150.42194 731.03613 -3.4194336
155.79427 731.03613 -3.4194336
161.16641 731.03613 -3.4194336
166.53854 731.03613 -3.4194336
173.48186 717.42944 21.223145
178.90309 717.42944 21.223145
184.32451 717.42944 21.223145
191.464 703.82275 45.865234
196.93433 703.82275 45.865234
202.40485 703.82275 45.865234
207.87517 703.82275 45.865234
213.34569 703.82275 45.865234
218.81601 703.82275 45.865234
224.28632 703.82275 45.865234
231.89241 689.72998 71.387939
-23.14398 611.02478 202.01978
-17.357956 611.02478 202.01978
-11.572044 611.02478 202.01978
-5.7316685 626.1394 174.7583
0 626.1394 174.7583
5.7315598 626.1394 174.7583
11.463337 626.1394 174.7583
15.695801 765.09644 -75.870361
20.74552 777.77307 -98.734863
25.931801 777.77307 -98.734863
31.118082 777.77307 -98.734863
35.997726 789.9624 -120.71997
41.140175 789.9624 -120.71997
46.677322 777.77307 -98.734863
51.42527 789.9624 -120.71997
56.567715 789.9624 -120.71997
61.710361 789.9624 -120.71997
66.852806 789.9624 -120.71997
72.609123 777.77307 -98.734863
77.137901 789.9624 -120.71997
82.28035 789.9624 -120.71997
88.168159 777.77307 -98.734863
93.354446 777.77307 -98.734863
98.540924 777.77307 -98.734863
104.63894 765.09644 -75.870361
109.8708 765.09644 -75.870361
116.10578 752.41956 -53.006104
121.38322 752.41956 -53.006104
127.79705 739.25537 -29.262451
133.12184 739.25537 -29.262451
139.67747 726.09094 -5.5185547
145.04982 726.09094 -5.5185547
150.42194 726.09094 -5.5185547
155.79427 726.09094 -5.5185547
161.16641 726.09094 -5.5185547
166.53854 726.09094 -5.5185547
173.48186 712.43896 19.104736
178.90309 712.43896 19.104736
184.32451 712.43896 19.104736
189.74574 712.43896 19.104736
196.93433 698.78711 43.727783
202.40485 698.78711 43.727783
207.87517 698.78711 43.727783
213.34569 698.78711 43.727783
218.81601 698.78711 43.727783
224.28632 698.78711 43.727783
229.75684 698.78711 43.727783
-28.93 605.69873 199.75903
-23.14398 605.69873 199.75903
-17.357956 605.69873 199.75903
-11.572044 605.69873 199.75903
-5.7860222 605.69873 199.75903
0 620.86328 172.5188
5.7315598 620.86328 172.5188
11.463337 620.86328 172.5188
15.695801 760.28027 -77.914795
20.74552 772.99902 -100.76123
25.712635 785.22852 -122.72925
30.855083 785.22852 -122.72925
35.997726 785.22852 -122.72925
41.140175 785.22852 -122.72925
46.282822 785.22852 -122.72925
51.42527 785.22852 -122.72925
56.567715 785.22852 -122.72925
61.710361 785.22852 -122.72925
66.852806 785.22852 -122.72925
71.995453 785.22852 -122.72925
77.137901 785.22852 -122.72925
82.981682 772.99902 -100.76123
88.168159 772.99902 -100.76123
93.354446 772.99902 -100.76123
98.540924 772.99902 -100.76123
104.63894 760.28027 -77.914795
109.8708 760.28027 -77.914795
116.10578 747.56152 -55.068115
122.47205 734.35364 -31.343018
127.79705 734.35364 -31.343018
133.12184 734.35364 -31.343018
139.67747 721.14575 -7.6176758
145.04982 721.14575 -7.6176758
150.42194 721.14575 -7.6176758
155.79427 721.14575 -7.6176758
162.63921 707.44861 16.986572
168.06042 707.44861 16.986572
173.48186 707.44861 16.986572
178.90309 707.44861 16.986572
184.32451 707.44861 16.986572
189.74574 707.44861 16.986572
196.93433 693.75159 41.590332
202.40485 693.75159 41.590332
207.87517 693.75159 41.590332
213.34569 693.75159 41.590332
218.81601 693.75159 41.590332
224.28632 693.75159 41.590332
229.75684 693.75159 41.590332
-28.658234 615.5874 170.2793
-22.926565 615.5874 170.2793
-17.357956 600.3728 197.49829
-11.572044 600.3728 197.49829
-5.7860222 600.3728 197.49829
0 615.5874 170.2793
5.7315598 615.5874 170.2793
11.463337 615.5874 170.2793
15.695801 755.46436 -79.958984
20.74552 768.22498 -102.78784
25.712635 780.49487 -124.73853
30.855083 780.49487 -124.73853
35.997726 780.49487 -124.73853
41.140175 780.49487 -124.73853
46.282822 780.49487 -124.73853
51.42527 780.49487 -124.73853
56.567715 780.49487 -124.73853
