ply
format ascii 1.0
comment PCL generated
element vertex 1584
property float x
property float y
property float z
element camera 0
property float view_px
property float view_py
property float view_pz
property float x_axisx
property float x_axisy
property float x_axisz
property float y_axisx
property float y_axisy
property float y_axisz
property float z_axisx
property float z_axisy
property float z_axisz
property float focal
property float scalex
property float scaley
property float centerx
property float centery
property int viewportx
property int viewporty
property float k1
property float k2
end_header
192.84734 428.17664 160.25537
200.59895 410.97351 187.71631
206.49884 410.97351 187.71631
212.39873 410.97351 187.71631
218.29883 410.97351 187.71631
224.19868 410.97351 187.71631
230.0988 410.97351 187.71631
235.99867 410.97351 187.71631
-63.646023 440.59155 129.67505
-57.860001 440.59155 129.67505
-52.594719 422.79736 157.97192
-46.750835 422.79736 157.97192
-40.502045 440.59155 129.67505
-34.716022 440.59155 129.67505
-28.93 440.59155 129.67505
-23.375418 422.79736 157.97192
-17.531536 422.79736 157.97192
-11.687765 422.79736 157.97192
-5.8999891 405.5426 185.41113
0 405.5426 185.41113
5.8998771 405.5426 185.41113
11.799978 405.5426 185.41113
17.878695 387.20923 214.56567
23.838413 387.20923 214.56567
29.797901 387.20923 214.56567
35.399712 405.5426 185.41113
41.299816 405.5426 185.41113
116.8772 422.79736 157.97192
122.72098 422.79736 157.97192
128.56497 422.79736 157.97192
135.69919 405.5426 185.41113
140.25273 422.79736 157.97192
146.09651 422.79736 157.97192
150.43591 440.59155 129.67505
156.22206 440.59155 129.67505
163.62804 422.79736 157.97192
169.47203 422.79736 157.97192
175.31581 422.79736 157.97192
181.15958 422.79736 157.97192
187.00357 422.79736 157.97192
192.84734 422.79736 157.97192
200.59895 405.5426 185.41113
206.49884 405.5426 185.41113
212.39873 405.5426 185.41113
216.22287 422.79736 157.97192
222.06665 422.79736 157.97192
-70.126366 417.41797 155.68848
-64.282486 417.41797 155.68848
-58.438602 417.41797 155.68848
-52.594719 417.41797 155.68848
-46.750835 417.41797 155.68848
-40.502045 435.26538 127.41431
-34.716022 435.26538 127.41431
-28.93 435.26538 127.41431
-23.375418 417.41797 155.68848
-17.531536 417.41797 155.68848
-11.687765 417.41797 155.68848
-5.8999891 400.11157 183.10571
0 400.11157 183.10571
5.9594893 381.72339 212.23682
11.919207 381.72339 212.23682
17.878695 381.72339 212.23682
23.838413 381.72339 212.23682
29.797901 381.72339 212.23682
35.399712 400.11157 183.10571
41.299816 400.11157 183.10571
116.8772 417.41797 155.68848
122.72098 417.41797 155.68848
128.56497 417.41797 155.68848
135.69919 400.11157 183.10571
141.5993 400.11157 183.10571
146.09651 417.41797 155.68848
151.94028 417.41797 155.68848
157.78427 417.41797 155.68848
163.62804 417.41797 155.68848
169.47203 417.41797 155.68848
175.31581 417.41797 155.68848
181.15958 417.41797 155.68848
187.00357 417.41797 155.68848
194.69885 400.11157 183.10571
200.59895 400.11157 183.10571
206.49884 400.11157 183.10571
212.39873 400.11157 183.10571
216.22287 417.41797 155.68848
222.06665 417.41797 155.68848
-70.126366 412.03882 153.40527
-64.282486 412.03882 153.40527
-58.438602 412.03882 153.40527
-52.594719 412.03882 153.40527
-46.750835 412.03882 153.40527
-40.907066 412.03882 153.40527
-34.716022 429.93945 125.15356
-28.93 429.93945 125.15356
-23.375418 412.03882 153.40527
-17.531536 412.03882 153.40527
-11.687765 412.03882 153.40527
-5.8999891 394.68066 180.80054
0 394.68066 180.80054
5.8998771 394.68066 180.80054
11.919207 376.23755 209.90845
17.878695 376.23755 209.90845
23.838413 376.23755 209.90845
29.797901 376.23755 209.90845
35.399712 394.68066 180.80054
41.299816 394.68066 180.80054
116.8772 412.03882 153.40527
122.72098 412.03882 153.40527
128.56497 412.03882 153.40527
135.69919 394.68066 180.80054
141.5993 394.68066 180.80054
147.49918 394.68066 180.80054
151.94028 412.03882 153.40527
157.78427 412.03882 153.40527
163.62804 412.03882 153.40527
169.47203 412.03882 153.40527
175.31581 412.03882 153.40527
181.15958 412.03882 153.40527
188.799 394.68066 180.80054
194.69885 394.68066 180.80054
200.59895 394.68066 180.80054
206.49884 394.68066 180.80054
212.39873 394.68066 180.80054
218.29883 394.68066 180.80054
222.06665 412.03882 153.40527
227.91064 412.03882 153.40527
-75.970139 406.65942 151.12183
-70.126366 406.65942 151.12183
-64.282486 406.65942 151.12183
-58.438602 406.65942 151.12183
-52.594719 406.65942 151.12183
-46.750835 406.65942 151.12183
-40.907066 406.65942 151.12183
-35.063183 406.65942 151.12183
-29.219301 406.65942 151.12183
-23.375418 406.65942 151.12183
-17.699856 389.24976 178.49512
-11.799978 389.24976 178.49512
-5.8999891 389.24976 178.49512
0 389.24976 178.49512
5.8998771 389.24976 178.49512
11.919207 370.75171 207.57983
17.878695 370.75171 207.57983
23.838413 370.75171 207.57983
29.797901 370.75171 207.57983
35.757389 370.75171 207.57983
116.8772 406.65942 151.12183
122.72098 406.65942 151.12183
128.56497 406.65942 151.12183
135.69919 389.24976 178.49512
141.5993 389.24976 178.49512
147.49918 389.24976 178.49512
151.94028 406.65942 151.12183
157.78427 406.65942 151.12183
165.19902 389.24976 178.49512
169.47203 406.65942 151.12183
175.31581 406.65942 151.12183
182.8989 389.24976 178.49512
188.799 389.24976 178.49512
194.69885 389.24976 178.49512
200.59895 389.24976 178.49512
206.49884 389.24976 178.49512
212.39873 389.24976 178.49512
218.29883 389.24976 178.49512
222.06665 406.65942 151.12183
-81.003975 419.28735 120.63208
-75.217957 419.28735 120.63208
-70.126366 401.28015 148.83838
-64.282486 401.28015 148.83838
-58.438602 401.28015 148.83838
-52.594719 401.28015 148.83838
-46.750835 401.28015 148.83838
-40.907066 401.28015 148.83838
-35.063183 401.28015 148.83838
-29.219301 401.28015 148.83838
-23.375418 401.28015 148.83838
-17.699856 383.81885 176.18994
-11.799978 383.81885 176.18994
-5.8999891 383.81885 176.18994
0 383.81885 176.18994
5.9594893 365.26587 205.25122
11.919207 365.26587 205.25122
18.057533 346.71313 234.31226
23.838413 365.26587 205.25122
29.797901 365.26587 205.25122
35.757389 365.26587 205.25122
116.8772 401.28015 148.83838
122.72098 401.28015 148.83838
128.56497 401.28015 148.83838
135.69919 383.81885 176.18994
141.5993 383.81885 176.18994
147.49918 383.81885 176.18994
153.39905 383.81885 176.18994
159.29916 383.81885 176.18994
165.19902 383.81885 176.18994
171.09912 383.81885 176.18994
176.99901 383.81885 176.18994
182.8989 383.81885 176.18994
188.799 383.81885 176.18994
194.69885 383.81885 176.18994
200.59895 383.81885 176.18994
206.49884 383.81885 176.18994
212.39873 383.81885 176.18994
218.29883 383.81885 176.18994
222.06665 401.28015 148.83838
-81.003975 413.96118 118.37134
-75.217957 413.96118 118.37134
-70.126366 395.90088 146.55493
-64.282486 395.90088 146.55493
-58.438602 395.90088 146.55493
-52.594719 395.90088 146.55493
-46.750835 395.90088 146.55493
-40.907066 395.90088 146.55493
-35.063183 395.90088 146.55493
-29.219301 395.90088 146.55493
-23.599844 378.38782 173.88452
-17.878695 359.78003 202.92261
-11.799978 378.38782 173.88452
-5.8999891 378.38782 173.88452
0 359.78003 202.92261
5.9594893 359.78003 202.92261
11.919207 359.78003 202.92261
17.878695 359.78003 202.92261
23.838413 359.78003 202.92261
29.797901 359.78003 202.92261
35.757389 359.78003 202.92261
129.79932 378.38782 173.88452
135.69919 378.38782 173.88452
141.5993 378.38782 173.88452
147.49918 378.38782 173.88452
153.39905 378.38782 173.88452
159.29916 378.38782 173.88452
165.19902 378.38782 173.88452
171.09912 378.38782 173.88452
176.99901 378.38782 173.88452
182.8989 378.38782 173.88452
188.799 378.38782 173.88452
194.69885 378.38782 173.88452
200.59895 378.38782 173.88452
206.49884 378.38782 173.88452
212.39873 378.38782 173.88452
218.29883 378.38782 173.88452
222.06665 395.90088 146.55493
-81.814018 390.52161 144.27173
-75.970139 390.52161 144.27173
-70.126366 390.52161 144.27173
-64.282486 390.52161 144.27173
-58.438602 390.52161 144.27173
-52.594719 390.52161 144.27173
-46.750835 390.52161 144.27173
-40.907066 390.52161 144.27173
-35.063183 390.52161 144.27173
-29.499834 372.95703 171.57935
-23.599844 372.95703 171.57935
-17.878695 354.29431 200.59399
-11.919207 354.29431 200.59399
-5.9596033 354.29431 200.59399
0 354.29431 200.59399
5.9594893 354.29431 200.59399
11.919207 354.29431 200.59399
17.878695 354.29431 200.59399
23.838413 354.29431 200.59399
29.797901 354.29431 200.59399
35.757389 354.29431 200.59399
129.79932 372.95703 171.57935
135.69919 372.95703 171.57935
141.5993 372.95703 171.57935
147.49918 372.95703 171.57935
153.39905 372.95703 171.57935
159.29916 372.95703 171.57935
165.19902 372.95703 171.57935
171.09912 372.95703 171.57935
176.99901 372.95703 171.57935
182.8989 372.95703 171.57935
188.799 372.95703 171.57935
194.69885 372.95703 171.57935
200.59895 372.95703 171.57935
206.49884 372.95703 171.57935
212.39873 372.95703 171.57935
218.29883 372.95703 171.57935
222.06665 390.52161 144.27173
227.91064 390.52161 144.27173
-81.003975 403.3092 113.84985
-75.217957 403.3092 113.84985
-70.126366 385.14221 141.98828
-64.282486 385.14221 141.98828
-58.438602 385.14221 141.98828
-52.594719 385.14221 141.98828
-47.199688 367.52588 169.27393
-41.299816 367.52588 169.27393
-35.399826 367.52588 169.27393
-29.499834 367.52588 169.27393
-23.599844 367.52588 169.27393
-17.878695 348.80847 198.26538
-11.919207 348.80847 198.26538
-5.9596033 348.80847 198.26538
0 348.80847 198.26538
5.9594893 348.80847 198.26538
11.919207 348.80847 198.26538
18.057533 330.09106 227.25659
23.838413 348.80847 198.26538
29.797901 348.80847 198.26538
35.757389 348.80847 198.26538
129.79932 367.52588 169.27393
135.69919 367.52588 169.27393
141.5993 367.52588 169.27393
147.49918 367.52588 169.27393
153.39905 367.52588 169.27393
159.29916 367.52588 169.27393
165.19902 367.52588 169.27393
171.09912 367.52588 169.27393
176.99901 367.52588 169.27393
182.8989 367.52588 169.27393
188.799 367.52588 169.27393
194.69885 367.52588 169.27393
202.62582 348.80847 198.26538
208.58531 348.80847 198.26538
212.39873 367.52588 169.27393
218.29883 367.52588 169.27393
224.19868 367.52588 169.27393
230.0988 367.52588 169.27393
-81.003975 397.98315 111.58887
-75.217957 397.98315 111.58887
-69.432045 397.98315 111.58887
-64.282486 379.76294 139.70508
-58.438602 379.76294 139.70508
-52.594719 379.76294 139.70508
-47.199688 362.09497 166.96875
-41.299816 362.09497 166.96875
-35.399826 362.09497 166.96875
-29.499834 362.09497 166.96875
-23.599844 362.09497 166.96875
-17.878695 343.32275 195.93677
-11.919207 343.32275 195.93677
-5.9596033 343.32275 195.93677
0 343.32275 195.93677
5.9594893 343.32275 195.93677
12.038433 324.55042 224.90479
18.057533 324.55042 224.90479
23.838413 343.32275 195.93677
29.797901 343.32275 195.93677
129.79932 362.09497 166.96875
135.69919 362.09497 166.96875
141.5993 362.09497 166.96875
147.49918 362.09497 166.96875
153.39905 362.09497 166.96875
159.29916 362.09497 166.96875
165.19902 362.09497 166.96875
171.09912 362.09497 166.96875
176.99901 362.09497 166.96875
182.8989 362.09497 166.96875
188.799 362.09497 166.96875
194.69885 362.09497 166.96875
202.62582 343.32275 195.93677
208.58531 343.32275 195.93677
214.54478 343.32275 195.93677
220.50452 343.32275 195.93677
224.19868 362.09497 166.96875
230.0988 362.09497 166.96875
-75.217957 392.65723 109.32812
-69.432045 392.65723 109.32812
-64.282486 374.38354 137.42163
-58.438602 374.38354 137.42163
-52.594719 374.38354 137.42163
-47.199688 356.66406 164.66333
-41.299816 356.66406 164.66333
-35.399826 356.66406 164.66333
-29.499834 356.66406 164.66333
-23.599844 356.66406 164.66333
-17.878695 337.83691 193.60815
-11.919207 337.83691 193.60815
-5.9596033 337.83691 193.60815
0 337.83691 193.60815
6.0191016 319.00952 222.55273
12.038433 319.00952 222.55273
18.241634 299.62866 252.34863
24.322334 299.62866 252.34863
129.79932 356.66406 164.66333
135.69919 356.66406 164.66333
141.5993 356.66406 164.66333
147.49918 356.66406 164.66333
153.39905 356.66406 164.66333
159.29916 356.66406 164.66333
165.19902 356.66406 164.66333
171.09912 356.66406 164.66333
176.99901 356.66406 164.66333
182.8989 356.66406 164.66333
188.799 356.66406 164.66333
194.69885 356.66406 164.66333
202.62582 337.83691 193.60815
208.58531 337.83691 193.60815
214.54478 337.83691 193.60815
220.50452 337.83691 193.60815
224.19868 356.66406 164.66333
230.0988 356.66406 164.66333
-75.970139 369.00439 135.13818
-70.126366 369.00439 135.13818
-64.282486 369.00439 135.13818
-58.438602 369.00439 135.13818
-52.594719 369.00439 135.13818
-47.199688 351.23315 162.35815
-41.299816 351.23315 162.35815
-35.399826 351.23315 162.35815
-29.499834 351.23315 162.35815
-23.599844 351.23315 162.35815
-18.057533 313.46899 220.20093
-12.038433 313.46899 220.20093
-6.0192165 313.46899 220.20093
0 313.46899 220.20093
6.0804672 294.03174 249.97266
12.161167 294.03174 249.97266
18.241634 294.03174 249.97266
24.322334 294.03174 249.97266
129.79932 351.23315 162.35815
135.69919 351.23315 162.35815
141.5993 351.23315 162.35815
147.49918 351.23315 162.35815
153.39905 351.23315 162.35815
159.29916 351.23315 162.35815
165.19902 351.23315 162.35815
171.09912 351.23315 162.35815
176.99901 351.23315 162.35815
182.8989 351.23315 162.35815
188.799 351.23315 162.35815
196.66609 332.35107 191.27954
202.62582 332.35107 191.27954
208.58531 332.35107 191.27954
214.54478 332.35107 191.27954
220.50452 332.35107 191.27954
224.19868 351.23315 162.35815
230.0988 351.23315 162.35815
-75.970139 363.625 132.85474
-70.126366 363.625 132.85474
-64.282486 363.625 132.85474
-58.999668 345.80212 160.05273
-53.099682 345.80212 160.05273
-47.199688 345.80212 160.05273
-41.299816 345.80212 160.05273
-35.399826 345.80212 160.05273
-29.499834 345.80212 160.05273
-23.599844 345.80212 160.05273
-18.057533 307.92822 217.84888
-12.038433 307.92822 217.84888
-6.0805836 288.43433 247.59668
0 288.43433 247.59668
6.0804672 288.43433 247.59668
12.161167 288.43433 247.59668
18.241634 288.43433 247.59668
24.322334 288.43433 247.59668
128.56497 363.625 132.85474
134.40874 363.625 132.85474
141.5993 345.80212 160.05273
147.49918 345.80212 160.05273
153.39905 345.80212 160.05273
160.90871 326.86523 188.95093
165.19902 345.80212 160.05273
171.09912 345.80212 160.05273
176.99901 345.80212 160.05273
182.8989 345.80212 160.05273
190.70662 326.86523 188.95093
196.66609 326.86523 188.95093
202.62582 326.86523 188.95093
208.58531 326.86523 188.95093
214.54478 326.86523 188.95093
220.50452 326.86523 188.95093
226.464 326.86523 188.95093
232.42372 326.86523 188.95093
-75.970139 358.24585 130.57153
-70.126366 358.24585 130.57153
-64.899658 340.37134 157.74756
-58.999668 340.37134 157.74756
-53.099682 340.37134 157.74756
-47.199688 340.37134 157.74756
-41.299816 340.37134 157.74756
-35.399826 340.37134 157.74756
-29.499834 340.37134 157.74756
-23.599844 340.37134 157.74756
-18.057533 302.38757 215.49707
-12.038433 302.38757 215.49707
-6.0805836 282.83728 245.22095
0 282.83728 245.22095
6.0804672 282.83728 245.22095
12.161167 282.83728 245.22095
18.241634 282.83728 245.22095
24.322334 282.83728 245.22095
30.402802 282.83728 245.22095
128.56497 358.24585 130.57153
134.40874 358.24585 130.57153
140.25273 358.24585 130.57153
147.49918 340.37134 157.74756
153.39905 340.37134 157.74756
159.29916 340.37134 157.74756
165.19902 340.37134 157.74756
171.09912 340.37134 157.74756
176.99901 340.37134 157.74756
182.8989 340.37134 157.74756
190.70662 321.37939 186.62256
196.66609 321.37939 186.62256
202.62582 321.37939 186.62256
208.58531 321.37939 186.62256
214.54478 321.37939 186.62256
220.50452 321.37939 186.62256
226.464 321.37939 186.62256
232.42372 321.37939 186.62256
-75.970139 352.86646 128.28809
-70.126366 352.86646 128.28809
-64.899658 334.94019 155.44214
-58.999668 334.94019 155.44214
-53.099682 334.94019 155.44214
-47.199688 334.94019 155.44214
-41.299816 334.94019 155.44214
-35.399826 334.94019 155.44214
-29.499834 334.94019 155.44214
-23.599844 334.94019 155.44214
-18.057533 296.8468 213.14526
-12.038433 296.8468 213.14526
-6.0192165 296.8468 213.14526
0 277.23999 242.84497
6.0804672 277.23999 242.84497
12.161167 277.23999 242.84497
18.241634 277.23999 242.84497
24.322334 277.23999 242.84497
30.709635 257.6333 272.54517
140.25273 352.86646 128.28809
147.49918 334.94019 155.44214
153.39905 334.94019 155.44214
159.29916 334.94019 155.44214
166.86819 315.89355 184.29395
172.82793 315.89355 184.29395
176.99901 334.94019 155.44214
182.8989 334.94019 155.44214
190.70662 315.89355 184.29395
196.66609 315.89355 184.29395
202.62582 315.89355 184.29395
208.58531 315.89355 184.29395
216.69087 296.8468 213.14526
222.71021 296.8468 213.14526
228.72931 296.8468 213.14526
234.74864 296.8468 213.14526
240.76775 296.8468 213.14526
-76.699524 329.50928 153.13696
-70.799652 329.50928 153.13696
-64.899658 329.50928 153.13696
-58.999668 329.50928 153.13696
-53.099682 329.50928 153.13696
-47.199688 329.50928 153.13696
-41.299816 329.50928 153.13696
-35.399826 329.50928 153.13696
-29.499834 329.50928 153.13696
-23.599844 329.50928 153.13696
-18.057533 291.30615 210.79321
-12.038433 291.30615 210.79321
-6.0192165 291.30615 210.79321
0 271.64282 240.46924
6.0804672 271.64282 240.46924
12.161167 271.64282 240.46924
18.425734 251.97949 270.14526
24.567801 251.97949 270.14526
30.709635 251.97949 270.14526
140.25273 347.48706 126.00464
147.49918 329.50928 153.13696
153.39905 329.50928 153.13696
159.29916 329.50928 153.13696
166.86819 310.40771 181.96533
172.82793 310.40771 181.96533
178.7874 310.40771 181.96533
184.74689 310.40771 181.96533
190.70662 310.40771 181.96533
196.66609 310.40771 181.96533
202.62582 310.40771 181.96533
208.58531 310.40771 181.96533
216.69087 291.30615 210.79321
222.71021 291.30615 210.79321
228.72931 291.30615 210.79321
234.74864 291.30615 210.79321
240.76775 291.30615 210.79321
-76.699524 324.07837 150.83154
-70.799652 324.07837 150.83154
-65.555405 304.92188 179.63672
-59.595802 304.92188 179.63672
-53.636196 304.92188 179.63672
-47.676598 304.92188 179.63672
-41.299816 324.07837 150.83154
-35.399826 324.07837 150.83154
-29.797901 304.92188 179.63672
-23.838299 304.92188 179.63672
-18.057533 285.7655 208.44141
-12.038433 285.7655 208.44141
-6.0192165 285.7655 208.44141
0 266.04565 238.09326
6.1418328 246.32593 267.74561
12.2839 246.32593 267.74561
18.425734 246.32593 267.74561
24.567801 246.32593 267.74561
140.25273 342.10791 123.72119
147.49918 324.07837 150.83154
154.94899 304.92188 179.63672
160.90871 304.92188 179.63672
166.86819 304.92188 179.63672
172.82793 304.92188 179.63672
178.7874 304.92188 179.63672
184.74689 304.92188 179.63672
190.70662 304.92188 179.63672
196.66609 304.92188 179.63672
202.62582 304.92188 179.63672
208.58531 304.92188 179.63672
216.69087 285.7655 208.44141
222.71021 285.7655 208.44141
228.72931 285.7655 208.44141
234.74864 285.7655 208.44141
240.76775 285.7655 208.44141
-76.699524 318.64734 148.52637
-70.799652 318.64734 148.52637
-65.555405 299.43604 177.30811
-59.595802 299.43604 177.30811
-53.636196 299.43604 177.30811
-47.199688 318.64734 148.52637
-41.299816 318.64734 148.52637
-35.399826 318.64734 148.52637
-29.499834 318.64734 148.52637
-23.838299 299.43604 177.30811
-18.057533 280.22461 206.0896
-12.038433 280.22461 206.0896
-6.0192165 280.22461 206.0896
0 260.44836 235.71753
6.1418328 240.67212 265.3457
12.2839 240.67212 265.3457
18.425734 240.67212 265.3457
24.820282 220.33057 295.82031
135.69919 318.64734 148.52637
141.5993 318.64734 148.52637
148.9895 299.43604 177.30811
154.94899 299.43604 177.30811
160.90871 299.43604 177.30811
166.86819 299.43604 177.30811
172.82793 299.43604 177.30811
180.57581 280.22461 206.0896
184.74689 299.43604 177.30811
190.70662 299.43604 177.30811
196.66609 299.43604 177.30811
202.62582 299.43604 177.30811
210.67177 280.22461 206.0896
216.69087 280.22461 206.0896
222.71021 280.22461 206.0896
228.72931 280.22461 206.0896
234.74864 280.22461 206.0896
245.67708 240.67212 265.3457
-75.970139 331.34924 119.15454
-70.126366 331.34924 119.15454
-64.282486 331.34924 119.15454
-58.999668 313.21655 146.22095
-53.099682 313.21655 146.22095
-47.199688 313.21655 146.22095
-41.299816 313.21655 146.22095
-35.399826 313.21655 146.22095
-29.499834 313.21655 146.22095
-23.599844 313.21655 146.22095
-18.057533 274.68408 203.73779
-12.038433 274.68408 203.73779
-6.0192165 274.68408 203.73779
0 254.85132 233.34155
6.1418328 235.01855 262.9458
12.2839 235.01855 262.9458
18.425734 235.01855 262.9458
143.03001 293.95032 174.97949
148.9895 293.95032 174.97949
154.94899 293.95032 174.97949
160.90871 293.95032 174.97949
166.86819 293.95032 174.97949
172.82793 293.95032 174.97949
178.7874 293.95032 174.97949
184.74689 293.95032 174.97949
190.70662 293.95032 174.97949
196.66609 293.95032 174.97949
202.62582 293.95032 174.97949
210.67177 274.68408 203.73779
216.69087 274.68408 203.73779
224.98077 254.85132 233.34155
231.06125 254.85132 233.34155
237.14194 254.85132 233.34155
245.67708 235.01855 262.9458
-75.970139 325.96997 116.87109
-70.126366 325.96997 116.87109
-64.282486 325.96997 116.87109
-58.999668 307.78552 143.91577
-53.099682 307.78552 143.91577
-47.199688 307.78552 143.91577
-41.299816 307.78552 143.91577
-35.399826 307.78552 143.91577
-29.499834 307.78552 143.91577
-23.599844 307.78552 143.91577
-17.878695 288.46436 172.65088
-12.038433 269.14331 201.38574
-6.0192165 269.14331 201.38574
0 249.25415 230.96582
6.1418328 229.36487 260.5459
12.2839 229.36487 260.5459
18.425734 229.36487 260.5459
143.03001 288.46436 172.65088
148.9895 288.46436 172.65088
154.94899 288.46436 172.65088
160.90871 288.46436 172.65088
166.86819 288.46436 172.65088
172.82793 288.46436 172.65088
178.7874 288.46436 172.65088
184.74689 288.46436 172.65088
190.70662 288.46436 172.65088
196.66609 288.46436 172.65088
202.62582 288.46436 172.65088
210.67177 269.14331 201.38574
216.69087 269.14331 201.38574
224.98077 249.25415 230.96582
231.06125 249.25415 230.96582
237.14194 249.25415 230.96582
245.67708 229.36487 260.5459
-78.249474 263.60266 199.03394
-72.23037 263.60266 199.03394
-66.211151 263.60266 199.03394
-58.999668 302.35461 141.61035
-53.099682 302.35461 141.61035
-47.199688 302.35461 141.61035
-41.299816 302.35461 141.61035
-35.399826 302.35461 141.61035
-29.499834 302.35461 141.61035
-23.599844 302.35461 141.61035
-17.878695 282.97864 170.32227
-12.038433 263.60266 199.03394
-6.0192165 263.60266 199.03394
0 243.65698 228.58984
6.1418328 223.71118 258.146
12.2839 223.71118 258.146
18.425734 223.71118 258.146
143.03001 282.97864 170.32227
148.9895 282.97864 170.32227
154.94899 282.97864 170.32227
160.90871 282.97864 170.32227
166.86819 282.97864 170.32227
172.82793 282.97864 170.32227
178.7874 282.97864 170.32227
184.74689 282.97864 170.32227
190.70662 282.97864 170.32227
196.66609 282.97864 170.32227
202.62582 282.97864 170.32227
210.67177 263.60266 199.03394
216.69087 263.60266 199.03394
224.98077 243.65698 228.58984
231.06125 243.65698 228.58984
239.53523 223.71118 258.146
245.67708 223.71118 258.146
-72.23037 258.06189 196.68188
-66.211151 258.06189 196.68188
-58.999668 296.92358 139.30518
-53.099682 296.92358 139.30518
-47.199688 296.92358 139.30518
-41.299816 296.92358 139.30518
-35.399826 296.92358 139.30518
-29.499834 296.92358 139.30518
-23.599844 296.92358 139.30518
-17.878695 277.4928 167.99365
-12.038433 258.06189 196.68188
-6.0805836 238.05969 226.21387
0 238.05969 226.21387
6.1418328 218.0575 255.74634
12.2839 218.0575 255.74634
143.03001 277.4928 167.99365
148.9895 277.4928 167.99365
154.94899 277.4928 167.99365
160.90871 277.4928 167.99365
166.86819 277.4928 167.99365
172.82793 277.4928 167.99365
178.7874 277.4928 167.99365
184.74689 277.4928 167.99365
190.70662 277.4928 167.99365
196.66609 277.4928 167.99365
202.62582 277.4928 167.99365
210.67177 258.06189 196.68188
216.69087 258.06189 196.68188
224.98077 238.05969 226.21387
231.06125 238.05969 226.21387
239.53523 218.0575 255.74634
248.20187 197.48364 286.12207
-79.047241 232.46265 223.83813
-72.23037 252.52124 194.33008
-66.211151 252.52124 194.33008
-58.999668 291.49268 136.99976
-53.099682 291.49268 136.99976
-47.199688 291.49268 136.99976
-41.299816 291.49268 136.99976
-35.399826 291.49268 136.99976
-29.499834 291.49268 136.99976
-23.599844 291.49268 136.99976
-18.057533 252.52124 194.33008
-12.038433 252.52124 194.33008
-6.0805836 232.46265 223.83813
0 232.46265 223.83813
6.1418328 212.40381 253.34644
12.2839 212.40381 253.34644
143.03001 272.00708 165.66504
148.9895 272.00708 165.66504
154.94899 272.00708 165.66504
160.90871 272.00708 165.66504
166.86819 272.00708 165.66504
172.82793 272.00708 165.66504
178.7874 272.00708 165.66504
184.74689 272.00708 165.66504
192.61424 252.52124 194.33008
198.63335 252.52124 194.33008
204.65266 252.52124 194.33008
210.67177 252.52124 194.33008
218.90009 232.46265 223.83813
227.25134 212.40381 253.34644
233.39317 212.40381 253.34644
239.53523 212.40381 253.34644
248.20187 191.77197 283.69775
-79.047241 226.86536 221.4624
-72.23037 246.98047 191.97827
-66.211151 246.98047 191.97827
-58.999668 286.06177 134.69458
-53.099682 286.06177 134.69458
-47.199688 286.06177 134.69458
-41.299816 286.06177 134.69458
-35.399826 286.06177 134.69458
-29.499834 286.06177 134.69458
-23.599844 286.06177 134.69458
-18.057533 246.98047 191.97827
-12.038433 246.98047 191.97827
-6.0805836 226.86536 221.4624
0 226.86536 221.4624
6.1418328 206.75012 250.94653
12.410141 186.06006 281.27319
144.46074 246.98047 191.97827
150.47984 246.98047 191.97827
156.49895 246.98047 191.97827
160.90871 266.52112 163.33643
166.86819 266.52112 163.33643
172.82793 266.52112 163.33643
178.7874 266.52112 163.33643
186.59491 246.98047 191.97827
192.61424 246.98047 191.97827
198.63335 246.98047 191.97827
204.65266 246.98047 191.97827
212.81961 226.86536 221.4624
218.90009 226.86536 221.4624
227.25134 206.75012 250.94653
233.39317 206.75012 250.94653
239.53523 206.75012 250.94653
248.20187 186.06006 281.27319
-79.845009 201.09644 248.54688
-72.966766 221.26831 219.08643
-66.886185 221.26831 219.08643
-60.191936 241.43994 189.62646
-53.099682 280.63086 132.38916
-47.199688 280.63086 132.38916
-41.299816 280.63086 132.38916
-35.399826 280.63086 132.38916
-29.499834 280.63086 132.38916
-23.838299 261.0354 161.00781
-18.057533 241.43994 189.62646
-12.038433 241.43994 189.62646
-6.0805836 221.26831 219.08643
0 221.26831 219.08643
6.1418328 201.09644 248.54688
12.410141 180.34839 278.84863
144.46074 241.43994 189.62646
150.47984 241.43994 189.62646
156.49895 241.43994 189.62646
160.90871 261.0354 161.00781
166.86819 261.0354 161.00781
174.5567 241.43994 189.62646
180.57581 241.43994 189.62646
186.59491 241.43994 189.62646
192.61424 241.43994 189.62646
198.63335 241.43994 189.62646
204.65266 241.43994 189.62646
212.81961 221.26831 219.08643
218.90009 221.26831 219.08643
227.25134 201.09644 248.54688
233.39317 201.09644 248.54688
239.53523 201.09644 248.54688
248.20187 180.34839 278.84863
-79.845009 195.44287 246.14697
-73.703171 195.44287 246.14697
-67.561218 195.44287 246.14697
-60.805603 215.6709 216.71045
-54.172718 235.89917 187.27441
-47.676598 255.54944 158.6792
-41.299816 275.19983 130.08398
-35.399826 275.19983 130.08398
-29.499834 275.19983 130.08398
-23.838299 255.54944 158.6792
-18.057533 235.89917 187.27441
-12.038433 235.89917 187.27441
-6.0805836 215.6709 216.71045
0 215.6709 216.71045
6.0804672 215.6709 216.71045
12.2839 195.44287 246.14697
150.47984 235.89917 187.27441
156.49895 235.89917 187.27441
162.51826 235.89917 187.27441
168.53737 235.89917 187.27441
174.5567 235.89917 187.27441
180.57581 235.89917 187.27441
186.59491 235.89917 187.27441
192.61424 235.89917 187.27441
198.63335 235.89917 187.27441
204.65266 235.89917 187.27441
212.81961 215.6709 216.71045
218.90009 215.6709 216.71045
224.98077 215.6709 216.71045
233.39317 195.44287 246.14697
239.53523 195.44287 246.14697
248.20187 174.63647 276.42407
-79.845009 189.78918 243.74707
-73.703171 189.78918 243.74707
-67.561218 189.78918 243.74707
-60.805603 210.07397 214.33472
-54.172718 230.35852 184.92261
-48.153503 230.35852 184.92261
-41.717106 250.06372 156.35083
-35.399826 269.76904 127.77856
-29.499834 269.76904 127.77856
-23.838299 250.06372 156.35083
-18.057533 230.35852 184.92261
-12.038433 230.35852 184.92261
-6.0805836 210.07397 214.33472
0 210.07397 214.33472
6.0804672 210.07397 214.33472
12.161167 210.07397 214.33472
18.615093 168.9248 273.99976
143.03001 250.06372 156.35083
148.9895 250.06372 156.35083
156.49895 230.35852 184.92261
162.51826 230.35852 184.92261
168.53737 230.35852 184.92261
174.5567 230.35852 184.92261
180.57581 230.35852 184.92261
186.59491 230.35852 184.92261
192.61424 230.35852 184.92261
200.65845 210.07397 214.33472
206.73914 210.07397 214.33472
212.81961 210.07397 214.33472
218.90009 210.07397 214.33472
224.98077 210.07397 214.33472
233.39317 189.78918 243.74707
239.53523 189.78918 243.74707
248.20187 168.9248 273.99976
-79.845009 184.1355 241.34717
-73.703171 184.1355 241.34717
-67.561218 184.1355 241.34717
-60.805603 204.47656 211.95898
-54.172718 224.81775 182.5708
-48.153503 224.81775 182.5708
-41.717106 244.57788 154.02197
-35.757504 244.57788 154.02197
-29.797901 244.57788 154.02197
-23.838299 244.57788 154.02197
-18.057533 224.81775 182.5708
-12.038433 224.81775 182.5708
-6.0805836 204.47656 211.95898
0 204.47656 211.95898
6.0804672 204.47656 211.95898
12.161167 204.47656 211.95898
18.615093 163.21289 271.5752
143.03001 244.57788 154.02197
148.9895 244.57788 154.02197
156.49895 224.81775 182.5708
162.51826 224.81775 182.5708
168.53737 224.81775 182.5708
174.5567 224.81775 182.5708
180.57581 224.81775 182.5708
186.59491 224.81775 182.5708
194.57797 204.47656 211.95898
200.65845 204.47656 211.95898
206.73914 204.47656 211.95898
212.81961 204.47656 211.95898
218.90009 204.47656 211.95898
227.25134 184.1355 241.34717
233.39317 184.1355 241.34717
239.53523 184.1355 241.34717
248.20187 163.21289 271.5752
-80.665558 157.50122 269.15063
-73.703171 178.48193 238.94751
-66.886185 198.87952 209.58301
-60.805603 198.87952 209.58301
-54.172718 219.2771 180.21875
-48.153503 219.2771 180.21875
-41.717106 239.09204 151.6936
-35.757504 239.09204 151.6936
-29.797901 239.09204 151.6936
-24.076752 219.2771 180.21875
-18.241634 198.87952 209.58301
-12.161167 198.87952 209.58301
-6.0805836 198.87952 209.58301
0 198.87952 209.58301
6.0804672 198.87952 209.58301
12.2839 178.48193 238.94751
144.46074 219.2771 180.21875
150.47984 219.2771 180.21875
156.49895 219.2771 180.21875
162.51826 219.2771 180.21875
168.53737 219.2771 180.21875
176.33633 198.87952 209.58301
180.57581 219.2771 180.21875
186.59491 219.2771 180.21875
194.57797 198.87952 209.58301
200.65845 198.87952 209.58301
206.73914 198.87952 209.58301
212.81961 198.87952 209.58301
218.90009 198.87952 209.58301
227.25134 178.48193 238.94751
233.39317 178.48193 238.94751
239.53523 178.48193 238.94751
248.20187 157.50122 269.15063
-80.665558 151.78955 266.72607
-73.703171 172.82812 236.54761
-66.886185 193.28223 207.20703
-60.805603 193.28223 207.20703
-54.172718 213.73633 177.86694
-48.153503 213.73633 177.86694
-41.717106 233.6062 149.36499
-35.757504 233.6062 149.36499
-30.095968 213.73633 177.86694
-24.076752 213.73633 177.86694
-18.241634 193.28223 207.20703
-12.161167 193.28223 207.20703
-6.1419501 172.82812 236.54761
0 172.82812 236.54761
6.1418328 172.82812 236.54761
12.410141 151.78955 266.72607
153.54817 172.82812 236.54761
158.09448 193.28223 207.20703
162.51826 213.73633 177.86694
168.53737 213.73633 177.86694
176.33633 193.28223 207.20703
180.57581 213.73633 177.86694
186.59491 213.73633 177.86694
192.61424 213.73633 177.86694
200.65845 193.28223 207.20703
206.73914 193.28223 207.20703
212.81961 193.28223 207.20703
221.10928 172.82812 236.54761
227.25134 172.82812 236.54761
233.39317 172.82812 236.54761
239.53523 172.82812 236.54761
248.20187 151.78955 266.72607
-81.508919 124.39502 295.29321
-73.703171 167.17432 234.14771
-66.886185 187.68506 204.8313
-60.805603 187.68506 204.8313
-54.172718 208.19556 175.51514
-48.153503 208.19556 175.51514
-41.717106 228.12036 147.03638
-35.757504 228.12036 147.03638
-30.095968 208.19556 175.51514
-24.076752 208.19556 175.51514
-18.241634 187.68506 204.8313
-12.161167 187.68506 204.8313
-6.1419501 167.17432 234.14771
0 167.17432 234.14771
6.2049522 146.07764 264.30176
12.410141 146.07764 264.30176
153.54817 167.17432 234.14771
158.09448 187.68506 204.8313
162.51826 208.19556 175.51514
168.53737 208.19556 175.51514
174.5567 208.19556 175.51514
180.57581 208.19556 175.51514
186.59491 208.19556 175.51514
192.61424 208.19556 175.51514
200.65845 187.68506 204.8313
206.73914 187.68506 204.8313
212.81961 187.68506 204.8313
221.10928 167.17432 234.14771
227.25134 167.17432 234.14771
233.39317 167.17432 234.14771
241.99692 146.07764 264.30176
-81.508919 118.62354 292.84326
-73.703171 161.52075 231.7478
-66.886185 182.08789 202.45532
-60.805603 182.08789 202.45532
-54.172718 202.65503 173.16309
-48.153503 202.65503 173.16309
-41.717106 222.63452 144.70776
-35.757504 222.63452 144.70776
-30.095968 202.65503 173.16309
-24.076752 202.65503 173.16309
-18.241634 182.08789 202.45532
-12.161167 182.08789 202.45532
-6.1419501 161.52075 231.7478
0 161.52075 231.7478
6.2049522 140.36597 261.8772
12.410141 140.36597 261.8772
155.12617 140.36597 261.8772
158.09448 182.08789 202.45532
162.51826 202.65503 173.16309
168.53737 202.65503 173.16309
174.5567 202.65503 173.16309
180.57581 202.65503 173.16309
186.59491 202.65503 173.16309
192.61424 202.65503 173.16309
198.63335 202.65503 173.16309
204.65266 202.65503 173.16309
212.81961 182.08789 202.45532
218.90009 182.08789 202.45532
224.98077 182.08789 202.45532
233.39317 161.52075 231.7478
239.53523 161.52075 231.7478
-87.778854 112.85181 290.39331
-81.508919 112.85181 290.39331
-73.703171 155.86694 229.3479
-66.886185 176.4906 200.07959
-60.805603 176.4906 200.07959
-54.172718 197.11426 170.81128
-48.153503 197.11426 170.81128
-42.134399 197.11426 170.81128
-36.115185 197.11426 170.81128
-30.095968 197.11426 170.81128
-24.076752 197.11426 170.81128
-18.425734 155.86694 229.3479
-12.2839 155.86694 229.3479
-6.2050705 134.65405 259.45264
0 134.65405 259.45264
6.2049522 134.65405 259.45264
12.539888 112.85181 290.39331
155.12617 134.65405 259.45264
158.09448 176.4906 200.07959
162.51826 197.11426 170.81128
168.53737 197.11426 170.81128
174.5567 197.11426 170.81128
180.57581 197.11426 170.81128
186.59491 197.11426 170.81128
192.61424 197.11426 170.81128
198.63335 197.11426 170.81128
204.65266 197.11426 170.81128
212.81961 176.4906 200.07959
218.90009 176.4906 200.07959
224.98077 176.4906 200.07959
233.39317 155.86694 229.3479
239.53523 155.86694 229.3479
-86.870636 128.94238 257.02808
-80.665558 128.94238 257.02808
-73.703171 150.21338 226.94824
-66.886185 170.89355 197.70361
-60.805603 170.89355 197.70361
-54.725021 170.89355 197.70361
-48.644436 170.89355 197.70361
-42.134399 191.57361 168.45947
-36.115185 191.57361 168.45947
-30.402802 170.89355 197.70361
-24.322218 170.89355 197.70361
-18.425734 150.21338 226.94824
-12.2839 150.21338 226.94824
-6.2050705 128.94238 257.02808
0 128.94238 257.02808
6.2698245 107.08057 287.9436
12.539888 107.08057 287.9436
158.09448 170.89355 197.70361
164.17517 170.89355 197.70361
170.25565 170.89355 197.70361
176.33633 170.89355 197.70361
180.57581 191.57361 168.45947
186.59491 191.57361 168.45947
192.61424 191.57361 168.45947
198.63335 191.57361 168.45947
204.65266 191.57361 168.45947
212.81961 170.89355 197.70361
218.90009 170.89355 197.70361
224.98077 170.89355 197.70361
233.39317 150.21338 226.94824
239.53523 150.21338 226.94824
-86.870636 123.23047 254.60352
-80.665558 123.23047 254.60352
-73.703171 144.55981 224.54834
-66.886185 165.29639 195.32764
-60.805603 165.29639 195.32764
-54.725021 165.29639 195.32764
-48.644436 165.29639 195.32764
-42.134399 186.03284 166.10742
-36.115185 186.03284 166.10742
-30.402802 165.29639 195.32764
-24.322218 165.29639 195.32764
-18.425734 144.55981 224.54834
-12.2839 144.55981 224.54834
-6.2050705 123.23047 254.60352
0 123.23047 254.60352
6.2698245 101.30908 285.49365
12.673141 78.794922 317.21875
159.69002 144.55981 224.54834
165.83208 144.55981 224.54834
170.25565 165.29639 195.32764
176.33633 165.29639 195.32764
180.57581 186.03284 166.10742
186.59491 186.03284 166.10742
192.61424 186.03284 166.10742
198.63335 186.03284 166.10742
206.73914 165.29639 195.32764
212.81961 165.29639 195.32764
218.90009 165.29639 195.32764
224.98077 165.29639 195.32764
-96.073906 49.792725 347.27612
-87.778854 95.537598 283.04395
-80.665558 117.5188 252.1792
-73.703171 138.90601 222.14844
-67.561218 138.90601 222.14844
-60.805603 159.69922 192.9519
-54.725021 159.69922 192.9519
-48.644436 159.69922 192.9519
-42.134399 180.49219 163.75562
-36.115185 180.49219 163.75562
-30.402802 159.69922 192.9519
-24.322218 159.69922 192.9519
-18.425734 138.90601 222.14844
-12.2839 138.90601 222.14844
-6.2050705 117.5188 252.1792
0 95.537598 283.04395
6.2698245 95.537598 283.04395
161.33112 117.5188 252.1792
165.83208 138.90601 222.14844
171.97391 138.90601 222.14844
176.33633 159.69922 192.9519
180.57581 180.49219 163.75562
186.59491 180.49219 163.75562
192.61424 180.49219 163.75562
198.63335 180.49219 163.75562
204.65266 180.49219 163.75562
212.81961 159.69922 192.9519
218.90009 159.69922 192.9519
229.58678 117.5188 252.1792
-96.073906 43.896973 344.77344
-88.711632 67.129395 312.26709
-81.508919 89.765869 280.59399
-74.460609 111.80713 249.75464
-67.561218 133.25244 219.74854
-61.41927 133.25244 219.74854
-54.725021 154.10181 190.57593
-48.644436 154.10181 190.57593
-42.134399 174.95142 161.40381
-36.115185 174.95142 161.40381
-30.402802 154.10181 190.57593
-24.322218 154.10181 190.57593
-18.425734 133.25244 219.74854
-12.2839 133.25244 219.74854
-6.2050705 111.80713 249.75464
0 89.765869 280.59399
6.3364501 67.129395 312.26709
163.01784 89.765869 280.59399
165.83208 133.25244 219.74854
171.97391 133.25244 219.74854
176.33633 154.10181 190.57593
180.57581 174.95142 161.40381
186.59491 174.95142 161.40381
192.61424 174.95142 161.40381
198.63335 174.95142 161.40381
204.65266 174.95142 161.40381
212.81961 154.10181 190.57593
218.90009 154.10181 190.57593
227.25134 133.25244 219.74854
235.79173 111.80713 249.75464
-96.073906 38.001221 342.271
-88.711632 61.296387 309.79126
-81.508919 83.994629 278.14429
-74.460609 106.09521 247.33008
-67.561218 127.59863 217.34888
-61.41927 127.59863 217.34888
-54.725021 148.50488 188.2002
-48.644436 148.50488 188.2002
-42.134399 169.41089 159.05176
-36.115185 169.41089 159.05176
-30.402802 148.50488 188.2002
-24.322218 148.50488 188.2002
-18.425734 127.59863 217.34888
-12.2839 127.59863 217.34888
-6.2050705 106.09521 247.33008
0 83.994629 278.14429
6.3364501 61.296387 309.79126
163.01784 83.994629 278.14429
167.53632 106.09521 247.33008
171.97391 127.59863 217.34888
176.33633 148.50488 188.2002
182.41681 148.50488 188.2002
188.49728 148.50488 188.2002
192.61424 169.41089 159.05176
198.63335 169.41089 159.05176
204.65266 169.41089 159.05176
210.67177 169.41089 159.05176
218.90009 148.50488 188.2002
224.98077 148.50488 188.2002
235.79173 106.09521 247.33008
-96.073906 32.105469 339.76831
-88.711632 55.463623 307.31519
-81.508919 78.223145 275.69434
-74.460609 100.3833 244.90552
-67.561218 121.94507 214.94897
-61.41927 121.94507 214.94897
-54.725021 142.90747 185.82422
-48.644436 142.90747 185.82422
-42.134399 163.87012 156.69995
-36.115185 163.87012 156.69995
-30.402802 142.90747 185.82422
-24.322218 142.90747 185.82422
-18.425734 121.94507 214.94897
-12.2839 121.94507 214.94897
-6.2050705 100.3833 244.90552
0 55.463623 307.31519
6.3364501 55.463623 307.31519
163.01784 78.223145 275.69434
167.53632 100.3833 244.90552
171.97391 121.94507 214.94897
176.33633 142.90747 185.82422
182.41681 142.90747 185.82422
188.49728 142.90747 185.82422
192.61424 163.87012 156.69995
198.63335 163.87012 156.69995
204.65266 163.87012 156.69995
210.67177 163.87012 156.69995
218.90009 142.90747 185.82422
224.98077 142.90747 185.82422
235.79173 100.3833 244.90552
-89.668953 26.209717 337.26562
-82.375061 49.630859 304.83936
-74.460609 94.671875 242.4812
-67.561218 116.2915 212.54907
-60.805603 137.31055 183.44849
-54.725021 137.31055 183.44849
-48.644436 137.31055 183.44849
-42.563965 137.31055 183.44849
-36.483383 137.31055 183.44849
-30.402802 137.31055 183.44849
-24.322218 137.31055 183.44849
-18.425734 116.2915 212.54907
-12.2839 116.2915 212.54907
-6.2050705 94.671875 242.4812
0 49.630859 304.83936
6.3364501 49.630859 304.83936
167.53632 94.671875 242.4812
171.97391 116.2915 212.54907
176.33633 137.31055 183.44849
180.57581 158.32959 154.34814
186.59491 158.32959 154.34814
192.61424 158.32959 154.34814
198.63335 158.32959 154.34814
204.65266 158.32959 154.34814
210.67177 158.32959 154.34814
218.90009 137.31055 183.44849
224.98077 137.31055 183.44849
233.39317 116.2915 212.54907
244.52698 72.45166 273.24438
-96.073906 20.313721 334.76318
-89.668953 20.313721 334.76318
-82.375061 43.797852 302.36353
-74.460609 88.959961 240.05664
-67.561218 110.6377 210.14917
-60.805603 131.71313 181.07251
-54.725021 131.71313 181.07251
-48.644436 131.71313 181.07251
-42.563965 131.71313 181.07251
-36.483383 131.71313 181.07251
-30.402802 131.71313 181.07251
-24.322218 131.71313 181.07251
-18.425734 110.6377 210.14917
-12.2839 110.6377 210.14917
-6.2050705 88.959961 240.05664
0 43.797852 302.36353
167.53632 88.959961 240.05664
171.97391 110.6377 210.14917
176.33633 131.71313 181.07251
180.57581 152.78857 151.99609
186.59491 152.78857 151.99609
192.61424 152.78857 151.99609
198.63335 152.78857 151.99609
204.65266 152.78857 151.99609
210.67177 152.78857 151.99609
218.90009 131.71313 181.07251
224.98077 131.71313 181.07251
233.39317 110.6377 210.14917
244.52698 66.679932 270.79468
-96.073906 14.417969 332.2605
-89.668953 14.417969 332.2605
-82.375061 37.965332 299.8877
-74.460609 83.248047 237.63208
-67.561218 104.98413 207.74951
-60.805603 126.11621 178.69678
-54.725021 126.11621 178.69678
-48.644436 126.11621 178.69678
-42.563965 126.11621 178.69678
-36.483383 126.11621 178.69678
-30.402802 126.11621 178.69678
-24.322218 126.11621 178.69678
-18.425734 104.98413 207.74951
-12.2839 104.98413 207.74951
-6.2050705 83.248047 237.63208
0 37.965332 299.8877
169.2879 60.908691 268.34473
171.97391 104.98413 207.74951
176.33633 126.11621 178.69678
182.41681 126.11621 178.69678
188.49728 126.11621 178.69678
192.61424 147.24805 149.64429
198.63335 147.24805 149.64429
204.65266 147.24805 149.64429
210.67177 147.24805 149.64429
218.90009 126.11621 178.69678
224.98077 126.11621 178.69678
233.39317 104.98413 207.74951
241.99692 83.248047 237.63208
-96.073906 8.5222168 329.75781
-88.711632 32.132324 297.41162
-81.508919 55.136963 265.89502
-74.460609 77.536377 235.20752
-67.561218 99.330322 205.34961
-60.805603 120.5188 176.3208
-54.725021 120.5188 176.3208
-48.644436 120.5188 176.3208
-42.563965 120.5188 176.3208
-36.483383 120.5188 176.3208
-30.402802 120.5188 176.3208
-24.322218 120.5188 176.3208
-18.425734 99.330322 205.34961
-12.2839 99.330322 205.34961
-6.2050705 77.536377 235.20752
169.2879 55.136963 265.89502
171.97391 99.330322 205.34961
176.33633 120.5188 176.3208
182.41681 120.5188 176.3208
188.49728 120.5188 176.3208
194.57797 120.5188 176.3208
198.63335 141.70728 147.29248
204.65266 141.70728 147.29248
210.67177 141.70728 147.29248
218.90009 120.5188 176.3208
224.98077 120.5188 176.3208
231.06125 120.5188 176.3208
241.99692 77.536377 235.20752
250.79681 55.136963 265.89502
-102.47885 2.6264648 327.25537
-96.073906 2.6264648 327.25537
-88.711632 26.299561 294.93579
-81.508919 49.365723 263.44507
-74.460609 71.824707 232.7832
-67.561218 93.676758 202.94971
-60.805603 114.92163 173.94507
-54.725021 114.92163 173.94507
-48.644436 114.92163 173.94507
-42.563965 114.92163 173.94507
-36.483383 114.92163 173.94507
-30.402802 114.92163 173.94507
-24.322218 114.92163 173.94507
-18.425734 93.676758 202.94971
-12.2839 93.676758 202.94971
-6.2050705 71.824707 232.7832
0 49.365723 263.44507
169.2879 49.365723 263.44507
171.97391 93.676758 202.94971
176.33633 114.92163 173.94507
182.41681 114.92163 173.94507
188.49728 114.92163 173.94507
194.57797 114.92163 173.94507
198.63335 136.16675 144.94043
204.65266 136.16675 144.94043
210.67177 136.16675 144.94043
218.90009 114.92163 173.94507
224.98077 114.92163 173.94507
231.06125 114.92163 173.94507
239.53523 93.676758 202.94971
248.20187 71.824707 232.7832
-95.048203 20.466797 292.45996
-88.711632 20.466797 292.45996
-80.665558 66.112793 230.35864
-74.460609 66.112793 230.35864
-67.561218 88.022949 200.5498
-60.805603 109.32446 171.56909
-54.725021 109.32446 171.56909
-48.644436 109.32446 171.56909
-42.563965 109.32446 171.56909
-36.483383 109.32446 171.56909
-30.402802 109.32446 171.56909
-24.322218 109.32446 171.56909
-18.425734 88.022949 200.5498
-12.2839 88.022949 200.5498
-6.2050705 66.112793 230.35864
0 43.593994 260.99512
167.53632 66.112793 230.35864
171.97391 88.022949 200.5498
176.33633 109.32446 171.56909
182.41681 109.32446 171.56909
188.49728 109.32446 171.56909
194.57797 109.32446 171.56909
198.63335 130.62598 142.58862
204.65266 130.62598 142.58862
210.67177 130.62598 142.58862
218.90009 109.32446 171.56909
224.98077 109.32446 171.56909
233.39317 88.022949 200.5498
239.53523 88.022949 200.5498
248.20187 66.112793 230.35864
-95.048203 14.633789 289.98413
-87.778854 37.82251 258.54541
-80.665558 60.400879 227.93408
-74.460609 60.400879 227.93408
-67.561218 82.369141 198.1499
-61.41927 82.369141 198.1499
-54.725021 103.72729 169.19336
-48.644436 103.72729 169.19336
-42.563965 103.72729 169.19336
-36.483383 103.72729 169.19336
-30.402802 103.72729 169.19336
-24.322218 103.72729 169.19336
-18.425734 82.369141 198.1499
-12.410141 60.400879 227.93408
-6.2050705 60.400879 227.93408
0 37.82251 258.54541
167.53632 60.400879 227.93408
171.97391 82.369141 198.1499
176.33633 103.72729 169.19336
182.41681 103.72729 169.19336
188.49728 103.72729 169.19336
194.57797 103.72729 169.19336
200.65845 103.72729 169.19336
204.65266 125.08521 140.23682
210.67177 125.08521 140.23682
218.90009 103.72729 169.19336
224.98077 103.72729 169.19336
233.39317 82.369141 198.1499
239.53523 82.369141 198.1499
248.20187 60.400879 227.93408
-101.38477 8.8010254 287.5083
-95.048203 8.8010254 287.5083
-87.778854 32.05127 256.09546
-80.665558 54.689209 225.50952
-74.460609 54.689209 225.50952
-67.561218 76.715576 195.75024
-61.41927 76.715576 195.75024
-54.725021 98.130127 166.81738
-48.644436 98.130127 166.81738
-42.563965 98.130127 166.81738
-36.483383 98.130127 166.81738
-30.402802 98.130127 166.81738
-24.322218 98.130127 166.81738
-18.425734 76.715576 195.75024
-12.410141 54.689209 225.50952
-6.2050705 54.689209 225.50952
0 32.05127 256.09546
167.53632 54.689209 225.50952
171.97391 76.715576 195.75024
176.33633 98.130127 166.81738
182.41681 98.130127 166.81738
188.49728 98.130127 166.81738
194.57797 98.130127 166.81738
200.65845 98.130127 166.81738
206.73914 98.130127 166.81738
212.81961 98.130127 166.81738
218.90009 98.130127 166.81738
224.98077 98.130127 166.81738
235.79173 54.689209 225.50952
244.52698 32.05127 256.09546
-101.38477 2.9682617 285.03223
-95.048203 2.9682617 285.03223
-87.778854 26.279541 253.64551
-81.508919 26.279541 253.64551
-74.460609 48.977539 223.08496
-67.561218 71.062012 193.35034
-61.41927 71.062012 193.35034
-54.725021 92.532715 164.44141
-48.644436 92.532715 164.44141
-42.563965 92.532715 164.44141
-36.483383 92.532715 164.44141
-30.402802 92.532715 164.44141
-24.567682 71.062012 193.35034
-18.425734 71.062012 193.35034
-12.410141 48.977539 223.08496
-6.2699442 26.279541 253.64551
0 2.9682617 285.03223
6.3364501 2.9682617 285.03223
169.2879 26.279541 253.64551
173.74127 48.977539 223.08496
178.11597 71.062012 193.35034
184.25781 71.062012 193.35034
190.39964 71.062012 193.35034
194.57797 92.532715 164.44141
200.65845 92.532715 164.44141
206.73914 92.532715 164.44141
212.81961 92.532715 164.44141
218.90009 92.532715 164.44141
227.25134 71.062012 193.35034
235.79173 48.977539 223.08496
