ply
format ascii 1.0
comment PCL generated
element vertex 1570
property float x
property float y
property float z
element camera 0
property float view_px
property float view_py
property float view_pz
property float x_axisx
property float x_axisy
property float x_axisz
property float y_axisx
property float y_axisy
property float y_axisz
property float z_axisx
property float z_axisy
property float z_axisz
property float focal
property float scalex
property float scaley
property float centerx
property float centery
property int viewportx
property int viewporty
property float k1
property float k2
end_header
-70.476952 837.19751 72.061523
-65.055725 837.19751 72.061523
-59.634396 837.19751 72.061523
-53.722134 849.71948 46.95874
-48.349903 849.71948 46.95874
-42.977669 849.71948 46.95874
-37.605534 849.71948 46.95874
-32.233299 849.71948 46.95874
-26.861067 849.71948 46.95874
-21.685207 837.19751 72.061523
-16.26388 837.19751 72.061523
-10.842655 837.19751 72.061523
-5.4213276 837.19751 72.061523
0 837.19751 72.061523
5.4212241 837.19751 72.061523
10.842655 837.19751 72.061523
16.26388 837.19751 72.061523
21.68531 837.19751 72.061523
27.106535 837.19751 72.061523
32.822319 824.67529 97.164062
38.292843 824.67529 97.164062
43.763157 824.67529 97.164062
49.233688 824.67529 97.164062
54.704002 824.67529 97.164062
60.174316 824.67529 97.164062
65.644844 824.67529 97.164062
71.115158 824.67529 97.164062
77.297546 811.70593 123.16357
82.818703 811.70593 123.16357
88.339859 811.70593 123.16357
93.861237 811.70593 123.16357
99.382401 811.70593 123.16357
104.90378 811.70593 123.16357
110.42493 811.70593 123.16357
117.01388 798.73657 149.16284
122.58611 798.73657 149.16284
128.15811 798.73657 149.16284
133.73033 798.73657 149.16284
139.30234 798.73657 149.16284
144.87434 798.73657 149.16284
149.07372 811.70593 123.16357
154.59486 811.70593 123.16357
160.11624 811.70593 123.16357
165.63741 811.70593 123.16357
171.15857 811.70593 123.16357
176.67995 811.70593 123.16357
182.2011 811.70593 123.16357
187.72247 811.70593 123.16357
193.24364 811.70593 123.16357
198.7648 811.70593 123.16357
206.16751 798.73657 149.16284
211.73952 798.73657 149.16284
217.31174 798.73657 149.16284
224.98775 785.31995 176.05859
230.61235 785.31995 176.05859
236.23717 785.31995 176.05859
244.12358 771.90344 202.95435
249.80101 771.90344 202.95435
255.47821 771.90344 202.95435
261.15543 771.90344 202.95435
266.83286 771.90344 202.95435
272.51004 771.90344 202.95435
278.18747 771.90344 202.95435
283.86469 771.90344 202.95435
286.85928 785.31995 176.05859
292.4841 785.31995 176.05859
298.10873 785.31995 176.05859
303.73355 785.31995 176.05859
309.35815 785.31995 176.05859
314.98276 785.31995 176.05859
320.60754 785.31995 176.05859
329.28299 771.90344 202.95435
338.16727 758.03955 230.74658
343.8988 758.03955 230.74658
349.63037 758.03955 230.74658
-212.00603 957.88049 -180.89258
-207.07573 957.88049 -180.89258
-200.49194 968.20361 -201.49683
-194.05894 978.078 -221.20557
-189.20744 978.078 -221.20557
-182.82355 988.40112 -241.80957
-176.65013 997.82678 -260.62256
-171.87578 997.82678 -260.62256
-165.75137 1007.701 -280.33081
-161.01561 1007.701 -280.33081
-156.27983 1007.701 -280.33081
-151.54414 1007.701 -280.33081
-146.80836 1007.701 -280.33081
-143.22981 997.82678 -260.62256
-138.45546 997.82678 -260.62256
-133.68112 997.82678 -260.62256
-129.901 988.40112 -241.80957
-125.08984 988.40112 -241.80957
-120.27867 988.40112 -241.80957
-115.46751 988.40112 -241.80957
-126.98864 806.62366 121.00635
-121.46747 806.62366 121.00635
-115.94621 806.62366 121.00635
-110.42493 806.62366 121.00635
-104.90366 806.62366 121.00635
-98.467163 819.63989 95.026611
-92.162254 832.20715 69.943359
-86.740929 832.20715 69.943359
-81.319603 832.20715 69.943359
-75.898277 832.20715 69.943359
-70.476952 832.20715 69.943359
-65.055725 832.20715 69.943359
-59.094368 844.77454 44.859863
-53.722134 844.77454 44.859863
-48.349903 844.77454 44.859863
-42.977669 844.77454 44.859863
-37.605534 844.77454 44.859863
-32.233299 844.77454 44.859863
-26.861067 844.77454 44.859863
-21.685207 832.20715 69.943359
-16.26388 832.20715 69.943359
-10.842655 832.20715 69.943359
-5.4213276 832.20715 69.943359
0 832.20715 69.943359
5.4212241 832.20715 69.943359
10.842655 832.20715 69.943359
16.26388 832.20715 69.943359
21.68531 832.20715 69.943359
27.106535 832.20715 69.943359
32.822319 819.63989 95.026611
38.292843 819.63989 95.026611
43.763157 819.63989 95.026611
49.233688 819.63989 95.026611
54.704002 819.63989 95.026611
60.174316 819.63989 95.026611
65.644844 819.63989 95.026611
71.776169 806.62366 121.00635
77.297546 806.62366 121.00635
82.818703 806.62366 121.00635
88.339859 806.62366 121.00635
93.861237 806.62366 121.00635
99.382401 806.62366 121.00635
104.90378 806.62366 121.00635
111.44187 793.60754 146.9856
117.01388 793.60754 146.9856
122.58611 793.60754 146.9856
128.15811 793.60754 146.9856
133.73033 793.60754 146.9856
139.30234 793.60754 146.9856
143.55234 806.62366 121.00635
149.07372 806.62366 121.00635
154.59486 806.62366 121.00635
160.11624 806.62366 121.00635
165.63741 806.62366 121.00635
171.15857 806.62366 121.00635
176.67995 806.62366 121.00635
182.2011 806.62366 121.00635
187.72247 806.62366 121.00635
193.24364 806.62366 121.00635
198.7648 806.62366 121.00635
204.28618 806.62366 121.00635
211.73952 793.60754 146.9856
217.31174 793.60754 146.9856
224.98775 780.14246 173.86108
230.61235 780.14246 173.86108
236.23717 780.14246 173.86108
241.86177 780.14246 173.86108
249.80101 766.67749 200.73608
255.47821 766.67749 200.73608
261.15543 766.67749 200.73608
266.83286 766.67749 200.73608
272.51004 766.67749 200.73608
278.18747 766.67749 200.73608
283.86469 766.67749 200.73608
289.54187 766.67749 200.73608
295.2193 766.67749 200.73608
298.10873 780.14246 173.86108
303.73355 780.14246 173.86108
312.25116 766.67749 200.73608
317.92834 766.67749 200.73608
323.60577 766.67749 200.73608
329.28299 766.67749 200.73608
338.16727 752.76367 228.50732
343.8988 752.76367 228.50732
-212.00603 953.34204 -182.81885
-207.07573 953.34204 -182.81885
-200.49194 963.70227 -203.40747
-192.44588 983.97241 -243.68945
-187.6347 983.97241 -243.68945
-181.42438 993.43188 -262.48804
-176.65013 993.43188 -262.48804
-171.87578 993.43188 -262.48804
-165.75137 1003.3417 -282.1814
-161.01561 1003.3417 -282.1814
-156.27983 1003.3417 -282.1814
-151.54414 1003.3417 -282.1814
-146.80836 1003.3417 -282.1814
-143.22981 993.43188 -262.48804
-138.45546 993.43188 -262.48804
-133.68112 993.43188 -262.48804
-128.90686 993.43188 -262.48804
-125.08984 983.97241 -243.68945
-120.27867 983.97241 -243.68945
-128.15811 788.47827 144.80835
-122.58611 788.47827 144.80835
-117.01398 788.47827 144.80835
-110.42493 801.54126 118.84888
-104.90366 801.54126 118.84888
-98.467163 814.60425 92.88916
-92.162254 827.2168 67.824951
-86.740929 827.2168 67.824951
-81.319603 827.2168 67.824951
-75.898277 827.2168 67.824951
-69.838737 839.82935 42.760742
-64.466599 839.82935 42.760742
-59.094368 839.82935 42.760742
-53.722134 839.82935 42.760742
-48.349903 839.82935 42.760742
-42.977669 839.82935 42.760742
-37.605534 839.82935 42.760742
-32.233299 839.82935 42.760742
-26.861067 839.82935 42.760742
-21.685207 827.2168 67.824951
-16.26388 827.2168 67.824951
-10.842655 827.2168 67.824951
-5.4213276 827.2168 67.824951
0 827.2168 67.824951
5.4212241 827.2168 67.824951
10.842655 827.2168 67.824951
16.26388 827.2168 67.824951
21.881683 814.60425 92.88916
27.352001 814.60425 92.88916
32.822319 814.60425 92.88916
38.292843 814.60425 92.88916
43.763157 814.60425 92.88916
49.233688 814.60425 92.88916
54.704002 814.60425 92.88916
60.733631 801.54126 118.84888
66.255005 801.54126 118.84888
71.776169 801.54126 118.84888
77.297546 801.54126 118.84888
82.818703 801.54126 118.84888
88.339859 801.54126 118.84888
93.861237 801.54126 118.84888
99.382401 801.54126 118.84888
105.86987 788.47827 144.80835
111.44187 788.47827 144.80835
117.01388 788.47827 144.80835
122.58611 788.47827 144.80835
128.15811 788.47827 144.80835
133.73033 788.47827 144.80835
139.30234 788.47827 144.80835
143.55234 801.54126 118.84888
149.07372 801.54126 118.84888
154.59486 801.54126 118.84888
160.11624 801.54126 118.84888
165.63741 801.54126 118.84888
171.15857 801.54126 118.84888
176.67995 801.54126 118.84888
182.2011 801.54126 118.84888
187.72247 801.54126 118.84888
193.24364 801.54126 118.84888
198.7648 801.54126 118.84888
204.28618 801.54126 118.84888
211.73952 788.47827 144.80835
217.31174 788.47827 144.80835
224.98775 774.96484 171.66333
230.61235 774.96484 171.66333
236.23717 774.96484 171.66333
241.86177 774.96484 171.66333
249.80101 761.45142 198.51782
255.47821 761.45142 198.51782
261.15543 761.45142 198.51782
266.83286 761.45142 198.51782
272.51004 761.45142 198.51782
278.18747 761.45142 198.51782
283.86469 761.45142 198.51782
289.54187 761.45142 198.51782
295.2193 761.45142 198.51782
300.89655 761.45142 198.51782
306.57394 761.45142 198.51782
312.25116 761.45142 198.51782
317.92834 761.45142 198.51782
323.60577 761.45142 198.51782
329.28299 761.45142 198.51782
338.16727 747.48755 226.26758
343.8988 747.48755 226.26758
349.63037 747.48755 226.26758
-207.07573 948.80359 -184.74536
-200.49194 959.20105 -205.31836
-192.44588 979.54382 -245.56934
-184.69438 998.98254 -284.03174
-179.9586 998.98254 -284.03174
-175.22292 998.98254 -284.03174
-170.48714 998.98254 -284.03174
-165.75137 998.98254 -284.03174
-161.01561 998.98254 -284.03174
-156.27983 998.98254 -284.03174
-151.54414 998.98254 -284.03174
-146.80836 998.98254 -284.03174
-143.22981 989.03711 -264.35352
-138.45546 989.03711 -264.35352
-133.68112 989.03711 -264.35352
-128.90686 989.03711 -264.35352
-124.13252 989.03711 -264.35352
-140.61734 769.78735 169.46558
-134.99263 769.78735 169.46558
-126.98864 796.45898 116.69165
-121.46747 796.45898 116.69165
-115.94621 796.45898 116.69165
-110.42493 796.45898 116.69165
-105.86976 783.34924 142.63135
-98.467163 809.56885 90.751709
-92.162254 822.22656 65.706787
-86.740929 822.22656 65.706787
-81.319603 822.22656 65.706787
-75.898277 822.22656 65.706787
-69.838737 834.88416 40.661621
-64.466599 834.88416 40.661621
-59.094368 834.88416 40.661621
-53.722134 834.88416 40.661621
-48.349903 834.88416 40.661621
-42.977669 834.88416 40.661621
-37.605534 834.88416 40.661621
-32.233299 834.88416 40.661621
-26.861067 834.88416 40.661621
-21.685207 822.22656 65.706787
-16.26388 822.22656 65.706787
-10.842655 822.22656 65.706787
-5.4213276 822.22656 65.706787
0 822.22656 65.706787
5.4212241 822.22656 65.706787
10.842655 822.22656 65.706787
16.41116 809.56885 90.751709
21.881683 809.56885 90.751709
27.352001 809.56885 90.751709
32.822319 809.56885 90.751709
38.292843 809.56885 90.751709
44.16993 796.45898 116.69165
49.691303 796.45898 116.69165
55.212467 796.45898 116.69165
60.733631 796.45898 116.69165
66.255005 796.45898 116.69165
71.776169 796.45898 116.69165
77.297546 796.45898 116.69165
82.818703 796.45898 116.69165
88.339859 796.45898 116.69165
94.725632 783.34924 142.63135
100.29764 783.34924 142.63135
105.86987 783.34924 142.63135
112.49387 769.78735 169.46558
118.11848 769.78735 169.46558
123.7433 769.78735 169.46558
129.3679 769.78735 169.46558
134.99274 769.78735 169.46558
139.30234 783.34924 142.63135
144.87434 783.34924 142.63135
149.07372 796.45898 116.69165
154.59486 796.45898 116.69165
160.11624 796.45898 116.69165
165.63741 796.45898 116.69165
171.15857 796.45898 116.69165
176.67995 796.45898 116.69165
182.2011 796.45898 116.69165
187.72247 796.45898 116.69165
193.24364 796.45898 116.69165
198.7648 796.45898 116.69165
206.16751 783.34924 142.63135
211.73952 783.34924 142.63135
217.31174 783.34924 142.63135
222.88374 783.34924 142.63135
230.61235 769.78735 169.46558
236.23717 769.78735 169.46558
241.86177 769.78735 169.46558
249.80101 756.22559 196.29956
255.47821 756.22559 196.29956
261.15543 756.22559 196.29956
266.83286 756.22559 196.29956
272.51004 756.22559 196.29956
278.18747 756.22559 196.29956
283.86469 756.22559 196.29956
289.54187 756.22559 196.29956
295.2193 756.22559 196.29956
300.89655 756.22559 196.29956
306.57394 756.22559 196.29956
312.25116 756.22559 196.29956
317.92834 756.22559 196.29956
323.60577 756.22559 196.29956
329.28299 756.22559 196.29956
338.16727 742.21167 224.02808
343.8988 742.21167 224.02808
349.63037 742.21167 224.02808
-192.6563 1004.1503 -304.65161
-189.43015 994.62317 -285.88208
-184.69438 994.62317 -285.88208
-178.55943 1004.1503 -304.65161
-173.86058 1004.1503 -304.65161
-169.16162 1004.1503 -304.65161
-164.46268 1004.1503 -304.65161
-161.01561 994.62317 -285.88208
-156.27983 994.62317 -285.88208
-151.54414 994.62317 -285.88208
-146.80836 994.62317 -285.88208
-142.0726 994.62317 -285.88208
-137.33684 994.62317 -285.88208
-132.60106 994.62317 -285.88208
-128.90686 984.64233 -266.21899
-124.13252 984.64233 -266.21899
-140.61734 764.60974 167.26782
-134.99263 764.60974 167.26782
-128.15811 778.21997 140.4541
-121.46747 791.37659 114.53442
-115.94621 791.37659 114.53442
-110.42493 791.37659 114.53442
-104.90366 791.37659 114.53442
-98.467163 804.5332 88.614258
-92.162254 817.23608 63.588623
-86.740929 817.23608 63.588623
-81.319603 817.23608 63.588623
-75.898277 817.23608 63.588623
-69.838737 829.93896 38.5625
-64.466599 829.93896 38.5625
-59.094368 829.93896 38.5625
-53.722134 829.93896 38.5625
-48.349903 829.93896 38.5625
-42.977669 829.93896 38.5625
-37.605534 829.93896 38.5625
-32.233299 829.93896 38.5625
-26.861067 829.93896 38.5625
-21.685207 817.23608 63.588623
-16.26388 817.23608 63.588623
-10.842655 817.23608 63.588623
-5.4213276 817.23608 63.588623
0 817.23608 63.588623
5.4212241 817.23608 63.588623
10.842655 817.23608 63.588623
16.41116 804.5332 88.614258
21.881683 804.5332 88.614258
27.352001 804.5332 88.614258
32.822319 804.5332 88.614258
38.292843 804.5332 88.614258
44.16993 791.37659 114.53442
49.691303 791.37659 114.53442
55.212467 791.37659 114.53442
60.733631 791.37659 114.53442
66.255005 791.37659 114.53442
71.776169 791.37659 114.53442
77.297546 791.37659 114.53442
82.818703 791.37659 114.53442
88.339859 791.37659 114.53442
94.725632 778.21997 140.4541
100.29764 778.21997 140.4541
105.86987 778.21997 140.4541
112.49387 764.60974 167.26782
118.11848 764.60974 167.26782
123.7433 764.60974 167.26782
129.3679 764.60974 167.26782
134.99274 764.60974 167.26782
140.61734 764.60974 167.26782
144.87434 778.21997 140.4541
149.07372 791.37659 114.53442
154.59486 791.37659 114.53442
160.11624 791.37659 114.53442
165.63741 791.37659 114.53442
171.15857 791.37659 114.53442
176.67995 791.37659 114.53442
182.2011 791.37659 114.53442
187.72247 791.37659 114.53442
195.02327 778.21997 140.4541
200.59528 778.21997 140.4541
206.16751 778.21997 140.4541
211.73952 778.21997 140.4541
217.31174 778.21997 140.4541
222.88374 778.21997 140.4541
230.61235 764.60974 167.26782
236.23717 764.60974 167.26782
241.86177 764.60974 167.26782
249.80101 750.99951 194.0813
255.47821 750.99951 194.0813
261.15543 750.99951 194.0813
266.83286 750.99951 194.0813
272.51004 750.99951 194.0813
278.18747 750.99951 194.0813
283.86469 750.99951 194.0813
289.54187 750.99951 194.0813
295.2193 750.99951 194.0813
300.89655 750.99951 194.0813
306.57394 750.99951 194.0813
312.25116 750.99951 194.0813
317.92834 750.99951 194.0813
323.60577 750.99951 194.0813
329.28299 750.99951 194.0813
338.16727 736.93555 221.78857
343.8988 736.93555 221.78857
-192.6563 999.82495 -306.48755
-187.95734 999.82495 -306.48755
-183.25839 999.82495 -306.48755
-178.55943 999.82495 -306.48755
-173.86058 999.82495 -306.48755
-169.16162 999.82495 -306.48755
-164.46268 999.82495 -306.48755
-161.01561 990.26392 -287.73242
-156.27983 990.26392 -287.73242
-151.54414 990.26392 -287.73242
-146.80836 990.26392 -287.73242
-142.0726 990.26392 -287.73242
-137.33684 990.26392 -287.73242
-132.60106 990.26392 -287.73242
-127.86538 990.26392 -287.73242
-140.61734 759.43225 165.07007
-133.73022 773.09094 138.27686
-128.15811 773.09094 138.27686
-121.46747 786.29431 112.37695
-115.94621 786.29431 112.37695
-110.42493 786.29431 112.37695
-104.90366 786.29431 112.37695
-98.467163 799.4978 86.476807
-92.996849 799.4978 86.476807
-86.740929 812.24585 61.470215
-81.319603 812.24585 61.470215
-75.898277 812.24585 61.470215
-69.838737 824.9939 36.463379
-64.466599 824.9939 36.463379
-59.094368 824.9939 36.463379
-53.722134 824.9939 36.463379
-48.349903 824.9939 36.463379
-42.977669 824.9939 36.463379
-37.949188 812.24585 61.470215
-32.527863 812.24585 61.470215
-27.106535 812.24585 61.470215
-21.685207 812.24585 61.470215
-16.26388 812.24585 61.470215
-10.940842 799.4978 86.476807
-5.4213276 812.24585 61.470215
0 812.24585 61.470215
5.4212241 812.24585 61.470215
10.940842 799.4978 86.476807
16.41116 799.4978 86.476807
21.881683 799.4978 86.476807
27.352001 799.4978 86.476807
32.822319 799.4978 86.476807
38.292843 799.4978 86.476807
44.16993 786.29431 112.37695
49.691303 786.29431 112.37695
55.212467 786.29431 112.37695
60.733631 786.29431 112.37695
66.255005 786.29431 112.37695
71.776169 786.29431 112.37695
77.297546 786.29431 112.37695
82.818703 786.29431 112.37695
88.339859 786.29431 112.37695
94.725632 773.09094 138.27686
100.29764 773.09094 138.27686
106.86926 759.43225 165.07007
112.49387 759.43225 165.07007
118.11848 759.43225 165.07007
123.7433 759.43225 165.07007
129.3679 759.43225 165.07007
134.99274 759.43225 165.07007
140.61734 759.43225 165.07007
144.87434 773.09094 138.27686
150.44656 773.09094 138.27686
156.01857 773.09094 138.27686
160.11624 786.29431 112.37695
165.63741 786.29431 112.37695
171.15857 786.29431 112.37695
176.67995 786.29431 112.37695
182.2011 786.29431 112.37695
187.72247 786.29431 112.37695
195.02327 773.09094 138.27686
202.48888 759.43225 165.07007
208.11371 759.43225 165.07007
213.73831 759.43225 165.07007
219.36314 759.43225 165.07007
224.98775 759.43225 165.07007
230.61235 759.43225 165.07007
236.23717 759.43225 165.07007
241.86177 759.43225 165.07007
249.80101 745.77368 191.86304
255.47821 745.77368 191.86304
261.15543 745.77368 191.86304
266.83286 745.77368 191.86304
272.51004 745.77368 191.86304
278.18747 745.77368 191.86304
283.86469 745.77368 191.86304
289.54187 745.77368 191.86304
295.2193 745.77368 191.86304
300.89655 745.77368 191.86304
306.57394 745.77368 191.86304
312.25116 745.77368 191.86304
317.92834 745.77368 191.86304
326.70392 731.65967 219.54907
332.43549 731.65967 219.54907
338.16727 731.65967 219.54907
343.8988 731.65967 219.54907
-192.6563 995.49951 -308.32373
-187.95734 995.49951 -308.32373
-181.8224 1005.0945 -327.06445
-177.16028 1005.0945 -327.06445
-173.86058 995.49951 -308.32373
-169.16162 995.49951 -308.32373
-164.46268 995.49951 -308.32373
-159.76372 995.49951 -308.32373
-155.06477 995.49951 -308.32373
-150.36591 995.49951 -308.32373
-146.80836 985.90454 -289.58301
-142.0726 985.90454 -289.58301
-137.33684 985.90454 -289.58301
-132.60106 985.90454 -289.58301
-127.86538 985.90454 -289.58301
-123.12961 985.90454 -289.58301
-140.61734 754.25464 162.87231
-133.73022 767.96179 136.09961
-128.15811 767.96179 136.09961
-122.58611 767.96179 136.09961
-117.01398 767.96179 136.09961
-111.44187 767.96179 136.09961
-104.90366 781.21191 110.21973
-98.467163 794.46216 84.339355
-92.996849 794.46216 84.339355
-87.526421 794.46216 84.339355
-81.319603 807.25537 59.352051
-75.898277 807.25537 59.352051
-70.476952 807.25537 59.352051
-65.055725 807.25537 59.352051
-59.634396 807.25537 59.352051
-54.21307 807.25537 59.352051
-48.79174 807.25537 59.352051
-43.370415 807.25537 59.352051
-37.949188 807.25537 59.352051
-32.527863 807.25537 59.352051
-27.106535 807.25537 59.352051
-21.881578 794.46216 84.339355
-16.41116 794.46216 84.339355
-10.940842 794.46216 84.339355
-5.4213276 807.25537 59.352051
0 807.25537 59.352051
5.4212241 807.25537 59.352051
10.940842 794.46216 84.339355
16.41116 794.46216 84.339355
22.085073 781.21191 110.21973
27.352001 794.46216 84.339355
32.822319 794.46216 84.339355
38.648773 781.21191 110.21973
44.16993 781.21191 110.21973
49.691303 781.21191 110.21973
55.212467 781.21191 110.21973
60.733631 781.21191 110.21973
66.255005 781.21191 110.21973
72.437172 767.96179 136.09961
78.009399 767.96179 136.09961
83.581406 767.96179 136.09961
89.153404 767.96179 136.09961
95.619835 754.25464 162.87231
101.24444 754.25464 162.87231
106.86926 754.25464 162.87231
112.49387 754.25464 162.87231
118.11848 754.25464 162.87231
123.7433 754.25464 162.87231
129.3679 754.25464 162.87231
134.99274 754.25464 162.87231
140.61734 754.25464 162.87231
144.87434 767.96179 136.09961
150.44656 767.96179 136.09961
156.01857 767.96179 136.09961
160.11624 781.21191 110.21973
165.63741 781.21191 110.21973
172.73482 767.96179 136.09961
178.30704 767.96179 136.09961
183.87904 767.96179 136.09961
189.45126 767.96179 136.09961
196.86427 754.25464 162.87231
204.38248 740.54761 189.64453
210.05991 740.54761 189.64453
213.73831 754.25464 162.87231
219.36314 754.25464 162.87231
227.09174 740.54761 189.64453
232.76895 740.54761 189.64453
238.44638 740.54761 189.64453
244.12358 740.54761 189.64453
249.80101 740.54761 189.64453
255.47821 740.54761 189.64453
263.65567 726.38354 217.30957
266.83286 740.54761 189.64453
272.51004 740.54761 189.64453
278.18747 740.54761 189.64453
283.86469 740.54761 189.64453
289.54187 740.54761 189.64453
295.2193 740.54761 189.64453
300.89655 740.54761 189.64453
306.57394 740.54761 189.64453
312.25116 740.54761 189.64453
320.97214 726.38354 217.30957
326.70392 726.38354 217.30957
332.43549 726.38354 217.30957
338.16727 726.38354 217.30957
-194.16591 981.54541 -291.43335
-187.95734 991.17419 -310.15967
-181.8224 1000.803 -328.88599
-177.16028 1000.803 -328.88599
-173.86058 991.17419 -310.15967
-169.16162 991.17419 -310.15967
-164.46268 991.17419 -310.15967
-159.76372 991.17419 -310.15967
-155.06477 991.17419 -310.15967
-150.36591 991.17419 -310.15967
-146.80836 981.54541 -291.43335
-142.0726 981.54541 -291.43335
-137.33684 981.54541 -291.43335
-132.60106 981.54541 -291.43335
-127.86538 981.54541 -291.43335
-123.12961 981.54541 -291.43335
-139.30234 762.83276 133.92261
-133.73022 762.83276 133.92261
-126.98864 776.12964 108.0625
-121.46747 776.12964 108.0625
-115.94621 776.12964 108.0625
-110.42493 776.12964 108.0625
-104.90366 776.12964 108.0625
-98.467163 789.42676 82.201904
-92.996849 789.42676 82.201904
-87.526421 789.42676 82.201904
-82.056 789.42676 82.201904
-75.898277 802.26514 57.233643
-70.476952 802.26514 57.233643
-65.055725 802.26514 57.233643
-59.634396 802.26514 57.233643
-54.21307 802.26514 57.233643
-48.79174 802.26514 57.233643
-43.370415 802.26514 57.233643
-37.949188 802.26514 57.233643
-32.527863 802.26514 57.233643
-27.106535 802.26514 57.233643
-21.881578 789.42676 82.201904
-16.41116 789.42676 82.201904
-10.940842 789.42676 82.201904
-5.4704208 789.42676 82.201904
0 789.42676 82.201904
5.4703169 789.42676 82.201904
10.940842 789.42676 82.201904
16.41116 789.42676 82.201904
22.085073 776.12964 108.0625
27.606234 776.12964 108.0625
33.127396 776.12964 108.0625
38.648773 776.12964 108.0625
44.576702 762.83276 133.92261
49.691303 776.12964 108.0625
55.212467 776.12964 108.0625
61.292946 762.83276 133.92261
66.865166 762.83276 133.92261
72.437172 762.83276 133.92261
78.009399 762.83276 133.92261
83.581406 762.83276 133.92261
89.99501 749.07715 160.67456
95.619835 749.07715 160.67456
101.24444 749.07715 160.67456
106.86926 749.07715 160.67456
112.49387 749.07715 160.67456
119.22308 735.32166 187.42627
124.90051 735.32166 187.42627
129.3679 749.07715 160.67456
134.99274 749.07715 160.67456
140.61734 749.07715 160.67456
144.87434 762.83276 133.92261
150.44656 762.83276 133.92261
156.01857 762.83276 133.92261
161.59081 762.83276 133.92261
167.16281 762.83276 133.92261
172.73482 762.83276 133.92261
178.30704 762.83276 133.92261
183.87904 762.83276 133.92261
189.45126 762.83276 133.92261
196.86427 749.07715 160.67456
204.38248 735.32166 187.42627
210.05991 735.32166 187.42627
215.73711 735.32166 187.42627
221.41454 735.32166 187.42627
227.09174 735.32166 187.42627
234.99742 721.10767 215.07007
240.72922 721.10767 215.07007
249.80101 735.32166 187.42627
255.47821 735.32166 187.42627
263.65567 721.10767 215.07007
266.83286 735.32166 187.42627
272.51004 735.32166 187.42627
278.18747 735.32166 187.42627
283.86469 735.32166 187.42627
289.54187 735.32166 187.42627
295.2193 735.32166 187.42627
300.89655 735.32166 187.42627
306.57394 735.32166 187.42627
312.25116 735.32166 187.42627
320.97214 721.10767 215.07007
326.70392 721.10767 215.07007
332.43549 721.10767 215.07007
338.16727 721.10767 215.07007
343.8988 721.10767 215.07007
-194.16591 977.18604 -293.28369
-187.95734 986.84875 -311.99561
-181.8224 996.51147 -330.70776
-177.16028 996.51147 -330.70776
-173.86058 986.84875 -311.99561
-169.16162 986.84875 -311.99561
-164.46268 986.84875 -311.99561
-159.76372 986.84875 -311.99561
-155.06477 986.84875 -311.99561
-150.36591 986.84875 -311.99561
-146.80836 977.18604 -293.28369
-142.0726 977.18604 -293.28369
-138.45546 967.06323 -273.68091
-133.68112 967.06323 -273.68091
-128.90686 967.06323 -273.68091
-138.03117 771.04724 105.90503
-126.98864 771.04724 105.90503
-121.46747 771.04724 105.90503
-115.94621 771.04724 105.90503
-110.42493 771.04724 105.90503
-103.93758 784.39111 80.064453
-98.467163 784.39111 80.064453
-92.996849 784.39111 80.064453
-87.526421 784.39111 80.064453
-82.056 784.39111 80.064453
-75.898277 797.27478 55.115479
-70.476952 797.27478 55.115479
-65.055725 797.27478 55.115479
-59.634396 797.27478 55.115479
-54.21307 797.27478 55.115479
-48.79174 797.27478 55.115479
-43.370415 797.27478 55.115479
-37.949188 797.27478 55.115479
-32.527863 797.27478 55.115479
-27.106535 797.27478 55.115479
-21.881578 784.39111 80.064453
-16.41116 784.39111 80.064453
-10.940842 784.39111 80.064453
-5.4704208 784.39111 80.064453
0 784.39111 80.064453
5.4703169 784.39111 80.064453
10.940842 784.39111 80.064453
16.41116 784.39111 80.064453
22.085073 771.04724 105.90503
27.606234 771.04724 105.90503
33.127396 771.04724 105.90503
38.648773 771.04724 105.90503
44.576702 757.70349 131.74536
50.148926 757.70349 131.74536
55.720936 757.70349 131.74536
61.292946 757.70349 131.74536
67.496368 743.89954 158.47681
73.120972 743.89954 158.47681
78.745796 743.89954 158.47681
84.370399 743.89954 158.47681
89.99501 743.89954 158.47681
95.619835 743.89954 158.47681
102.19124 730.0957 185.20801
107.86867 730.0957 185.20801
113.54587 730.0957 185.20801
119.22308 730.0957 185.20801
124.90051 730.0957 185.20801
130.57771 730.0957 185.20801
134.99274 743.89954 158.47681
140.61734 743.89954 158.47681
146.24194 743.89954 158.47681
150.44656 757.70349 131.74536
156.01857 757.70349 131.74536
161.59081 757.70349 131.74536
167.16281 757.70349 131.74536
172.73482 757.70349 131.74536
178.30704 757.70349 131.74536
183.87904 757.70349 131.74536
189.45126 757.70349 131.74536
196.86427 743.89954 158.47681
204.38248 730.0957 185.20801
210.05991 730.0957 185.20801
215.73711 730.0957 185.20801
221.41454 730.0957 185.20801
227.09174 730.0957 185.20801
234.99742 715.83154 212.83057
263.65567 715.83154 212.83057
266.83286 730.0957 185.20801
272.51004 730.0957 185.20801
278.18747 730.0957 185.20801
283.86469 730.0957 185.20801
289.54187 730.0957 185.20801
298.04568 715.83154 212.83057
303.77722 715.83154 212.83057
309.50903 715.83154 212.83057
315.24057 715.83154 212.83057
320.97214 715.83154 212.83057
326.70392 715.83154 212.83057
332.43549 715.83154 212.83057
338.16727 715.83154 212.83057
343.8988 715.83154 212.83057
349.63037 715.83154 212.83057
355.36215 715.83154 212.83057
-194.16591 972.82678 -295.13428
-187.95734 982.52344 -313.83179
-183.25839 982.52344 -313.83179
-178.55943 982.52344 -313.83179
-173.86058 982.52344 -313.83179
-169.16162 982.52344 -313.83179
-164.46268 982.52344 -313.83179
-159.76372 982.52344 -313.83179
-155.06477 982.52344 -313.83179
-150.36591 982.52344 -313.83179
-146.80836 972.82678 -295.13428
-142.0726 972.82678 -295.13428
-137.33684 972.82678 -295.13428
-132.60106 972.82678 -295.13428
-132.5099 765.96497 103.7478
-126.98864 765.96497 103.7478
-121.46747 765.96497 103.7478
-115.94621 765.96497 103.7478
-110.42493 765.96497 103.7478
-103.93758 779.35571 77.927002
-98.467163 779.35571 77.927002
-92.996849 779.35571 77.927002
-87.526421 779.35571 77.927002
-82.056 779.35571 77.927002
-76.585587 779.35571 77.927002
-70.476952 792.28455 52.99707
-65.055725 792.28455 52.99707
-59.634396 792.28455 52.99707
-54.21307 792.28455 52.99707
-48.79174 792.28455 52.99707
-43.370415 792.28455 52.99707
-37.949188 792.28455 52.99707
-32.527863 792.28455 52.99707
-27.106535 792.28455 52.99707
-21.881578 779.35571 77.927002
-16.41116 779.35571 77.927002
-10.940842 779.35571 77.927002
-5.4704208 779.35571 77.927002
0 779.35571 77.927002
5.4703169 779.35571 77.927002
10.940842 779.35571 77.927002
16.563698 765.96497 103.7478
22.085073 765.96497 103.7478
27.606234 765.96497 103.7478
33.127396 765.96497 103.7478
39.0047 752.57446 129.56812
44.576702 752.57446 129.56812
50.622326 738.72205 156.27905
56.246937 738.72205 156.27905
61.871544 738.72205 156.27905
67.496368 738.72205 156.27905
73.120972 738.72205 156.27905
78.745796 738.72205 156.27905
85.159401 724.86975 182.98975
90.836609 724.86975 182.98975
96.514038 724.86975 182.98975
102.19124 724.86975 182.98975
107.86867 724.86975 182.98975
113.54587 724.86975 182.98975
119.22308 724.86975 182.98975
124.90051 724.86975 182.98975
130.57771 724.86975 182.98975
136.25513 724.86975 182.98975
140.61734 738.72205 156.27905
146.24194 738.72205 156.27905
150.44656 752.57446 129.56812
156.01857 752.57446 129.56812
160.11624 765.96497 103.7478
165.63741 765.96497 103.7478
171.15857 765.96497 103.7478
178.30704 752.57446 129.56812
183.87904 752.57446 129.56812
189.45126 752.57446 129.56812
196.86427 738.72205 156.27905
202.48888 738.72205 156.27905
210.05991 724.86975 182.98975
215.73711 724.86975 182.98975
223.53432 710.55566 210.59106
229.26587 710.55566 210.59106
234.99742 710.55566 210.59106
266.83286 724.86975 182.98975
272.51004 724.86975 182.98975
278.18747 724.86975 182.98975
283.86469 724.86975 182.98975
289.54187 724.86975 182.98975
295.2193 724.86975 182.98975
303.77722 710.55566 210.59106
309.50903 710.55566 210.59106
315.24057 710.55566 210.59106
320.97214 710.55566 210.59106
326.70392 710.55566 210.59106
332.43549 710.55566 210.59106
338.16727 710.55566 210.59106
343.8988 710.55566 210.59106
349.63037 710.55566 210.59106
355.36215 710.55566 210.59106
-194.16591 968.46753 -296.98462
-187.95734 978.198 -315.66772
-183.25839 978.198 -315.66772
-178.55943 978.198 -315.66772
-173.86058 978.198 -315.66772
-169.16162 978.198 -315.66772
-164.46268 978.198 -315.66772
-159.76372 978.198 -315.66772
-155.06477 978.198 -315.66772
-150.36591 978.198 -315.66772
-146.80836 968.46753 -296.98462
-142.0726 968.46753 -296.98462
-137.33684 968.46753 -296.98462
-127.86538 968.46753 -296.98462
-123.12961 968.46753 -296.98462
-126.98864 760.88257 101.59033
-121.46747 760.88257 101.59033
-115.94621 760.88257 101.59033
-110.42493 760.88257 101.59033
-103.93758 774.32007 75.789551
-98.467163 774.32007 75.789551
-92.996849 774.32007 75.789551
-87.526421 774.32007 75.789551
-82.056 774.32007 75.789551
-76.585587 774.32007 75.789551
-71.115158 774.32007 75.789551
-65.055725 787.29407 50.878906
-59.634396 787.29407 50.878906
-54.21307 787.29407 50.878906
-48.79174 787.29407 50.878906
-43.763157 774.32007 75.789551
-37.949188 787.29407 50.878906
-32.527863 787.29407 50.878906
-27.106535 787.29407 50.878906
-22.084965 760.88257 101.59033
-16.41116 774.32007 75.789551
-10.940842 774.32007 75.789551
-5.4704208 774.32007 75.789551
0 774.32007 75.789551
5.4703169 774.32007 75.789551
10.940842 774.32007 75.789551
16.563698 760.88257 101.59033
22.085073 760.88257 101.59033
27.606234 760.88257 101.59033
33.127396 760.88257 101.59033
39.0047 747.44519 127.39087
44.997505 733.54443 154.0813
50.622326 733.54443 154.0813
56.246937 733.54443 154.0813
62.450146 719.64368 180.77148
68.127563 719.64368 180.77148
73.804771 719.64368 180.77148
79.482201 719.64368 180.77148
85.159401 719.64368 180.77148
90.836609 719.64368 180.77148
96.514038 719.64368 180.77148
102.19124 719.64368 180.77148
107.86867 719.64368 180.77148
113.54587 719.64368 180.77148
119.22308 719.64368 180.77148
124.90051 719.64368 180.77148
130.57771 719.64368 180.77148
136.25513 719.64368 180.77148
140.61734 733.54443 154.0813
146.24194 733.54443 154.0813
150.44656 747.44519 127.39087
156.01857 747.44519 127.39087
160.11624 760.88257 101.59033
165.63741 760.88257 101.59033
171.15857 760.88257 101.59033
178.30704 747.44519 127.39087
183.87904 747.44519 127.39087
189.45126 747.44519 127.39087
196.86427 733.54443 154.0813
202.48888 733.54443 154.0813
210.05991 719.64368 180.77148
215.73711 719.64368 180.77148
223.53432 705.27954 208.35132
229.26587 705.27954 208.35132
234.99742 705.27954 208.35132
272.51004 719.64368 180.77148
278.18747 719.64368 180.77148
283.86469 719.64368 180.77148
289.54187 719.64368 180.77148
295.2193 719.64368 180.77148
303.77722 705.27954 208.35132
309.50903 705.27954 208.35132
315.24057 705.27954 208.35132
320.97214 705.27954 208.35132
326.70392 705.27954 208.35132
332.43549 705.27954 208.35132
338.16727 705.27954 208.35132
343.8988 705.27954 208.35132
349.63037 705.27954 208.35132
355.36215 705.27954 208.35132
-192.6563 973.87256 -317.50391
-187.95734 973.87256 -317.50391
-183.25839 973.87256 -317.50391
-178.55943 973.87256 -317.50391
-173.86058 973.87256 -317.50391
-169.16162 973.87256 -317.50391
-165.75137 964.10815 -298.83496
-159.76372 973.87256 -317.50391
-155.06477 973.87256 -317.50391
-150.36591 973.87256 -317.50391
-146.80836 964.10815 -298.83496
-142.0726 964.10815 -298.83496
-137.33684 964.10815 -298.83496
-132.60106 964.10815 -298.83496
-127.86538 964.10815 -298.83496
-123.12961 964.10815 -298.83496
-125.81916 769.28455 73.6521
-120.34885 769.28455 73.6521
-115.94621 755.80017 99.433105
-110.42493 755.80017 99.433105
-103.93758 769.28455 73.6521
-98.467163 769.28455 73.6521
-92.996849 769.28455 73.6521
-87.526421 769.28455 73.6521
-82.056 769.28455 73.6521
-76.585587 769.28455 73.6521
-71.115158 769.28455 73.6521
-65.055725 782.30371 48.760498
-59.634396 782.30371 48.760498
-54.21307 782.30371 48.760498
-48.79174 782.30371 48.760498
-43.763157 769.28455 73.6521
-37.949188 782.30371 48.760498
-32.527863 782.30371 48.760498
-27.106535 782.30371 48.760498
-22.084965 755.80017 99.433105
-16.41116 769.28455 73.6521
-10.940842 769.28455 73.6521
-5.4704208 769.28455 73.6521
0 769.28455 73.6521
5.4703169 769.28455 73.6521
11.042537 755.80017 99.433105
16.563698 755.80017 99.433105
22.085073 755.80017 99.433105
27.606234 755.80017 99.433105
33.432476 742.31604 125.21362
39.372898 728.36682 151.88354
45.418304 714.41772 178.55322
51.095726 714.41772 178.55322
56.772934 714.41772 178.55322
62.450146 714.41772 178.55322
68.127563 714.41772 178.55322
73.804771 714.41772 178.55322
79.482201 714.41772 178.55322
85.159401 714.41772 178.55322
90.836609 714.41772 178.55322
96.514038 714.41772 178.55322
102.19124 714.41772 178.55322
107.86867 714.41772 178.55322
113.54587 714.41772 178.55322
120.36449 700.00342 206.11182
124.90051 714.41772 178.55322
130.57771 714.41772 178.55322
136.25513 714.41772 178.55322
140.61734 728.36682 151.88354
146.24194 728.36682 151.88354
151.86678 728.36682 151.88354
156.01857 742.31604 125.21362
160.11624 755.80017 99.433105
165.63741 755.80017 99.433105
171.15857 755.80017 99.433105
178.30704 742.31604 125.21362
183.87904 742.31604 125.21362
189.45126 742.31604 125.21362
196.86427 728.36682 151.88354
202.48888 728.36682 151.88354
210.05991 714.41772 178.55322
215.73711 714.41772 178.55322
223.53432 700.00342 206.11182
229.26587 700.00342 206.11182
234.99742 700.00342 206.11182
272.51004 714.41772 178.55322
278.18747 714.41772 178.55322
283.86469 714.41772 178.55322
289.54187 714.41772 178.55322
295.2193 714.41772 178.55322
300.89655 714.41772 178.55322
309.50903 700.00342 206.11182
315.24057 700.00342 206.11182
320.97214 700.00342 206.11182
326.70392 700.00342 206.11182
332.43549 700.00342 206.11182
341.37411 685.58936 233.67065
343.8988 700.00342 206.11182
349.63037 700.00342 206.11182
355.36215 700.00342 206.11182
-192.6563 969.54724 -319.33984
-187.95734 969.54724 -319.33984
-183.25839 969.54724 -319.33984
-178.55943 969.54724 -319.33984
-175.22292 959.7489 -300.6853
-170.48714 959.7489 -300.6853
-165.75137 959.7489 -300.6853
-159.76372 969.54724 -319.33984
-155.06477 969.54724 -319.33984
-151.54414 959.7489 -300.6853
-146.80836 959.7489 -300.6853
-142.0726 959.7489 -300.6853
-137.33684 959.7489 -300.6853
-132.60106 959.7489 -300.6853
-127.86538 959.7489 -300.6853
-125.81916 764.24902 71.514648
-120.34885 764.24902 71.514648
-115.94621 750.7179 97.275635
-110.42493 750.7179 97.275635
-103.93758 764.24902 71.514648
-98.467163 764.24902 71.514648
-92.996849 764.24902 71.514648
-87.526421 764.24902 71.514648
-82.056 764.24902 71.514648
-76.585587 764.24902 71.514648
-71.115158 764.24902 71.514648
-65.055725 777.31348 46.642334
-59.634396 777.31348 46.642334
-54.21307 777.31348 46.642334
-48.79174 777.31348 46.642334
-43.370415 777.31348 46.642334
-37.949188 777.31348 46.642334
-32.527863 777.31348 46.642334
-27.106535 777.31348 46.642334
-22.084965 750.7179 97.275635
-16.41116 764.24902 71.514648
-10.940842 764.24902 71.514648
-5.4704208 764.24902 71.514648
0 764.24902 71.514648
5.4703169 764.24902 71.514648
11.042537 750.7179 97.275635
16.563698 750.7179 97.275635
22.085073 750.7179 97.275635
27.606234 750.7179 97.275635
33.432476 737.18689 123.03662
39.7411 709.19177 176.33496
45.418304 709.19177 176.33496
51.095726 709.19177 176.33496
56.772934 709.19177 176.33496
62.450146 709.19177 176.33496
68.127563 709.19177 176.33496
73.804771 709.19177 176.33496
79.482201 709.19177 176.33496
85.159401 709.19177 176.33496
90.836609 709.19177 176.33496
96.514038 709.19177 176.33496
102.19124 709.19177 176.33496
108.90137 694.72754 203.87231
114.63293 694.72754 203.87231
120.36449 694.72754 203.87231
126.09628 694.72754 203.87231
130.57771 709.19177 176.33496
136.25513 709.19177 176.33496
140.61734 723.18933 149.68579
146.24194 723.18933 149.68579
150.44656 737.18689 123.03662
156.01857 737.18689 123.03662
160.11624 750.7179 97.275635
165.63741 750.7179 97.275635
171.15857 750.7179 97.275635
178.30704 737.18689 123.03662
183.87904 737.18689 123.03662
191.23967 723.18933 149.68579
196.86427 723.18933 149.68579
202.48888 723.18933 149.68579
210.05991 709.19177 176.33496
215.73711 709.19177 176.33496
223.53432 694.72754 203.87231
229.26587 694.72754 203.87231
237.22592 680.26331 231.40991
275.61008 723.18933 149.68579
281.23468 723.18933 149.68579
289.54187 709.19177 176.33496
295.2193 709.19177 176.33496
300.89655 709.19177 176.33496
306.57394 709.19177 176.33496
312.25116 709.19177 176.33496
317.92834 709.19177 176.33496
326.70392 694.72754 203.87231
332.43549 694.72754 203.87231
341.37411 680.26331 231.40991
347.16 680.26331 231.40991
352.94592 680.26331 231.40991
-192.6563 965.2218 -321.17578
-187.95734 965.2218 -321.17578
-183.25839 965.2218 -321.17578
-179.9586 955.38953 -302.53589
-175.22292 955.38953 -302.53589
-170.48714 955.38953 -302.53589
-165.75137 955.38953 -302.53589
-161.01561 955.38953 -302.53589
-156.27983 955.38953 -302.53589
-151.54414 955.38953 -302.53589
-146.80836 955.38953 -302.53589
-142.0726 955.38953 -302.53589
-137.33684 955.38953 -302.53589
-132.60106 955.38953 -302.53589
-128.90686 945.08911 -283.0083
-126.98864 745.6355 95.118408
-121.46747 745.6355 95.118408
-115.94621 745.6355 95.118408
-110.42493 745.6355 95.118408
-104.90366 745.6355 95.118408
-99.382401 745.6355 95.118408
-92.996849 759.2135 69.377197
-87.526421 759.2135 69.377197
-82.056 759.2135 69.377197
-76.585587 759.2135 69.377197
-71.115158 759.2135 69.377197
-65.055725 772.323 44.523926
-59.634396 772.323 44.523926
-54.704002 759.2135 69.377197
-49.233582 759.2135 69.377197
-43.370415 772.323 44.523926
-37.949188 772.323 44.523926
-32.527863 772.323 44.523926
-27.106535 772.323 44.523926
-21.685207 772.323 44.523926
-16.41116 759.2135 69.377197
-10.940842 759.2135 69.377197
-5.4704208 759.2135 69.377197
0 759.2135 69.377197
5.521163 745.6355 95.118408
11.042537 745.6355 95.118408
16.563698 745.6355 95.118408
22.085073 745.6355 95.118408
27.606234 745.6355 95.118408
33.432476 732.05774 120.85938
39.7411 703.9657 174.11646
45.85313 689.45142 201.63281
51.584908 689.45142 201.63281
56.772934 703.9657 174.11646
62.450146 703.9657 174.11646
68.127563 703.9657 174.11646
73.804771 703.9657 174.11646
79.482201 703.9657 174.11646
85.159401 703.9657 174.11646
90.836609 703.9657 174.11646
96.514038 703.9657 174.11646
102.19124 703.9657 174.11646
108.90137 689.45142 201.63281
114.63293 689.45142 201.63281
120.36449 689.45142 201.63281
126.09628 689.45142 201.63281
130.57771 703.9657 174.11646
136.25513 703.9657 174.11646
140.61734 718.01172 147.48804
144.87434 732.05774 120.85938
150.44656 732.05774 120.85938
154.59486 745.6355 95.118408
160.11624 745.6355 95.118408
165.63741 745.6355 95.118408
171.15857 745.6355 95.118408
178.30704 732.05774 120.85938
183.87904 732.05774 120.85938
191.23967 718.01172 147.48804
196.86427 718.01172 147.48804
202.48888 718.01172 147.48804
210.05991 703.9657 174.11646
215.73711 703.9657 174.11646
223.53432 689.45142 201.63281
229.26587 689.45142 201.63281
237.22592 674.93726 229.14893
275.61008 718.01172 147.48804
281.23468 718.01172 147.48804
286.85928 718.01172 147.48804
295.2193 703.9657 174.11646
300.89655 703.9657 174.11646
306.57394 703.9657 174.11646
312.25116 703.9657 174.11646
317.92834 703.9657 174.11646
326.70392 689.45142 201.63281
332.43549 689.45142 201.63281
341.37411 674.93726 229.14893
347.16 674.93726 229.14893
352.94592 674.93726 229.14893
-192.6563 960.89648 -323.01172
-187.95734 960.89648 -323.01172
-184.69438 951.0304 -304.38623
-179.9586 951.0304 -304.38623
-175.22292 951.0304 -304.38623
-170.48714 951.0304 -304.38623
-165.75137 951.0304 -304.38623
-161.01561 951.0304 -304.38623
-156.27983 951.0304 -304.38623
-151.54414 951.0304 -304.38623
-146.80836 951.0304 -304.38623
-142.0726 951.0304 -304.38623
-137.33684 951.0304 -304.38623
-132.60106 951.0304 -304.38623
-128.90686 940.69446 -284.87378
-128.15811 726.92871 118.68213
-121.46747 740.55322 92.961182
-115.94621 740.55322 92.961182
-110.42493 740.55322 92.961182
-104.90366 740.55322 92.961182
-99.382401 740.55322 92.961182
-92.996849 754.17798 67.239746
-87.526421 754.17798 67.239746
-82.818703 740.55322 92.961182
-76.585587 754.17798 67.239746
-71.115158 754.17798 67.239746
-65.055725 767.33276 42.405762
-59.634396 767.33276 42.405762
-54.704002 754.17798 67.239746
-48.79174 767.33276 42.405762
-43.370415 767.33276 42.405762
-37.949188 767.33276 42.405762
-32.527863 767.33276 42.405762
-27.106535 767.33276 42.405762
-21.685207 767.33276 42.405762
-16.41116 754.17798 67.239746
-10.940842 754.17798 67.239746
-5.4704208 754.17798 67.239746
0 754.17798 67.239746
5.521163 740.55322 92.961182
11.042537 740.55322 92.961182
16.563698 740.55322 92.961182
22.085073 740.55322 92.961182
27.860468 726.92871 118.68213
34.063675 698.73975 171.89819
40.121571 684.17554 199.39331
45.85313 684.17554 199.39331
51.584908 684.17554 199.39331
57.316467 684.17554 199.39331
63.048027 684.17554 199.39331
68.127563 698.73975 171.89819
73.804771 698.73975 171.89819
79.482201 698.73975 171.89819
85.159401 698.73975 171.89819
90.836609 698.73975 171.89819
96.514038 698.73975 171.89819
103.16959 684.17554 199.39331
108.90137 684.17554 199.39331
114.63293 684.17554 199.39331
120.36449 684.17554 199.39331
126.09628 684.17554 199.39331
131.82784 684.17554 199.39331
136.25513 698.73975 171.89819
140.61734 712.83423 145.29028
144.87434 726.92871 118.68213
150.44656 726.92871 118.68213
154.59486 740.55322 92.961182
160.11624 740.55322 92.961182
165.63741 740.55322 92.961182
171.15857 740.55322 92.961182
178.30704 726.92871 118.68213
183.87904 726.92871 118.68213
191.23967 712.83423 145.29028
196.86427 712.83423 145.29028
204.38248 698.73975 171.89819
210.05991 698.73975 171.89819
215.73711 698.73975 171.89819
223.53432 684.17554 199.39331
229.26587 684.17554 199.39331
234.99742 684.17554 199.39331
275.61008 712.83423 145.29028
281.23468 712.83423 145.29028
286.85928 712.83423 145.29028
295.2193 698.73975 171.89819
300.89655 698.73975 171.89819
306.57394 698.73975 171.89819
312.25116 698.73975 171.89819
317.92834 698.73975 171.89819
326.70392 684.17554 199.39331
332.43549 684.17554 199.39331
338.16727 684.17554 199.39331
347.16 669.61133 226.88818
-191.14668 966.47095 -343.45898
-186.48454 966.47095 -343.45898
-183.25839 956.57104 -324.8479
-179.9586 946.67102 -306.23657
-175.22292 946.67102 -306.23657
-170.48714 946.67102 -306.23657
-165.75137 946.67102 -306.23657
-161.01561 946.67102 -306.23657
-156.27983 946.67102 -306.23657
-151.54414 946.67102 -306.23657
-146.80836 946.67102 -306.23657
-142.0726 946.67102 -306.23657
-137.33684 946.67102 -306.23657
-132.60106 946.67102 -306.23657
-127.86538 946.67102 -306.23657
-123.12961 946.67102 -306.23657
-133.73022 721.79944 116.50488
-128.15811 721.79944 116.50488
-122.58611 721.79944 116.50488
-117.01398 721.79944 116.50488
-111.44187 721.79944 116.50488
-104.90366 735.47083 90.803711
-99.382401 735.47083 90.803711
-93.861237 735.47083 90.803711
-88.339973 735.47083 90.803711
-82.818703 735.47083 90.803711
-76.585587 749.14246 65.102295
-71.115158 749.14246 65.102295
-65.644844 749.14246 65.102295
-60.174423 749.14246 65.102295
-54.704002 749.14246 65.102295
-48.79174 762.34241 40.287598
-43.370415 762.34241 40.287598
-37.949188 762.34241 40.287598
-32.527863 762.34241 40.287598
-27.106535 762.34241 40.287598
-21.685207 762.34241 40.287598
-16.41116 749.14246 65.102295
-10.940842 749.14246 65.102295
-5.4704208 749.14246 65.102295
0 749.14246 65.102295
5.521163 735.47083 90.803711
11.042537 735.47083 90.803711
16.563698 735.47083 90.803711
22.085073 735.47083 90.803711
27.860468 721.79944 116.50488
34.063675 693.51379 169.67993
40.121571 678.89941 197.15381
45.85313 678.89941 197.15381
51.584908 678.89941 197.15381
57.316467 678.89941 197.15381
63.048027 678.89941 197.15381
68.779808 678.89941 197.15381
74.51136 678.89941 197.15381
80.243141 678.89941 197.15381
85.974701 678.89941 197.15381
91.706261 678.89941 197.15381
97.438042 678.89941 197.15381
103.16959 678.89941 197.15381
108.90137 678.89941 197.15381
114.63293 678.89941 197.15381
120.36449 678.89941 197.15381
126.09628 678.89941 197.15381
131.82784 678.89941 197.15381
136.25513 693.51379 169.67993
140.61734 707.65662 143.09253
146.24194 707.65662 143.09253
150.44656 721.79944 116.50488
154.59486 735.47083 90.803711
160.11624 735.47083 90.803711
165.63741 735.47083 90.803711
171.15857 735.47083 90.803711
178.30704 721.79944 116.50488
183.87904 721.79944 116.50488
191.23967 707.65662 143.09253
196.86427 707.65662 143.09253
204.38248 693.51379 169.67993
210.05991 693.51379 169.67993
215.73711 693.51379 169.67993
223.53432 678.89941 197.15381
229.26587 678.89941 197.15381
234.99742 678.89941 197.15381
275.61008 707.65662 143.09253
281.23468 707.65662 143.09253
286.85928 707.65662 143.09253
295.2193 693.51379 169.67993
300.89655 693.51379 169.67993
306.57394 693.51379 169.67993
315.24057 678.89941 197.15381
320.97214 678.89941 197.15381
326.70392 678.89941 197.15381
332.43549 678.89941 197.15381
338.16727 678.89941 197.15381
343.8988 678.89941 197.15381
349.63037 678.89941 197.15381
-191.14668 962.17957 -345.28076
-186.48454 962.17957 -345.28076
-181.8224 962.17957 -345.28076
-178.55943 952.24561 -326.68384
-175.22292 942.31177 -308.08691
-170.48714 942.31177 -308.08691
-165.75137 942.31177 -308.08691
-161.01561 942.31177 -308.08691
-156.27983 942.31177 -308.08691
-151.54414 942.31177 -308.08691
-146.80836 942.31177 -308.08691
-142.0726 942.31177 -308.08691
-137.33684 942.31177 -308.08691
-133.68112 931.90491 -288.60474
-128.90686 931.90491 -288.60474
-133.73022 716.67041 114.32788
-128.15811 716.67041 114.32788
-122.58611 716.67041 114.32788
-117.01398 716.67041 114.32788
-111.44187 716.67041 114.32788
