ply
format ascii 1.0
comment PCL generated
element vertex 1535
property float x
property float y
property float z
element camera 0
property float view_px
property float view_py
property float view_pz
property float x_axisx
property float x_axisy
property float x_axisz
property float y_axisx
property float y_axisy
property float y_axisz
property float z_axisx
property float z_axisy
property float z_axisz
property float focal
property float scalex
property float scaley
property float centerx
property float centery
property int viewportx
property int viewporty
property float k1
property float k2
end_header
-88.746681 1171.1868 -90.349365
-83.816391 1171.1868 -90.349365
-78.885994 1171.1868 -90.349365
-73.955605 1171.1868 -90.349365
-69.025208 1171.1868 -90.349365
-64.094818 1171.1868 -90.349365
-59.16452 1171.1868 -90.349365
-54.234131 1171.1868 -90.349365
-49.303734 1171.1868 -90.349365
-44.373341 1171.1868 -90.349365
-39.442951 1171.1868 -90.349365
-34.51265 1171.1868 -90.349365
-29.58226 1171.1868 -90.349365
-24.450233 1179.7653 -111.69434
-19.560167 1179.7653 -111.69434
-14.670103 1179.7653 -111.69434
-9.7801313 1179.7653 -111.69434
-4.8900657 1179.7653 -111.69434
0 1179.7653 -111.69434
4.8899722 1179.7653 -111.69434
9.7801313 1179.7653 -111.69434
14.670103 1179.7653 -111.69434
19.560263 1179.7653 -111.69434
24.450233 1179.7653 -111.69434
29.340206 1179.7653 -111.69434
34.230366 1179.7653 -111.69434
39.120335 1179.7653 -111.69434
44.010494 1179.7653 -111.69434
48.900467 1179.7653 -111.69434
53.79044 1179.7653 -111.69434
58.680603 1179.7653 -111.69434
63.570568 1179.7653 -111.69434
68.460732 1179.7653 -111.69434
73.3507 1179.7653 -111.69434
78.240669 1179.7653 -111.69434
83.816391 1171.1868 -90.349365
88.746681 1171.1868 -90.349365
93.67717 1171.1868 -90.349365
98.607468 1171.1868 -90.349365
103.53777 1171.1868 -90.349365
108.46826 1171.1868 -90.349365
113.39855 1171.1868 -90.349365
118.32904 1171.1868 -90.349365
123.25934 1171.1868 -90.349365
128.18964 1171.1868 -90.349365
133.12013 1171.1868 -90.349365
138.05042 1171.1868 -90.349365
142.98091 1171.1868 -90.349365
149.121 1162.6083 -69.004395
155.3961 1153.6569 -46.731445
160.409 1153.6569 -46.731445
166.81035 1144.7054 -24.458496
171.86531 1144.7054 -24.458496
176.9201 1144.7054 -24.458496
183.5529 1135.381 -1.2575684
188.6517 1135.381 -1.2575684
193.75031 1135.381 -1.2575684
198.84912 1135.381 -1.2575684
203.94774 1135.381 -1.2575684
209.04636 1135.381 -1.2575684
214.14517 1135.381 -1.2575684
219.24377 1135.381 -1.2575684
224.34259 1135.381 -1.2575684
229.44121 1135.381 -1.2575684
234.53983 1135.381 -1.2575684
241.69881 1126.0565 21.943604
246.84125 1126.0565 21.943604
251.98389 1126.0565 21.943604
259.31802 1116.7321 45.144775
264.5043 1116.7321 45.144775
269.69077 1116.7321 45.144775
274.87704 1116.7321 45.144775
280.06351 1116.7321 45.144775
287.75708 1107.0347 69.273682
-250.63901 1149.0426 -48.690186
-245.62621 1149.0426 -48.690186
-242.63324 1140.0525 -26.433594
-237.57848 1140.0525 -26.433594
-234.53992 1130.6876 -3.2497559
-227.4687 1140.0525 -26.433594
-222.41383 1140.0525 -26.433594
-217.35895 1140.0525 -26.433594
-214.14517 1130.6876 -3.2497559
-209.04645 1130.6876 -3.2497559
-203.94774 1130.6876 -3.2497559
-197.13953 1140.0525 -26.433594
-192.08464 1140.0525 -26.433594
-187.02988 1140.0525 -26.433594
-181.97498 1140.0525 -26.433594
-176.9201 1140.0525 -26.433594
-171.86523 1140.0525 -26.433594
-165.42172 1149.0426 -48.690186
-160.409 1149.0426 -48.690186
-155.39621 1149.0426 -48.690186
-149.121 1158.0328 -70.946533
-144.15028 1158.0328 -70.946533
-139.17957 1158.0328 -70.946533
-134.20894 1158.0328 -70.946533
-128.18973 1166.6484 -92.275879
-123.25934 1166.6484 -92.275879
-118.32894 1166.6484 -92.275879
-113.39855 1166.6484 -92.275879
-108.46826 1166.6484 -92.275879
-103.53786 1166.6484 -92.275879
-98.607468 1166.6484 -92.275879
-93.677078 1166.6484 -92.275879
-88.746681 1166.6484 -92.275879
-83.816391 1166.6484 -92.275879
-78.885994 1166.6484 -92.275879
-73.955605 1166.6484 -92.275879
-69.025208 1166.6484 -92.275879
-64.094818 1166.6484 -92.275879
-59.16452 1166.6484 -92.275879
-54.234131 1166.6484 -92.275879
-49.303734 1166.6484 -92.275879
-44.373341 1166.6484 -92.275879
-39.442951 1166.6484 -92.275879
-34.51265 1166.6484 -92.275879
-29.58226 1166.6484 -92.275879
-24.450233 1175.264 -113.60498
-19.560167 1175.264 -113.60498
-14.670103 1175.264 -113.60498
-9.7801313 1175.264 -113.60498
-4.8900657 1175.264 -113.60498
0 1175.264 -113.60498
4.8899722 1175.264 -113.60498
9.7801313 1175.264 -113.60498
14.670103 1175.264 -113.60498
19.560263 1175.264 -113.60498
24.450233 1175.264 -113.60498
29.340206 1175.264 -113.60498
34.230366 1175.264 -113.60498
39.120335 1175.264 -113.60498
44.010494 1175.264 -113.60498
48.900467 1175.264 -113.60498
53.79044 1175.264 -113.60498
58.680603 1175.264 -113.60498
63.570568 1175.264 -113.60498
68.460732 1175.264 -113.60498
73.3507 1175.264 -113.60498
78.240669 1175.264 -113.60498
83.816391 1166.6484 -92.275879
88.746681 1166.6484 -92.275879
93.67717 1166.6484 -92.275879
98.607468 1166.6484 -92.275879
103.53777 1166.6484 -92.275879
108.46826 1166.6484 -92.275879
113.39855 1166.6484 -92.275879
118.32904 1166.6484 -92.275879
123.25934 1166.6484 -92.275879
128.18964 1166.6484 -92.275879
133.12013 1166.6484 -92.275879
138.05042 1166.6484 -92.275879
144.15038 1158.0328 -70.946533
149.121 1158.0328 -70.946533
155.3961 1149.0426 -48.690186
160.409 1149.0426 -48.690186
166.81035 1140.0525 -26.433594
171.86531 1140.0525 -26.433594
176.9201 1140.0525 -26.433594
183.5529 1130.6876 -3.2497559
188.6517 1130.6876 -3.2497559
193.75031 1130.6876 -3.2497559
198.84912 1130.6876 -3.2497559
203.94774 1130.6876 -3.2497559
209.04636 1130.6876 -3.2497559
214.14517 1130.6876 -3.2497559
219.24377 1130.6876 -3.2497559
224.34259 1130.6876 -3.2497559
229.44121 1130.6876 -3.2497559
234.53983 1130.6876 -3.2497559
241.69881 1121.3229 19.934326
246.84125 1121.3229 19.934326
254.13171 1111.958 43.118164
259.31802 1111.958 43.118164
264.5043 1111.958 43.118164
269.69077 1111.958 43.118164
274.87704 1111.958 43.118164
282.52521 1102.2188 67.229492
287.75708 1102.2188 67.229492
-257.79788 1135.3994 -28.408691
-252.74301 1135.3994 -28.408691
-247.68814 1135.3994 -28.408691
-242.63324 1135.3994 -28.408691
-237.57848 1135.3994 -28.408691
-232.52357 1135.3994 -28.408691
-227.4687 1135.3994 -28.408691
-222.41383 1135.3994 -28.408691
-217.35895 1135.3994 -28.408691
-214.14517 1125.9943 -5.2419434
-209.04645 1125.9943 -5.2419434
-203.94774 1125.9943 -5.2419434
-198.84903 1125.9943 -5.2419434
-192.08464 1135.3994 -28.408691
-187.02988 1135.3994 -28.408691
-183.55298 1125.9943 -5.2419434
-176.9201 1135.3994 -28.408691
-171.86523 1135.3994 -28.408691
-165.42172 1144.4282 -50.648682
-160.409 1144.4282 -50.648682
-155.39621 1144.4282 -50.648682
-149.121 1153.4573 -72.888672
-144.15028 1153.4573 -72.888672
-139.17957 1153.4573 -72.888672
-134.20894 1153.4573 -72.888672
-128.18973 1162.11 -94.202148
-123.25934 1162.11 -94.202148
-118.32894 1162.11 -94.202148
-113.39855 1162.11 -94.202148
-108.46826 1162.11 -94.202148
-103.53786 1162.11 -94.202148
-98.607468 1162.11 -94.202148
-93.677078 1162.11 -94.202148
-88.746681 1162.11 -94.202148
-83.816391 1162.11 -94.202148
-78.885994 1162.11 -94.202148
-73.955605 1162.11 -94.202148
-69.025208 1162.11 -94.202148
-64.094818 1162.11 -94.202148
-59.16452 1162.11 -94.202148
-54.234131 1162.11 -94.202148
-49.303734 1162.11 -94.202148
-44.373341 1162.11 -94.202148
-39.442951 1162.11 -94.202148
-34.51265 1162.11 -94.202148
-29.58226 1162.11 -94.202148
-24.450233 1170.7627 -115.51562
-19.560167 1170.7627 -115.51562
-14.670103 1170.7627 -115.51562
-9.7801313 1170.7627 -115.51562
-4.8900657 1170.7627 -115.51562
0 1170.7627 -115.51562
4.8899722 1170.7627 -115.51562
9.7801313 1170.7627 -115.51562
14.670103 1170.7627 -115.51562
19.560263 1170.7627 -115.51562
24.450233 1170.7627 -115.51562
29.340206 1170.7627 -115.51562
34.230366 1170.7627 -115.51562
39.120335 1170.7627 -115.51562
44.010494 1170.7627 -115.51562
48.900467 1170.7627 -115.51562
53.79044 1170.7627 -115.51562
58.680603 1170.7627 -115.51562
63.570568 1170.7627 -115.51562
68.460732 1170.7627 -115.51562
73.3507 1170.7627 -115.51562
78.885902 1162.11 -94.202148
83.816391 1162.11 -94.202148
88.746681 1162.11 -94.202148
93.67717 1162.11 -94.202148
98.607468 1162.11 -94.202148
103.53777 1162.11 -94.202148
108.46826 1162.11 -94.202148
113.39855 1162.11 -94.202148
118.32904 1162.11 -94.202148
123.25934 1162.11 -94.202148
128.18964 1162.11 -94.202148
133.12013 1162.11 -94.202148
138.05042 1162.11 -94.202148
145.3707 1144.4282 -50.648682
150.38341 1144.4282 -50.648682
155.3961 1144.4282 -50.648682
161.75557 1135.3994 -28.408691
166.81035 1135.3994 -28.408691
171.86531 1135.3994 -28.408691
176.9201 1135.3994 -28.408691
183.5529 1125.9943 -5.2419434
188.6517 1125.9943 -5.2419434
193.75031 1125.9943 -5.2419434
198.84912 1125.9943 -5.2419434
203.94774 1125.9943 -5.2419434
209.04636 1125.9943 -5.2419434
214.14517 1125.9943 -5.2419434
219.24377 1125.9943 -5.2419434
224.34259 1125.9943 -5.2419434
229.44121 1125.9943 -5.2419434
234.53983 1125.9943 -5.2419434
241.69881 1116.5891 17.925049
246.84125 1116.5891 17.925049
254.13171 1107.184 41.091797
259.31802 1107.184 41.091797
264.5043 1107.184 41.091797
269.69077 1107.184 41.091797
274.87704 1107.184 41.091797
282.52521 1097.4027 65.185303
287.75708 1097.4027 65.185303
-257.79788 1130.7465 -30.383789
-252.74301 1130.7465 -30.383789
-247.68814 1130.7465 -30.383789
-242.63324 1130.7465 -30.383789
-237.57848 1130.7465 -30.383789
-232.52357 1130.7465 -30.383789
-227.4687 1130.7465 -30.383789
-222.41383 1130.7465 -30.383789
-217.35895 1130.7465 -30.383789
-214.14517 1121.3009 -7.2341309
-209.04645 1121.3009 -7.2341309
-203.94774 1121.3009 -7.2341309
-198.84903 1121.3009 -7.2341309
-192.08464 1130.7465 -30.383789
-187.02988 1130.7465 -30.383789
-183.55298 1121.3009 -7.2341309
-178.45427 1121.3009 -7.2341309
-171.86523 1130.7465 -30.383789
-166.81035 1130.7465 -30.383789
-160.409 1139.814 -52.607422
-155.39621 1139.814 -52.607422
-150.38341 1139.814 -52.607422
-144.15028 1148.8817 -74.831055
-139.17957 1148.8817 -74.831055
-134.20894 1148.8817 -74.831055
-129.23822 1148.8817 -74.831055
-123.25934 1157.5715 -96.128662
-118.32894 1157.5715 -96.128662
-113.39855 1157.5715 -96.128662
-108.46826 1157.5715 -96.128662
-103.53786 1157.5715 -96.128662
-98.607468 1157.5715 -96.128662
-93.677078 1157.5715 -96.128662
-88.746681 1157.5715 -96.128662
-83.816391 1157.5715 -96.128662
-78.885994 1157.5715 -96.128662
-73.955605 1157.5715 -96.128662
-69.025208 1157.5715 -96.128662
-64.094818 1157.5715 -96.128662
-59.16452 1157.5715 -96.128662
-54.234131 1157.5715 -96.128662
-49.303734 1157.5715 -96.128662
-44.373341 1157.5715 -96.128662
-39.442951 1157.5715 -96.128662
-34.51265 1157.5715 -96.128662
-29.58226 1157.5715 -96.128662
-24.450233 1166.2614 -117.42627
-19.560167 1166.2614 -117.42627
-14.670103 1166.2614 -117.42627
-9.7801313 1166.2614 -117.42627
-4.8900657 1166.2614 -117.42627
0 1166.2614 -117.42627
4.8899722 1166.2614 -117.42627
9.7801313 1166.2614 -117.42627
14.670103 1166.2614 -117.42627
19.560263 1166.2614 -117.42627
24.450233 1166.2614 -117.42627
29.340206 1166.2614 -117.42627
34.230366 1166.2614 -117.42627
39.120335 1166.2614 -117.42627
44.010494 1166.2614 -117.42627
48.900467 1166.2614 -117.42627
53.79044 1166.2614 -117.42627
58.680603 1166.2614 -117.42627
63.570568 1166.2614 -117.42627
68.460732 1166.2614 -117.42627
73.3507 1166.2614 -117.42627
78.885902 1157.5715 -96.128662
83.816391 1157.5715 -96.128662
88.746681 1157.5715 -96.128662
93.67717 1157.5715 -96.128662
98.607468 1157.5715 -96.128662
103.53777 1157.5715 -96.128662
108.46826 1157.5715 -96.128662
113.39855 1157.5715 -96.128662
118.32904 1157.5715 -96.128662
123.25934 1157.5715 -96.128662
129.23813 1148.8817 -74.831055
133.12013 1157.5715 -96.128662
138.05042 1157.5715 -96.128662
145.3707 1139.814 -52.607422
150.38341 1139.814 -52.607422
155.3961 1139.814 -52.607422
161.75557 1130.7465 -30.383789
166.81035 1130.7465 -30.383789
171.86531 1130.7465 -30.383789
176.9201 1130.7465 -30.383789
183.5529 1121.3009 -7.2341309
188.6517 1121.3009 -7.2341309
193.75031 1121.3009 -7.2341309
198.84912 1121.3009 -7.2341309
203.94774 1121.3009 -7.2341309
209.04636 1121.3009 -7.2341309
214.14517 1121.3009 -7.2341309
219.24377 1121.3009 -7.2341309
224.34259 1121.3009 -7.2341309
231.41371 1111.8553 15.915527
236.55617 1111.8553 15.915527
241.69881 1111.8553 15.915527
248.94525 1102.4099 39.06543
254.13171 1102.4099 39.06543
259.31802 1102.4099 39.06543
264.5043 1102.4099 39.06543
272.06128 1092.5867 63.140869
277.29312 1092.5867 63.140869
282.52521 1092.5867 63.140869
287.75708 1092.5867 63.140869
-265.13211 1116.6074 -9.2263184
-260.03339 1116.6074 -9.2263184
-252.74301 1126.0934 -32.358887
-247.68814 1126.0934 -32.358887
-244.73724 1116.6074 -9.2263184
-239.63864 1116.6074 -9.2263184
-234.53992 1116.6074 -9.2263184
-229.44121 1116.6074 -9.2263184
-222.41383 1126.0934 -32.358887
-217.35895 1126.0934 -32.358887
-214.14517 1116.6074 -9.2263184
-209.04645 1116.6074 -9.2263184
-203.94774 1116.6074 -9.2263184
-198.84903 1116.6074 -9.2263184
-193.75031 1116.6074 -9.2263184
-188.6517 1116.6074 -9.2263184
-183.55298 1116.6074 -9.2263184
-178.45427 1116.6074 -9.2263184
-171.86523 1126.0934 -32.358887
-166.81035 1126.0934 -32.358887
-161.75557 1126.0934 -32.358887
-155.39621 1135.1997 -54.566162
-150.38341 1135.1997 -54.566162
-145.37061 1135.1997 -54.566162
-139.17957 1144.306 -76.773193
-134.20894 1144.306 -76.773193
-129.23822 1144.306 -76.773193
-123.25934 1153.0331 -98.055176
-118.32894 1153.0331 -98.055176
-113.39855 1153.0331 -98.055176
-108.46826 1153.0331 -98.055176
-103.53786 1153.0331 -98.055176
-98.607468 1153.0331 -98.055176
-93.677078 1153.0331 -98.055176
-88.746681 1153.0331 -98.055176
-83.816391 1153.0331 -98.055176
-78.885994 1153.0331 -98.055176
-73.955605 1153.0331 -98.055176
-69.025208 1153.0331 -98.055176
-64.094818 1153.0331 -98.055176
-59.16452 1153.0331 -98.055176
-54.234131 1153.0331 -98.055176
-49.303734 1153.0331 -98.055176
-44.373341 1153.0331 -98.055176
-39.442951 1153.0331 -98.055176
-34.51265 1153.0331 -98.055176
-29.58226 1153.0331 -98.055176
-24.450233 1161.76 -119.33716
-19.560167 1161.76 -119.33716
-14.670103 1161.76 -119.33716
-9.7801313 1161.76 -119.33716
-4.8900657 1161.76 -119.33716
0 1161.76 -119.33716
4.8899722 1161.76 -119.33716
9.7801313 1161.76 -119.33716
14.670103 1161.76 -119.33716
19.560263 1161.76 -119.33716
24.450233 1161.76 -119.33716
29.340206 1161.76 -119.33716
34.230366 1161.76 -119.33716
39.120335 1161.76 -119.33716
44.010494 1161.76 -119.33716
48.900467 1161.76 -119.33716
53.79044 1161.76 -119.33716
58.680603 1161.76 -119.33716
64.094818 1153.0331 -98.055176
68.460732 1161.76 -119.33716
73.3507 1161.76 -119.33716
78.885902 1153.0331 -98.055176
83.816391 1153.0331 -98.055176
88.746681 1153.0331 -98.055176
93.67717 1153.0331 -98.055176
98.607468 1153.0331 -98.055176
103.53777 1153.0331 -98.055176
108.46826 1153.0331 -98.055176
113.39855 1153.0331 -98.055176
118.32904 1153.0331 -98.055176
123.25934 1153.0331 -98.055176
129.23813 1144.306 -76.773193
133.12013 1153.0331 -98.055176
138.05042 1153.0331 -98.055176
145.3707 1135.1997 -54.566162
150.38341 1135.1997 -54.566162
155.3961 1135.1997 -54.566162
161.75557 1126.0934 -32.358887
166.81035 1126.0934 -32.358887
171.86531 1126.0934 -32.358887
176.9201 1126.0934 -32.358887
183.5529 1116.6074 -9.2263184
188.6517 1116.6074 -9.2263184
193.75031 1116.6074 -9.2263184
198.84912 1116.6074 -9.2263184
203.94774 1116.6074 -9.2263184
209.04636 1116.6074 -9.2263184
214.14517 1116.6074 -9.2263184
219.24377 1116.6074 -9.2263184
224.34259 1116.6074 -9.2263184
231.41371 1107.1216 13.90625
236.55617 1107.1216 13.90625
241.69881 1107.1216 13.90625
248.94525 1097.6357 37.038818
254.13171 1097.6357 37.038818
259.31802 1097.6357 37.038818
264.5043 1097.6357 37.038818
272.06128 1087.7705 61.09668
277.29312 1087.7705 61.09668
282.52521 1087.7705 61.09668
287.75708 1087.7705 61.09668
-265.13211 1111.9141 -11.218506
-260.03339 1111.9141 -11.218506
-254.93468 1111.9141 -11.218506
-249.83597 1111.9141 -11.218506
-244.73724 1111.9141 -11.218506
-237.57848 1121.4403 -34.333984
-232.52357 1121.4403 -34.333984
-227.4687 1121.4403 -34.333984
-222.41383 1121.4403 -34.333984
-217.35895 1121.4403 -34.333984
-214.14517 1111.9141 -11.218506
-209.04645 1111.9141 -11.218506
-203.94774 1111.9141 -11.218506
-198.84903 1111.9141 -11.218506
-193.75031 1111.9141 -11.218506
-188.6517 1111.9141 -11.218506
-183.55298 1111.9141 -11.218506
-178.45427 1111.9141 -11.218506
-173.35556 1111.9141 -11.218506
-168.25684 1111.9141 -11.218506
-161.75557 1121.4403 -34.333984
-156.70068 1121.4403 -34.333984
-151.64581 1121.4403 -34.333984
-145.37061 1130.5853 -56.524658
-139.17957 1139.7305 -78.715332
-134.20894 1139.7305 -78.715332
-129.23822 1139.7305 -78.715332
-123.25934 1148.4946 -99.981689
-118.32894 1148.4946 -99.981689
-113.39855 1148.4946 -99.981689
-108.46826 1148.4946 -99.981689
-103.53786 1148.4946 -99.981689
-98.607468 1148.4946 -99.981689
-93.677078 1148.4946 -99.981689
-88.746681 1148.4946 -99.981689
-83.816391 1148.4946 -99.981689
-78.885994 1148.4946 -99.981689
-73.955605 1148.4946 -99.981689
-69.025208 1148.4946 -99.981689
-64.094818 1148.4946 -99.981689
-59.16452 1148.4946 -99.981689
-54.234131 1148.4946 -99.981689
-49.303734 1148.4946 -99.981689
-44.373341 1148.4946 -99.981689
-39.442951 1148.4946 -99.981689
-34.51265 1148.4946 -99.981689
-29.58226 1148.4946 -99.981689
-24.450233 1157.2587 -121.2478
-19.560167 1157.2587 -121.2478
-14.670103 1157.2587 -121.2478
-9.7801313 1157.2587 -121.2478
-4.8900657 1157.2587 -121.2478
0 1157.2587 -121.2478
4.8899722 1157.2587 -121.2478
9.7801313 1157.2587 -121.2478
14.670103 1157.2587 -121.2478
19.560263 1157.2587 -121.2478
24.450233 1157.2587 -121.2478
29.340206 1157.2587 -121.2478
34.230366 1157.2587 -121.2478
39.120335 1157.2587 -121.2478
44.010494 1157.2587 -121.2478
48.900467 1157.2587 -121.2478
53.79044 1157.2587 -121.2478
58.680603 1157.2587 -121.2478
63.570568 1157.2587 -121.2478
68.460732 1157.2587 -121.2478
73.3507 1157.2587 -121.2478
78.885902 1148.4946 -99.981689
83.816391 1148.4946 -99.981689
88.746681 1148.4946 -99.981689
93.67717 1148.4946 -99.981689
98.607468 1148.4946 -99.981689
103.53777 1148.4946 -99.981689
108.46826 1148.4946 -99.981689
113.39855 1148.4946 -99.981689
118.32904 1148.4946 -99.981689
123.25934 1148.4946 -99.981689
129.23813 1139.7305 -78.715332
133.12013 1148.4946 -99.981689
138.05042 1148.4946 -99.981689
145.3707 1130.5853 -56.524658
150.38341 1130.5853 -56.524658
155.3961 1130.5853 -56.524658
161.75557 1121.4403 -34.333984
166.81035 1121.4403 -34.333984
171.86531 1121.4403 -34.333984
176.9201 1121.4403 -34.333984
183.5529 1111.9141 -11.218506
188.6517 1111.9141 -11.218506
193.75031 1111.9141 -11.218506
198.84912 1111.9141 -11.218506
203.94774 1111.9141 -11.218506
209.04636 1111.9141 -11.218506
215.98618 1102.3879 11.896973
219.24377 1111.9141 -11.218506
224.34259 1111.9141 -11.218506
231.41371 1102.3879 11.896973
236.55617 1102.3879 11.896973
241.69881 1102.3879 11.896973
248.94525 1092.8617 35.012451
254.13171 1092.8617 35.012451
259.31802 1092.8617 35.012451
264.5043 1092.8617 35.012451
272.06128 1082.9545 59.052246
277.29312 1082.9545 59.052246
282.52521 1082.9545 59.052246
287.75708 1082.9545 59.052246
292.98892 1082.9545 59.052246
-267.41144 1097.6542 9.8874512
-260.03339 1107.2207 -13.210693
-254.93468 1107.2207 -13.210693
-249.83597 1107.2207 -13.210693
-244.73724 1107.2207 -13.210693
-237.57848 1116.7874 -36.309082
-232.52357 1116.7874 -36.309082
-227.4687 1116.7874 -36.309082
-222.41383 1116.7874 -36.309082
-217.35895 1116.7874 -36.309082
-214.14517 1107.2207 -13.210693
-209.04645 1107.2207 -13.210693
-203.94774 1107.2207 -13.210693
-198.84903 1107.2207 -13.210693
-193.75031 1107.2207 -13.210693
-188.6517 1107.2207 -13.210693
-183.55298 1107.2207 -13.210693
-178.45427 1107.2207 -13.210693
-173.35556 1107.2207 -13.210693
-168.25684 1107.2207 -13.210693
-161.75557 1116.7874 -36.309082
-156.70068 1116.7874 -36.309082
-151.64581 1116.7874 -36.309082
-145.37061 1125.9711 -58.483398
-139.17957 1135.1549 -80.657715
-134.20894 1135.1549 -80.657715
-129.23822 1135.1549 -80.657715
-123.25934 1143.9562 -101.90796
-118.32894 1143.9562 -101.90796
-113.39855 1143.9562 -101.90796
-108.46826 1143.9562 -101.90796
-103.53786 1143.9562 -101.90796
-98.607468 1143.9562 -101.90796
-93.677078 1143.9562 -101.90796
-88.746681 1143.9562 -101.90796
-83.816391 1143.9562 -101.90796
-78.885994 1143.9562 -101.90796
-73.955605 1143.9562 -101.90796
-69.025208 1143.9562 -101.90796
-64.094818 1143.9562 -101.90796
-59.16452 1143.9562 -101.90796
-54.234131 1143.9562 -101.90796
-49.303734 1143.9562 -101.90796
-44.373341 1143.9562 -101.90796
-39.442951 1143.9562 -101.90796
-34.51265 1143.9562 -101.90796
-29.58226 1143.9562 -101.90796
-24.450233 1152.7574 -123.15845
-19.560167 1152.7574 -123.15845
-14.670103 1152.7574 -123.15845
-9.7801313 1152.7574 -123.15845
-4.8900657 1152.7574 -123.15845
0 1152.7574 -123.15845
4.8899722 1152.7574 -123.15845
9.7801313 1152.7574 -123.15845
14.670103 1152.7574 -123.15845
19.560263 1152.7574 -123.15845
24.450233 1152.7574 -123.15845
29.340206 1152.7574 -123.15845
34.230366 1152.7574 -123.15845
39.120335 1152.7574 -123.15845
44.010494 1152.7574 -123.15845
48.900467 1152.7574 -123.15845
53.79044 1152.7574 -123.15845
58.680603 1152.7574 -123.15845
63.570568 1152.7574 -123.15845
68.460732 1152.7574 -123.15845
73.3507 1152.7574 -123.15845
78.240669 1152.7574 -123.15845
83.130836 1152.7574 -123.15845
88.020805 1152.7574 -123.15845
93.67717 1143.9562 -101.90796
98.607468 1143.9562 -101.90796
103.53777 1143.9562 -101.90796
108.46826 1143.9562 -101.90796
113.39855 1143.9562 -101.90796
118.32904 1143.9562 -101.90796
124.2675 1135.1549 -80.657715
129.23813 1135.1549 -80.657715
134.20894 1135.1549 -80.657715
139.17957 1135.1549 -80.657715
145.3707 1125.9711 -58.483398
150.38341 1125.9711 -58.483398
156.70059 1116.7874 -36.309082
161.75557 1116.7874 -36.309082
166.81035 1116.7874 -36.309082
171.86531 1116.7874 -36.309082
178.45427 1107.2207 -13.210693
183.5529 1107.2207 -13.210693
188.6517 1107.2207 -13.210693
193.75031 1107.2207 -13.210693
198.84912 1107.2207 -13.210693
203.94774 1107.2207 -13.210693
209.04636 1107.2207 -13.210693
214.14517 1107.2207 -13.210693
219.24377 1107.2207 -13.210693
224.34259 1107.2207 -13.210693
229.44121 1107.2207 -13.210693
236.55617 1097.6542 9.8874512
241.69881 1097.6542 9.8874512
246.84125 1097.6542 9.8874512
251.98389 1097.6542 9.8874512
259.31802 1088.0876 32.98584
264.5043 1088.0876 32.98584
269.69077 1088.0876 32.98584
277.29312 1078.1384 57.008057
282.52521 1078.1384 57.008057
287.75708 1078.1384 57.008057
292.98892 1078.1384 57.008057
-272.55386 1092.9204 7.8781738
-267.41144 1092.9204 7.8781738
-260.03339 1102.5273 -15.203125
-254.93468 1102.5273 -15.203125
-249.83597 1102.5273 -15.203125
-244.73724 1102.5273 -15.203125
-237.57848 1112.1343 -38.28418
-232.52357 1112.1343 -38.28418
-227.4687 1112.1343 -38.28418
-222.41383 1112.1343 -38.28418
-217.35895 1112.1343 -38.28418
-214.14517 1102.5273 -15.203125
-209.04645 1102.5273 -15.203125
-203.94774 1102.5273 -15.203125
-198.84903 1102.5273 -15.203125
-193.75031 1102.5273 -15.203125
-188.6517 1102.5273 -15.203125
-183.55298 1102.5273 -15.203125
-178.45427 1102.5273 -15.203125
-173.35556 1102.5273 -15.203125
-168.25684 1102.5273 -15.203125
-161.75557 1112.1343 -38.28418
-156.70068 1112.1343 -38.28418
-151.64581 1112.1343 -38.28418
-145.37061 1121.3568 -60.442139
-140.3578 1121.3568 -60.442139
-134.20894 1130.5795 -82.599854
-129.23822 1130.5795 -82.599854
-124.2675 1130.5795 -82.599854
-118.32894 1139.4177 -103.83447
-113.39855 1139.4177 -103.83447
-108.46826 1139.4177 -103.83447
-103.53786 1139.4177 -103.83447
-98.607468 1139.4177 -103.83447
-93.677078 1139.4177 -103.83447
-88.746681 1139.4177 -103.83447
-83.816391 1139.4177 -103.83447
-78.885994 1139.4177 -103.83447
-73.955605 1139.4177 -103.83447
-69.025208 1139.4177 -103.83447
-64.094818 1139.4177 -103.83447
-59.16452 1139.4177 -103.83447
-54.234131 1139.4177 -103.83447
-49.303734 1139.4177 -103.83447
-44.373341 1139.4177 -103.83447
-39.442951 1139.4177 -103.83447
-34.51265 1139.4177 -103.83447
-29.58226 1139.4177 -103.83447
-24.450233 1148.2561 -125.06909
-19.560167 1148.2561 -125.06909
-14.670103 1148.2561 -125.06909
-9.7801313 1148.2561 -125.06909
-4.8900657 1148.2561 -125.06909
0 1148.2561 -125.06909
4.8899722 1148.2561 -125.06909
9.7801313 1148.2561 -125.06909
14.670103 1148.2561 -125.06909
19.560263 1148.2561 -125.06909
24.450233 1148.2561 -125.06909
29.340206 1148.2561 -125.06909
34.230366 1148.2561 -125.06909
39.120335 1148.2561 -125.06909
44.010494 1148.2561 -125.06909
48.900467 1148.2561 -125.06909
53.79044 1148.2561 -125.06909
58.680603 1148.2561 -125.06909
63.570568 1148.2561 -125.06909
68.460732 1148.2561 -125.06909
73.3507 1148.2561 -125.06909
78.240669 1148.2561 -125.06909
83.130836 1148.2561 -125.06909
88.020805 1148.2561 -125.06909
92.910973 1148.2561 -125.06909
98.607468 1139.4177 -103.83447
103.53777 1139.4177 -103.83447
108.46826 1139.4177 -103.83447
113.39855 1139.4177 -103.83447
118.32904 1139.4177 -103.83447
124.2675 1130.5795 -82.599854
129.23813 1130.5795 -82.599854
134.20894 1130.5795 -82.599854
140.3578 1121.3568 -60.442139
145.3707 1121.3568 -60.442139
150.38341 1121.3568 -60.442139
156.70059 1112.1343 -38.28418
161.75557 1112.1343 -38.28418
166.81035 1112.1343 -38.28418
171.86531 1112.1343 -38.28418
178.45427 1102.5273 -15.203125
183.5529 1102.5273 -15.203125
188.6517 1102.5273 -15.203125
193.75031 1102.5273 -15.203125
198.84912 1102.5273 -15.203125
203.94774 1102.5273 -15.203125
209.04636 1102.5273 -15.203125
214.14517 1102.5273 -15.203125
219.24377 1102.5273 -15.203125
224.34259 1102.5273 -15.203125
229.44121 1102.5273 -15.203125
236.55617 1092.9204 7.8781738
241.69881 1092.9204 7.8781738
246.84125 1092.9204 7.8781738
251.98389 1092.9204 7.8781738
259.31802 1083.3136 30.959473
264.5043 1083.3136 30.959473
269.69077 1083.3136 30.959473
274.87704 1083.3136 30.959473
282.52521 1073.3225 54.963867
287.75708 1073.3225 54.963867
292.98892 1073.3225 54.963867
-280.06345 1078.5394 28.932861
-272.55386 1088.1868 5.8688965
-267.41144 1088.1868 5.8688965
-260.03339 1097.834 -17.195312
-254.93468 1097.834 -17.195312
-249.83597 1097.834 -17.195312
-244.73724 1097.834 -17.195312
-239.63864 1097.834 -17.195312
-232.52357 1107.4813 -40.259277
-227.4687 1107.4813 -40.259277
-222.41383 1107.4813 -40.259277
-217.35895 1107.4813 -40.259277
-214.14517 1097.834 -17.195312
-209.04645 1097.834 -17.195312
-203.94774 1097.834 -17.195312
-198.84903 1097.834 -17.195312
-193.75031 1097.834 -17.195312
-188.6517 1097.834 -17.195312
-183.55298 1097.834 -17.195312
-178.45427 1097.834 -17.195312
-173.35556 1097.834 -17.195312
-168.25684 1097.834 -17.195312
-163.15823 1097.834 -17.195312
-158.05951 1097.834 -17.195312
-152.9608 1097.834 -17.195312
-147.86209 1097.834 -17.195312
-140.3578 1116.7426 -62.400635
-135.34511 1116.7426 -62.400635
-129.23822 1126.0039 -84.541992
-124.2675 1126.0039 -84.541992
-119.29678 1126.0039 -84.541992
-113.39855 1134.8793 -105.76099
-108.46826 1134.8793 -105.76099
-103.53786 1134.8793 -105.76099
-98.607468 1134.8793 -105.76099
-93.677078 1134.8793 -105.76099
-88.746681 1134.8793 -105.76099
-83.816391 1134.8793 -105.76099
-78.885994 1134.8793 -105.76099
-73.955605 1134.8793 -105.76099
-69.025208 1134.8793 -105.76099
-64.094818 1134.8793 -105.76099
-59.16452 1134.8793 -105.76099
-54.234131 1134.8793 -105.76099
-49.303734 1134.8793 -105.76099
-44.373341 1134.8793 -105.76099
-39.442951 1134.8793 -105.76099
-34.51265 1134.8793 -105.76099
-29.58226 1134.8793 -105.76099
-24.450233 1143.7548 -126.97974
-19.560167 1143.7548 -126.97974
-14.670103 1143.7548 -126.97974
-9.7801313 1143.7548 -126.97974
-4.8900657 1143.7548 -126.97974
0 1143.7548 -126.97974
4.8899722 1143.7548 -126.97974
9.7801313 1143.7548 -126.97974
14.670103 1143.7548 -126.97974
19.560263 1143.7548 -126.97974
24.450233 1143.7548 -126.97974
29.340206 1143.7548 -126.97974
34.230366 1143.7548 -126.97974
39.120335 1143.7548 -126.97974
44.010494 1143.7548 -126.97974
48.900467 1143.7548 -126.97974
53.79044 1143.7548 -126.97974
59.16452 1134.8793 -105.76099
64.094818 1134.8793 -105.76099
68.460732 1143.7548 -126.97974
73.3507 1143.7548 -126.97974
78.240669 1143.7548 -126.97974
83.130836 1143.7548 -126.97974
88.020805 1143.7548 -126.97974
92.910973 1143.7548 -126.97974
98.607468 1134.8793 -105.76099
103.53777 1134.8793 -105.76099
108.46826 1134.8793 -105.76099
113.39855 1134.8793 -105.76099
119.29688 1126.0039 -84.541992
124.2675 1126.0039 -84.541992
129.23813 1126.0039 -84.541992
134.20894 1126.0039 -84.541992
140.3578 1116.7426 -62.400635
145.3707 1116.7426 -62.400635
150.38341 1116.7426 -62.400635
156.70059 1107.4813 -40.259277
161.75557 1107.4813 -40.259277
166.81035 1107.4813 -40.259277
173.35565 1097.834 -17.195312
178.45427 1097.834 -17.195312
183.5529 1097.834 -17.195312
190.27354 1088.1868 5.8688965
195.41597 1088.1868 5.8688965
200.55862 1088.1868 5.8688965
205.70108 1088.1868 5.8688965
210.84354 1088.1868 5.8688965
214.14517 1097.834 -17.195312
219.24377 1097.834 -17.195312
224.34259 1097.834 -17.195312
229.44121 1097.834 -17.195312
236.55617 1088.1868 5.8688965
241.69881 1088.1868 5.8688965
246.84125 1088.1868 5.8688965
251.98389 1088.1868 5.8688965
259.31802 1078.5394 28.932861
264.5043 1078.5394 28.932861
269.69077 1078.5394 28.932861
274.87704 1078.5394 28.932861
282.52521 1068.5065 52.919434
287.75708 1068.5065 52.919434
292.98892 1068.5065 52.919434
-272.55386 1083.453 3.8596191
-267.41144 1083.453 3.8596191
-260.03339 1093.1406 -19.1875
-254.93468 1093.1406 -19.1875
-249.83597 1093.1406 -19.1875
-244.73724 1093.1406 -19.1875
-239.63864 1093.1406 -19.1875
-234.53992 1093.1406 -19.1875
-229.44121 1093.1406 -19.1875
-224.3425 1093.1406 -19.1875
-219.24377 1093.1406 -19.1875
-214.14517 1093.1406 -19.1875
-209.04645 1093.1406 -19.1875
-203.94774 1093.1406 -19.1875
-198.84903 1093.1406 -19.1875
-193.75031 1093.1406 -19.1875
-188.6517 1093.1406 -19.1875
-183.55298 1093.1406 -19.1875
-179.98843 1083.453 3.8596191
-173.35556 1093.1406 -19.1875
-168.25684 1093.1406 -19.1875
-163.15823 1093.1406 -19.1875
-158.05951 1093.1406 -19.1875
-152.9608 1093.1406 -19.1875
-147.86209 1093.1406 -19.1875
-141.53606 1102.8282 -42.234375
-135.34511 1112.1282 -64.359375
-129.23822 1121.4283 -86.484131
-124.2675 1121.4283 -86.484131
-119.29678 1121.4283 -86.484131
-113.39855 1130.3409 -107.6875
-108.46826 1130.3409 -107.6875
-103.53786 1130.3409 -107.6875
-98.607468 1130.3409 -107.6875
-93.677078 1130.3409 -107.6875
-88.746681 1130.3409 -107.6875
-83.816391 1130.3409 -107.6875
-78.885994 1130.3409 -107.6875
-73.955605 1130.3409 -107.6875
-69.025208 1130.3409 -107.6875
-64.094818 1130.3409 -107.6875
-59.16452 1130.3409 -107.6875
-54.234131 1130.3409 -107.6875
-49.303734 1130.3409 -107.6875
-44.373341 1130.3409 -107.6875
-39.442951 1130.3409 -107.6875
-34.51265 1130.3409 -107.6875
-29.58226 1130.3409 -107.6875
-24.450233 1139.2534 -128.89062
-19.560167 1139.2534 -128.89062
-14.670103 1139.2534 -128.89062
-9.7801313 1139.2534 -128.89062
-4.8900657 1139.2534 -128.89062
0 1139.2534 -128.89062
4.8899722 1139.2534 -128.89062
9.7801313 1139.2534 -128.89062
14.670103 1139.2534 -128.89062
19.560263 1139.2534 -128.89062
24.450233 1139.2534 -128.89062
29.340206 1139.2534 -128.89062
34.230366 1139.2534 -128.89062
39.120335 1139.2534 -128.89062
44.010494 1139.2534 -128.89062
48.900467 1139.2534 -128.89062
54.234035 1130.3409 -107.6875
59.16452 1130.3409 -107.6875
64.094818 1130.3409 -107.6875
69.025299 1130.3409 -107.6875
73.955605 1130.3409 -107.6875
78.240669 1139.2534 -128.89062
83.130836 1139.2534 -128.89062
88.020805 1139.2534 -128.89062
92.910973 1139.2534 -128.89062
98.607468 1130.3409 -107.6875
103.53777 1130.3409 -107.6875
108.46826 1130.3409 -107.6875
113.39855 1130.3409 -107.6875
119.29688 1121.4283 -86.484131
124.2675 1121.4283 -86.484131
129.23813 1121.4283 -86.484131
135.34511 1112.1282 -64.359375
140.3578 1112.1282 -64.359375
145.3707 1112.1282 -64.359375
150.38341 1112.1282 -64.359375
156.70059 1102.8282 -42.234375
161.75557 1102.8282 -42.234375
168.25684 1093.1406 -19.1875
173.35565 1093.1406 -19.1875
178.45427 1093.1406 -19.1875
185.13089 1083.453 3.8596191
190.27354 1083.453 3.8596191
197.08165 1073.7654 26.906494
202.26811 1073.7654 26.906494
205.70108 1083.453 3.8596191
210.84354 1083.453 3.8596191
215.98618 1083.453 3.8596191
219.24377 1093.1406 -19.1875
224.34259 1093.1406 -19.1875
229.44121 1093.1406 -19.1875
236.55617 1083.453 3.8596191
241.69881 1083.453 3.8596191
246.84125 1083.453 3.8596191
251.98389 1083.453 3.8596191
259.31802 1073.7654 26.906494
264.5043 1073.7654 26.906494
269.69077 1073.7654 26.906494
274.87704 1073.7654 26.906494
282.52521 1063.6904 50.875244
287.75708 1063.6904 50.875244
292.98892 1063.6904 50.875244
298.22101 1063.6904 50.875244
-277.69644 1078.7194 1.8500977
-270.23071 1088.4473 -21.179688
-265.13211 1088.4473 -21.179688
-260.03339 1088.4473 -21.179688
-254.93468 1088.4473 -21.179688
-249.83597 1088.4473 -21.179688
-244.73724 1088.4473 -21.179688
-239.63864 1088.4473 -21.179688
-234.53992 1088.4473 -21.179688
-229.44121 1088.4473 -21.179688
-224.3425 1088.4473 -21.179688
-219.24377 1088.4473 -21.179688
-214.14517 1088.4473 -21.179688
-209.04645 1088.4473 -21.179688
-203.94774 1088.4473 -21.179688
-198.84903 1088.4473 -21.179688
-193.75031 1088.4473 -21.179688
-188.6517 1088.4473 -21.179688
-185.13098 1078.7194 1.8500977
-179.98843 1078.7194 1.8500977
-174.8459 1078.7194 1.8500977
-169.70334 1078.7194 1.8500977
-164.5609 1078.7194 1.8500977
-159.41835 1078.7194 1.8500977
-152.9608 1088.4473 -21.179688
-147.86209 1088.4473 -21.179688
-141.53606 1098.1753 -44.209473
-135.34511 1107.5139 -66.317871
-129.23822 1116.8528 -88.426514
-124.2675 1116.8528 -88.426514
-119.29678 1116.8528 -88.426514
-113.39855 1125.8025 -109.61377
-108.46826 1125.8025 -109.61377
-103.53786 1125.8025 -109.61377
-99.414001 1116.8528 -88.426514
-93.677078 1125.8025 -109.61377
-88.746681 1125.8025 -109.61377
-83.816391 1125.8025 -109.61377
-78.885994 1125.8025 -109.61377
-73.955605 1125.8025 -109.61377
-69.025208 1125.8025 -109.61377
-64.094818 1125.8025 -109.61377
-59.16452 1125.8025 -109.61377
-54.234131 1125.8025 -109.61377
-49.303734 1125.8025 -109.61377
-44.373341 1125.8025 -109.61377
-39.442951 1125.8025 -109.61377
-34.51265 1125.8025 -109.61377
-29.58226 1125.8025 -109.61377
-24.450233 1134.7522 -130.80127
-19.560167 1134.7522 -130.80127
-14.670103 1134.7522 -130.80127
-9.7801313 1134.7522 -130.80127
-4.8900657 1134.7522 -130.80127
0 1134.7522 -130.80127
4.8899722 1134.7522 -130.80127
9.7801313 1134.7522 -130.80127
14.670103 1134.7522 -130.80127
19.560263 1134.7522 -130.80127
24.450233 1134.7522 -130.80127
29.340206 1134.7522 -130.80127
34.230366 1134.7522 -130.80127
39.120335 1134.7522 -130.80127
44.010494 1134.7522 -130.80127
49.303734 1125.8025 -109.61377
54.234035 1125.8025 -109.61377
59.16452 1125.8025 -109.61377
64.094818 1125.8025 -109.61377
69.025299 1125.8025 -109.61377
73.955605 1125.8025 -109.61377
78.240669 1134.7522 -130.80127
83.130836 1134.7522 -130.80127
88.020805 1134.7522 -130.80127
92.910973 1134.7522 -130.80127
98.607468 1125.8025 -109.61377
103.53777 1125.8025 -109.61377
108.46826 1125.8025 -109.61377
114.32607 1116.8528 -88.426514
119.29688 1116.8528 -88.426514
124.2675 1116.8528 -88.426514
130.3322 1107.5139 -66.317871
135.34511 1107.5139 -66.317871
140.3578 1107.5139 -66.317871
145.3707 1107.5139 -66.317871
150.38341 1107.5139 -66.317871
156.70059 1098.1753 -44.209473
161.75557 1098.1753 -44.209473
168.25684 1088.4473 -21.179688
173.35565 1088.4473 -21.179688
178.45427 1088.4473 -21.179688
185.13089 1078.7194 1.8500977
190.27354 1078.7194 1.8500977
197.08165 1068.9913 24.879883
202.26811 1068.9913 24.879883
205.70108 1078.7194 1.8500977
210.84354 1078.7194 1.8500977
215.98618 1078.7194 1.8500977
221.12862 1078.7194 1.8500977
226.27126 1078.7194 1.8500977
231.41371 1078.7194 1.8500977
236.55617 1078.7194 1.8500977
241.69881 1078.7194 1.8500977
246.84125 1078.7194 1.8500977
251.98389 1078.7194 1.8500977
259.31802 1068.9913 24.879883
264.5043 1068.9913 24.879883
269.69077 1068.9913 24.879883
274.87704 1068.9913 24.879883
280.06351 1068.9913 24.879883
285.24982 1068.9913 24.879883
292.98892 1058.8744 48.830811
300.81946 1048.7573 72.781738
306.09692 1048.7573 72.781738
-275.32944 1083.7539 -23.171875
-270.23071 1083.7539 -23.171875
-265.13211 1083.7539 -23.171875
-260.03339 1083.7539 -23.171875
-254.93468 1083.7539 -23.171875
-249.83597 1083.7539 -23.171875
-244.73724 1083.7539 -23.171875
-239.63864 1083.7539 -23.171875
-234.53992 1083.7539 -23.171875
-229.44121 1083.7539 -23.171875
-224.3425 1083.7539 -23.171875
-219.24377 1083.7539 -23.171875
-214.14517 1083.7539 -23.171875
-209.04645 1083.7539 -23.171875
-203.94774 1083.7539 -23.171875
-198.84903 1083.7539 -23.171875
-193.75031 1083.7539 -23.171875
-190.27354 1073.9856 -0.15917969
-185.13098 1073.9856 -0.15917969
-179.98843 1073.9856 -0.15917969
-174.8459 1073.9856 -0.15917969
-169.70334 1073.9856 -0.15917969
-164.5609 1073.9856 -0.15917969
-159.41835 1073.9856 -0.15917969
-154.2758 1073.9856 -0.15917969
-149.13327 1073.9856 -0.15917969
-141.53606 1093.5222 -46.18457
-136.48126 1093.5222 -46.18457
-130.33231 1102.8997 -68.276611
-125.3195 1102.8997 -68.276611
-119.29678 1112.2772 -90.368652
-114.32607 1112.2772 -90.368652
-109.35544 1112.2772 -90.368652
-104.38472 1112.2772 -90.368652
-99.414001 1112.2772 -90.368652
-93.677078 1121.264 -111.54028
-88.746681 1121.264 -111.54028
-83.816391 1121.264 -111.54028
-78.885994 1121.264 -111.54028
-73.955605 1121.264 -111.54028
-69.025208 1121.264 -111.54028
-64.094818 1121.264 -111.54028
-59.16452 1121.264 -111.54028
-54.234131 1121.264 -111.54028
-49.303734 1121.264 -111.54028
-44.373341 1121.264 -111.54028
-39.442951 1121.264 -111.54028
-34.51265 1121.264 -111.54028
-29.58226 1121.264 -111.54028
-24.450233 1130.2509 -132.71191
-19.560167 1130.2509 -132.71191
-14.670103 1130.2509 -132.71191
-9.7801313 1130.2509 -132.71191
-4.8900657 1130.2509 -132.71191
0 1130.2509 -132.71191
4.8899722 1130.2509 -132.71191
9.7801313 1130.2509 -132.71191
14.670103 1130.2509 -132.71191
19.560263 1130.2509 -132.71191
24.450233 1130.2509 -132.71191
29.340206 1130.2509 -132.71191
34.230366 1130.2509 -132.71191
39.120335 1130.2509 -132.71191
44.373436 1121.264 -111.54028
49.303734 1121.264 -111.54028
54.234035 1121.264 -111.54028
59.16452 1121.264 -111.54028
64.094818 1121.264 -111.54028
69.025299 1121.264 -111.54028
73.955605 1121.264 -111.54028
78.240669 1130.2509 -132.71191
83.130836 1130.2509 -132.71191
88.020805 1130.2509 -132.71191
92.910973 1130.2509 -132.71191
98.607468 1121.264 -111.54028
103.53777 1121.264 -111.54028
108.46826 1121.264 -111.54028
114.32607 1112.2772 -90.368652
119.29688 1112.2772 -90.368652
125.3195 1102.8997 -68.276611
130.3322 1102.8997 -68.276611
135.34511 1102.8997 -68.276611
141.53606 1093.5222 -46.18457
146.59102 1093.5222 -46.18457
151.64581 1093.5222 -46.18457
156.70059 1093.5222 -46.18457
163.15823 1083.7539 -23.171875
168.25684 1083.7539 -23.171875
173.35565 1083.7539 -23.171875
178.45427 1083.7539 -23.171875
185.13089 1073.9856 -0.15917969
190.27354 1073.9856 -0.15917969
197.08165 1064.2173 22.853516
202.26811 1064.2173 22.853516
205.70108 1073.9856 -0.15917969
210.84354 1073.9856 -0.15917969
215.98618 1073.9856 -0.15917969
221.12862 1073.9856 -0.15917969
226.27126 1073.9856 -0.15917969
231.41371 1073.9856 -0.15917969
236.55617 1073.9856 -0.15917969
241.69881 1073.9856 -0.15917969
246.84125 1073.9856 -0.15917969
251.98389 1073.9856 -0.15917969
259.31802 1064.2173 22.853516
264.5043 1064.2173 22.853516
269.69077 1064.2173 22.853516
274.87704 1064.2173 22.853516
280.06351 1064.2173 22.853516
285.24982 1064.2173 22.853516
292.98892 1054.0583 46.786621
300.81946 1043.8993 70.719727
306.09692 1043.8993 70.719727
-275.32944 1079.0604 -25.164062
-270.23071 1079.0604 -25.164062
-265.13211 1079.0604 -25.164062
-260.03339 1079.0604 -25.164062
-254.93468 1079.0604 -25.164062
-249.83597 1079.0604 -25.164062
-244.73724 1079.0604 -25.164062
-239.63864 1079.0604 -25.164062
-234.53992 1079.0604 -25.164062
-229.44121 1079.0604 -25.164062
-224.3425 1079.0604 -25.164062
-219.24377 1079.0604 -25.164062
-214.14517 1079.0604 -25.164062
-209.04645 1079.0604 -25.164062
-203.94774 1079.0604 -25.164062
-198.84903 1079.0604 -25.164062
-193.75031 1079.0604 -25.164062
-190.27354 1069.2518 -2.168457
-185.13098 1069.2518 -2.168457
-179.98843 1069.2518 -2.168457
-174.8459 1069.2518 -2.168457
-169.70334 1069.2518 -2.168457
-164.5609 1069.2518 -2.168457
-159.41835 1069.2518 -2.168457
-154.2758 1069.2518 -2.168457
-149.13327 1069.2518 -2.168457
-142.76338 1079.0604 -25.164062
-136.48126 1088.8691 -48.159668
-131.42639 1088.8691 -48.159668
-125.3195 1098.2853 -70.235352
-120.30671 1098.2853 -70.235352
-114.32607 1107.7017 -92.310791
-109.35544 1107.7017 -92.310791
-104.38472 1107.7017 -92.310791
-99.414001 1107.7017 -92.310791
-94.443283 1107.7017 -92.310791
-88.746681 1116.7256 -113.4668
-83.816391 1116.7256 -113.4668
-78.885994 1116.7256 -113.4668
-73.955605 1116.7256 -113.4668
-69.025208 1116.7256 -113.4668
-64.094818 1116.7256 -113.4668
-59.16452 1116.7256 -113.4668
-54.234131 1116.7256 -113.4668
-49.303734 1116.7256 -113.4668
-44.373341 1116.7256 -113.4668
-39.442951 1116.7256 -113.4668
-34.51265 1116.7256 -113.4668
-29.58226 1116.7256 -113.4668
-24.450233 1125.7495 -134.62256
-19.560167 1125.7495 -134.62256
-14.670103 1125.7495 -134.62256
-9.7801313 1125.7495 -134.62256
-4.8900657 1125.7495 -134.62256
0 1125.7495 -134.62256
4.8899722 1125.7495 -134.62256
9.7801313 1125.7495 -134.62256
14.670103 1125.7495 -134.62256
19.560263 1125.7495 -134.62256
24.450233 1125.7495 -134.62256
29.340206 1125.7495 -134.62256
34.230366 1125.7495 -134.62256
39.442951 1116.7256 -113.4668
44.373436 1116.7256 -113.4668
49.303734 1116.7256 -113.4668
54.234035 1116.7256 -113.4668
59.16452 1116.7256 -113.4668
64.094818 1116.7256 -113.4668
69.025299 1116.7256 -113.4668
73.955605 1116.7256 -113.4668
78.240669 1125.7495 -134.62256
83.130836 1125.7495 -134.62256
88.020805 1125.7495 -134.62256
93.67717 1116.7256 -113.4668
98.607468 1116.7256 -113.4668
103.53777 1116.7256 -113.4668
108.46826 1116.7256 -113.4668
114.32607 1107.7017 -92.310791
120.3068 1098.2853 -70.235352
125.3195 1098.2853 -70.235352
130.3322 1098.2853 -70.235352
135.34511 1098.2853 -70.235352
141.53606 1088.8691 -48.159668
146.59102 1088.8691 -48.159668
151.64581 1088.8691 -48.159668
156.70059 1088.8691 -48.159668
163.15823 1079.0604 -25.164062
168.25684 1079.0604 -25.164062
173.35565 1079.0604 -25.164062
179.98843 1069.2518 -2.168457
185.13089 1069.2518 -2.168457
190.27354 1069.2518 -2.168457
197.08165 1059.4431 20.826904
202.26811 1059.4431 20.826904
205.70108 1069.2518 -2.168457
210.84354 1069.2518 -2.168457
215.98618 1069.2518 -2.168457
221.12862 1069.2518 -2.168457
224.34259 1079.0604 -25.164062
229.44121 1079.0604 -25.164062
236.55617 1069.2518 -2.168457
241.69881 1069.2518 -2.168457
246.84125 1069.2518 -2.168457
251.98389 1069.2518 -2.168457
257.12634 1069.2518 -2.168457
264.5043 1059.4431 20.826904
269.69077 1059.4431 20.826904
274.87704 1059.4431 20.826904
282.52521 1049.2423 44.742188
287.75708 1049.2423 44.742188
292.98892 1049.2423 44.742188
300.81946 1039.0413 68.657715
306.09692 1039.0413 68.657715
-277.69644 1064.5182 -4.1779785
-270.23071 1074.3672 -27.15625
-265.13211 1074.3672 -27.15625
-260.03339 1074.3672 -27.15625
-254.93468 1074.3672 -27.15625
-249.83597 1074.3672 -27.15625
-244.73724 1074.3672 -27.15625
-239.63864 1074.3672 -27.15625
-234.53992 1074.3672 -27.15625
-229.44121 1074.3672 -27.15625
-224.3425 1074.3672 -27.15625
-219.24377 1074.3672 -27.15625
-214.14517 1074.3672 -27.15625
-209.04645 1074.3672 -27.15625
-203.94774 1074.3672 -27.15625
-198.84903 1074.3672 -27.15625
-193.75031 1074.3672 -27.15625
-190.27354 1064.5182 -4.1779785
-185.13098 1064.5182 -4.1779785
-179.98843 1064.5182 -4.1779785
-174.8459 1064.5182 -4.1779785
-169.70334 1064.5182 -4.1779785
-164.5609 1064.5182 -4.1779785
-159.41835 1064.5182 -4.1779785
-154.2758 1064.5182 -4.1779785
-149.13327 1064.5182 -4.1779785
-142.76338 1074.3672 -27.15625
-137.66476 1074.3672 -27.15625
-131.42639 1084.2162 -50.134766
-125.3195 1093.6711 -72.193848
-120.30671 1093.6711 -72.193848
-115.29391 1093.6711 -72.193848
-109.35544 1103.1261 -94.253174
-104.38472 1103.1261 -94.253174
-99.414001 1103.1261 -94.253174
-94.443283 1103.1261 -94.253174
-88.746681 1112.1871 -115.39307
-83.816391 1112.1871 -115.39307
-78.885994 1112.1871 -115.39307
-73.955605 1112.1871 -115.39307
-69.025208 1112.1871 -115.39307
-64.094818 1112.1871 -115.39307
-59.16452 1112.1871 -115.39307
-54.234131 1112.1871 -115.39307
-49.303734 1112.1871 -115.39307
-44.373341 1112.1871 -115.39307
-39.442951 1112.1871 -115.39307
-34.51265 1112.1871 -115.39307
-29.58226 1112.1871 -115.39307
-24.450233 1121.2483 -136.5332
-19.560167 1121.2483 -136.5332
-14.670103 1121.2483 -136.5332
-9.7801313 1121.2483 -136.5332
-4.8900657 1121.2483 -136.5332
0 1121.2483 -136.5332
4.8899722 1121.2483 -136.5332
9.7801313 1121.2483 -136.5332
14.670103 1121.2483 -136.5332
19.560263 1121.2483 -136.5332
24.450233 1121.2483 -136.5332
29.340206 1121.2483 -136.5332
34.51265 1112.1871 -115.39307
39.442951 1112.1871 -115.39307
44.373436 1112.1871 -115.39307
49.303734 1112.1871 -115.39307
54.234035 1112.1871 -115.39307
59.16452 1112.1871 -115.39307
64.094818 1112.1871 -115.39307
69.025299 1112.1871 -115.39307
73.955605 1112.1871 -115.39307
78.885902 1112.1871 -115.39307
83.816391 1112.1871 -115.39307
88.746681 1112.1871 -115.39307
93.67717 1112.1871 -115.39307
98.607468 1112.1871 -115.39307
104.38463 1103.1261 -94.253174
109.35544 1103.1261 -94.253174
115.29391 1093.6711 -72.193848
120.3068 1093.6711 -72.193848
125.3195 1093.6711 -72.193848
130.3322 1093.6711 -72.193848
136.48126 1084.2162 -50.134766
141.53606 1084.2162 -50.134766
146.59102 1084.2162 -50.134766
151.64581 1084.2162 -50.134766
156.70059 1084.2162 -50.134766
163.15823 1074.3672 -27.15625
168.25684 1074.3672 -27.15625
173.35565 1074.3672 -27.15625
179.98843 1064.5182 -4.1779785
185.13089 1064.5182 -4.1779785
191.89537 1054.6692 18.800537
197.08165 1054.6692 18.800537
202.26811 1054.6692 18.800537
205.70108 1064.5182 -4.1779785
210.84354 1064.5182 -4.1779785
215.98618 1064.5182 -4.1779785
221.12862 1064.5182 -4.1779785
224.34259 1074.3672 -27.15625
229.44121 1074.3672 -27.15625
236.55617 1064.5182 -4.1779785
241.69881 1064.5182 -4.1779785
246.84125 1064.5182 -4.1779785
251.98389 1064.5182 -4.1779785
257.12634 1064.5182 -4.1779785
264.5043 1054.6692 18.800537
269.69077 1054.6692 18.800537
274.87704 1054.6692 18.800537
282.52521 1044.4263 42.697998
287.75708 1044.4263 42.697998
292.98892 1044.4263 42.697998
298.22101 1044.4263 42.697998
306.09692 1034.1833 66.595459
-282.83899 1059.7844 -6.1872559
-277.69644 1059.7844 -6.1872559
-272.55386 1059.7844 -6.1872559
-265.13211 1069.6737 -29.148438
-260.03339 1069.6737 -29.148438
-254.93468 1069.6737 -29.148438
-249.83597 1069.6737 -29.148438
-244.73724 1069.6737 -29.148438
-239.63864 1069.6737 -29.148438
-234.53992 1069.6737 -29.148438
-229.44121 1069.6737 -29.148438
-224.3425 1069.6737 -29.148438
-219.24377 1069.6737 -29.148438
-214.14517 1069.6737 -29.148438
-209.04645 1069.6737 -29.148438
-205.70108 1059.7844 -6.1872559
-200.55853 1059.7844 -6.1872559
-195.41597 1059.7844 -6.1872559
-190.27354 1059.7844 -6.1872559
-185.13098 1059.7844 -6.1872559
-179.98843 1059.7844 -6.1872559
-174.8459 1059.7844 -6.1872559
-169.70334 1059.7844 -6.1872559
-165.96358 1049.895 16.77417
-160.77718 1049.895 16.77417
-155.59081 1049.895 16.77417
-150.40443 1049.895 16.77417
-143.99071 1059.7844 -6.1872559
-137.66476 1069.6737 -29.148438
-131.42639 1079.5631 -52.109863
-125.3195 1089.0568 -74.152588
