ply
format ascii 1.0
comment PCL generated
element vertex 1586
property float x
property float y
property float z
element camera 0
property float view_px
property float view_py
property float view_pz
property float x_axisx
property float x_axisy
property float x_axisz
property float y_axisx
property float y_axisy
property float y_axisz
property float z_axisx
property float z_axisy
property float z_axisz
property float focal
property float scalex
property float scaley
property float centerx
property float centery
property int viewportx
property int viewporty
property float k1
property float k2
end_header
138.44662 1263.7234 193.36108
143.77162 1263.7234 193.36108
149.09642 1263.7234 193.36108
155.79427 1255.2218 219.08423
161.16641 1255.2218 219.08423
168.06042 1246.4053 245.76001
173.48186 1246.4053 245.76001
178.90309 1246.4053 245.76001
184.32451 1246.4053 245.76001
188.02748 1255.2218 219.08423
193.39961 1255.2218 219.08423
200.58839 1246.4053 245.76001
206.00961 1246.4053 245.76001
211.43105 1246.4053 245.76001
216.85228 1246.4053 245.76001
222.2735 1246.4053 245.76001
227.69493 1246.4053 245.76001
235.22717 1237.5889 272.43555
-84.440552 1267.3671 165.57617
-79.163002 1267.3671 165.57617
-73.885452 1267.3671 165.57617
-68.607895 1267.3671 165.57617
-63.330441 1267.3671 165.57617
-58.052891 1267.3671 165.57617
-52.775333 1267.3671 165.57617
-47.49778 1267.3671 165.57617
-42.22023 1267.3671 165.57617
-36.623669 1275.5958 140.82373
-31.391701 1275.5958 140.82373
-26.159735 1275.5958 140.82373
-21.110115 1267.3671 165.57617
-15.83256 1267.3671 165.57617
-10.555108 1267.3671 165.57617
-5.324894 1258.8219 191.28052
0 1258.8219 191.28052
5.3247924 1258.8219 191.28052
10.649788 1258.8219 191.28052
15.97458 1258.8219 191.28052
21.299576 1258.8219 191.28052
26.624367 1258.8219 191.28052
31.94916 1258.8219 191.28052
37.274155 1258.8219 191.28052
42.598946 1258.8219 191.28052
47.923943 1258.8219 191.28052
53.248734 1258.8219 191.28052
58.573528 1258.8219 191.28052
63.898525 1258.8219 191.28052
69.223312 1258.8219 191.28052
74.548309 1258.8219 191.28052
79.8731 1258.8219 191.28052
85.955338 1250.2766 216.98511
91.327667 1250.2766 216.98511
95.847679 1258.8219 191.28052
101.17268 1258.8219 191.28052
106.49747 1258.8219 191.28052
111.82227 1258.8219 191.28052
116.10578 1267.3671 165.57617
121.38322 1267.3671 165.57617
126.66088 1267.3671 165.57617
131.93834 1267.3671 165.57617
138.44662 1258.8219 191.28052
143.77162 1258.8219 191.28052
149.09642 1258.8219 191.28052
155.79427 1250.2766 216.98511
161.16641 1250.2766 216.98511
166.53854 1250.2766 216.98511
171.91087 1250.2766 216.98511
177.283 1250.2766 216.98511
182.65533 1250.2766 216.98511
188.02748 1250.2766 216.98511
193.39961 1250.2766 216.98511
198.77194 1250.2766 216.98511
206.00961 1241.415 243.64185
211.43105 1241.415 243.64185
216.85228 1241.415 243.64185
222.2735 1241.415 243.64185
227.69493 1241.415 243.64185
235.22717 1232.5533 270.2981
242.93494 1223.375 297.90674
-89.718109 1262.509 163.51416
-84.440552 1262.509 163.51416
-79.163002 1262.509 163.51416
-73.885452 1262.509 163.51416
-68.607895 1262.509 163.51416
-63.330441 1262.509 163.51416
-58.052891 1262.509 163.51416
-52.775333 1262.509 163.51416
-47.087502 1270.7798 138.7793
-41.855534 1270.7798 138.7793
-36.623669 1270.7798 138.7793
-31.391701 1270.7798 138.7793
-26.159735 1270.7798 138.7793
-21.110115 1262.509 163.51416
-15.83256 1262.509 163.51416
-10.555108 1262.509 163.51416
-5.277554 1262.509 163.51416
0 1262.509 163.51416
5.2774534 1262.509 163.51416
10.555108 1262.509 163.51416
15.97458 1253.9204 189.19995
21.299576 1253.9204 189.19995
26.624367 1253.9204 189.19995
31.94916 1253.9204 189.19995
37.274155 1253.9204 189.19995
42.598946 1253.9204 189.19995
47.923943 1253.9204 189.19995
53.248734 1253.9204 189.19995
58.573528 1253.9204 189.19995
63.898525 1253.9204 189.19995
69.223312 1253.9204 189.19995
74.548309 1253.9204 189.19995
79.8731 1253.9204 189.19995
85.955338 1245.3315 214.88599
91.327667 1245.3315 214.88599
95.847679 1253.9204 189.19995
101.17268 1253.9204 189.19995
106.49747 1253.9204 189.19995
111.82227 1253.9204 189.19995
116.10578 1262.509 163.51416
121.38322 1262.509 163.51416
126.66088 1262.509 163.51416
131.93834 1262.509 163.51416
138.44662 1253.9204 189.19995
143.77162 1253.9204 189.19995
149.09642 1253.9204 189.19995
155.79427 1245.3315 214.88599
161.16641 1245.3315 214.88599
166.53854 1245.3315 214.88599
171.91087 1245.3315 214.88599
177.283 1245.3315 214.88599
182.65533 1245.3315 214.88599
188.02748 1245.3315 214.88599
193.39961 1245.3315 214.88599
198.77194 1245.3315 214.88599
206.00961 1236.4246 241.52344
211.43105 1236.4246 241.52344
218.81601 1227.5178 268.16064
224.28632 1227.5178 268.16064
229.75684 1227.5178 268.16064
235.22717 1227.5178 268.16064
242.93494 1218.2927 295.74951
-89.718109 1257.6511 161.4519
-84.440552 1257.6511 161.4519
-79.163002 1257.6511 161.4519
-73.885452 1257.6511 161.4519
-68.607895 1257.6511 161.4519
-63.330441 1257.6511 161.4519
-58.052891 1257.6511 161.4519
-52.775333 1257.6511 161.4519
-47.087502 1265.9637 136.73511
-41.855534 1265.9637 136.73511
-36.623669 1265.9637 136.73511
-31.391701 1265.9637 136.73511
-26.159735 1265.9637 136.73511
-21.110115 1257.6511 161.4519
-15.83256 1257.6511 161.4519
-10.555108 1257.6511 161.4519
-5.277554 1257.6511 161.4519
0 1257.6511 161.4519
5.2774534 1257.6511 161.4519
10.555108 1257.6511 161.4519
15.97458 1249.0188 187.11938
21.299576 1249.0188 187.11938
26.624367 1249.0188 187.11938
31.94916 1249.0188 187.11938
37.274155 1249.0188 187.11938
42.598946 1249.0188 187.11938
47.923943 1249.0188 187.11938
53.248734 1249.0188 187.11938
58.573528 1249.0188 187.11938
63.898525 1249.0188 187.11938
69.223312 1249.0188 187.11938
74.548309 1249.0188 187.11938
79.8731 1249.0188 187.11938
85.955338 1240.3864 212.78711
91.327667 1240.3864 212.78711
95.847679 1249.0188 187.11938
101.17268 1249.0188 187.11938
106.49747 1249.0188 187.11938
111.82227 1249.0188 187.11938
117.14725 1249.0188 187.11938
122.47205 1249.0188 187.11938
126.66088 1257.6511 161.4519
131.93834 1257.6511 161.4519
138.44662 1249.0188 187.11938
143.77162 1249.0188 187.11938
149.09642 1249.0188 187.11938
155.79427 1240.3864 212.78711
161.16641 1240.3864 212.78711
166.53854 1240.3864 212.78711
171.91087 1240.3864 212.78711
178.90309 1231.4343 239.40527
182.65533 1240.3864 212.78711
188.02748 1240.3864 212.78711
193.39961 1240.3864 212.78711
198.77194 1240.3864 212.78711
206.00961 1231.4343 239.40527
211.43105 1231.4343 239.40527
218.81601 1222.4822 266.02319
224.28632 1222.4822 266.02319
229.75684 1222.4822 266.02319
235.22717 1222.4822 266.02319
240.69769 1222.4822 266.02319
248.45612 1213.2103 293.59204
-99.406967 1261.1477 134.69092
-94.175003 1261.1477 134.69092
-88.943138 1261.1477 134.69092
-83.711174 1261.1477 134.69092
-78.479202 1261.1477 134.69092
-73.885452 1252.7931 159.38989
-68.607895 1252.7931 159.38989
-63.330441 1252.7931 159.38989
-57.551434 1261.1477 134.69092
-52.319469 1261.1477 134.69092
-47.49778 1252.7931 159.38989
-42.22023 1252.7931 159.38989
-36.623669 1261.1477 134.69092
-31.391701 1261.1477 134.69092
-26.159735 1261.1477 134.69092
-21.110115 1252.7931 159.38989
-15.83256 1252.7931 159.38989
-10.555108 1252.7931 159.38989
-5.277554 1252.7931 159.38989
0 1252.7931 159.38989
5.2774534 1252.7931 159.38989
10.555108 1252.7931 159.38989
15.97458 1244.1172 185.03882
21.299576 1244.1172 185.03882
26.624367 1244.1172 185.03882
31.94916 1244.1172 185.03882
37.274155 1244.1172 185.03882
42.598946 1244.1172 185.03882
47.923943 1244.1172 185.03882
53.248734 1244.1172 185.03882
58.573528 1244.1172 185.03882
63.898525 1244.1172 185.03882
69.223312 1244.1172 185.03882
74.548309 1244.1172 185.03882
79.8731 1244.1172 185.03882
85.197891 1244.1172 185.03882
91.327667 1235.4412 210.68799
95.847679 1244.1172 185.03882
101.17268 1244.1172 185.03882
106.49747 1244.1172 185.03882
111.82227 1244.1172 185.03882
117.14725 1244.1172 185.03882
122.47205 1244.1172 185.03882
126.66088 1252.7931 159.38989
131.93834 1252.7931 159.38989
138.44662 1244.1172 185.03882
143.77162 1244.1172 185.03882
149.09642 1244.1172 185.03882
155.79427 1235.4412 210.68799
161.16641 1235.4412 210.68799
166.53854 1235.4412 210.68799
171.91087 1235.4412 210.68799
177.283 1235.4412 210.68799
182.65533 1235.4412 210.68799
188.02748 1235.4412 210.68799
193.39961 1235.4412 210.68799
198.77194 1235.4412 210.68799
206.00961 1226.444 237.28687
211.43105 1226.444 237.28687
216.85228 1226.444 237.28687
224.28632 1217.4468 263.88574
229.75684 1217.4468 263.88574
235.22717 1217.4468 263.88574
240.69769 1217.4468 263.88574
246.16801 1217.4468 263.88574
251.63832 1217.4468 263.88574
-120.33474 1256.3318 132.64648
-115.10287 1256.3318 132.64648
-109.87091 1256.3318 132.64648
-104.63894 1256.3318 132.64648
-99.406967 1256.3318 132.64648
-94.175003 1256.3318 132.64648
-88.943138 1256.3318 132.64648
-83.711174 1256.3318 132.64648
-78.479202 1256.3318 132.64648
-73.247231 1256.3318 132.64648
-68.607895 1247.9351 157.32788
-63.330441 1247.9351 157.32788
-57.551434 1256.3318 132.64648
-52.319469 1256.3318 132.64648
-47.49778 1247.9351 157.32788
-41.855534 1256.3318 132.64648
-36.623669 1256.3318 132.64648
-31.391701 1256.3318 132.64648
-25.931801 1264.7283 107.96533
-20.74542 1264.7283 107.96533
-15.83256 1247.9351 157.32788
-10.555108 1247.9351 157.32788
-5.277554 1247.9351 157.32788
0 1247.9351 157.32788
5.2774534 1247.9351 157.32788
10.555108 1247.9351 157.32788
15.97458 1239.2156 182.95825
21.299576 1239.2156 182.95825
26.624367 1239.2156 182.95825
31.94916 1239.2156 182.95825
37.274155 1239.2156 182.95825
42.977669 1230.4961 208.58887
47.923943 1239.2156 182.95825
53.248734 1239.2156 182.95825
58.573528 1239.2156 182.95825
63.898525 1239.2156 182.95825
69.223312 1239.2156 182.95825
74.548309 1239.2156 182.95825
79.8731 1239.2156 182.95825
85.197891 1239.2156 182.95825
90.522888 1239.2156 182.95825
95.847679 1239.2156 182.95825
101.17268 1239.2156 182.95825
106.49747 1239.2156 182.95825
111.82227 1239.2156 182.95825
117.14725 1239.2156 182.95825
122.47205 1239.2156 182.95825
127.79705 1239.2156 182.95825
133.12184 1239.2156 182.95825
138.44662 1239.2156 182.95825
143.77162 1239.2156 182.95825
149.09642 1239.2156 182.95825
155.79427 1230.4961 208.58887
159.7462 1239.2156 182.95825
165.071 1239.2156 182.95825
171.91087 1230.4961 208.58887
177.283 1230.4961 208.58887
182.65533 1230.4961 208.58887
188.02748 1230.4961 208.58887
193.39961 1230.4961 208.58887
198.77194 1230.4961 208.58887
206.00961 1221.4536 235.1687
211.43105 1221.4536 235.1687
216.85228 1221.4536 235.1687
224.28632 1212.4113 261.74829
229.75684 1212.4113 261.74829
235.22717 1212.4113 261.74829
240.69769 1212.4113 261.74829
246.16801 1212.4113 261.74829
251.63832 1212.4113 261.74829
-126.66079 1243.0771 155.26562
-120.33474 1251.5156 130.60229
-115.10287 1251.5156 130.60229
-109.87091 1251.5156 130.60229
-104.63894 1251.5156 130.60229
-99.406967 1251.5156 130.60229
-94.175003 1251.5156 130.60229
-88.943138 1251.5156 130.60229
-83.711174 1251.5156 130.60229
-78.479202 1251.5156 130.60229
-73.247231 1251.5156 130.60229
-68.015266 1251.5156 130.60229
-62.783401 1251.5156 130.60229
-57.551434 1251.5156 130.60229
-52.319469 1251.5156 130.60229
-47.087502 1251.5156 130.60229
-41.855534 1251.5156 130.60229
-36.623669 1251.5156 130.60229
-31.391701 1251.5156 130.60229
-25.931801 1259.9541 105.93896
-20.74542 1259.9541 105.93896
-15.83256 1243.0771 155.26562
-10.555108 1243.0771 155.26562
-5.277554 1243.0771 155.26562
0 1243.0771 155.26562
5.2774534 1243.0771 155.26562
10.555108 1243.0771 155.26562
15.97458 1234.3141 180.87769
21.299576 1234.3141 180.87769
26.624367 1234.3141 180.87769
31.94916 1234.3141 180.87769
37.274155 1234.3141 180.87769
42.977669 1225.5509 206.48975
47.923943 1234.3141 180.87769
53.248734 1234.3141 180.87769
58.573528 1234.3141 180.87769
63.898525 1234.3141 180.87769
69.223312 1234.3141 180.87769
74.548309 1234.3141 180.87769
79.8731 1234.3141 180.87769
85.197891 1234.3141 180.87769
90.522888 1234.3141 180.87769
95.847679 1234.3141 180.87769
101.17268 1234.3141 180.87769
106.49747 1234.3141 180.87769
111.82227 1234.3141 180.87769
117.14725 1234.3141 180.87769
122.47205 1234.3141 180.87769
127.79705 1234.3141 180.87769
133.12184 1234.3141 180.87769
138.44662 1234.3141 180.87769
143.77162 1234.3141 180.87769
149.09642 1234.3141 180.87769
154.42142 1234.3141 180.87769
159.7462 1234.3141 180.87769
165.071 1234.3141 180.87769
171.91087 1225.5509 206.48975
177.283 1225.5509 206.48975
182.65533 1225.5509 206.48975
188.02748 1225.5509 206.48975
193.39961 1225.5509 206.48975
198.77194 1225.5509 206.48975
204.14407 1225.5509 206.48975
211.43105 1216.4634 233.05029
216.85228 1216.4634 233.05029
224.28632 1207.3757 259.61084
229.75684 1207.3757 259.61084
235.22717 1207.3757 259.61084
240.69769 1207.3757 259.61084
246.16801 1207.3757 259.61084
251.63832 1207.3757 259.61084
257.10886 1207.3757 259.61084
-125.5667 1246.6997 128.55811
-120.33474 1246.6997 128.55811
-115.10287 1246.6997 128.55811
-109.87091 1246.6997 128.55811
-104.63894 1246.6997 128.55811
-99.406967 1246.6997 128.55811
-94.175003 1246.6997 128.55811
-88.943138 1246.6997 128.55811
-83.711174 1246.6997 128.55811
-78.479202 1246.6997 128.55811
-73.247231 1246.6997 128.55811
-68.015266 1246.6997 128.55811
-62.783401 1246.6997 128.55811
-57.551434 1246.6997 128.55811
-52.319469 1246.6997 128.55811
-47.087502 1246.6997 128.55811
-41.855534 1246.6997 128.55811
-36.623669 1246.6997 128.55811
-31.391701 1246.6997 128.55811
-26.159735 1246.6997 128.55811
-20.927767 1246.6997 128.55811
-15.83256 1238.2191 153.20361
-10.555108 1238.2191 153.20361
-5.277554 1238.2191 153.20361
0 1238.2191 153.20361
5.2774534 1238.2191 153.20361
10.555108 1238.2191 153.20361
15.97458 1229.4125 178.79688
21.299576 1229.4125 178.79688
26.624367 1229.4125 178.79688
31.94916 1229.4125 178.79688
37.274155 1229.4125 178.79688
42.977669 1220.6057 204.39062
48.350006 1220.6057 204.39062
53.248734 1229.4125 178.79688
58.573528 1229.4125 178.79688
63.898525 1229.4125 178.79688
69.223312 1229.4125 178.79688
74.548309 1229.4125 178.79688
79.8731 1229.4125 178.79688
85.197891 1229.4125 178.79688
90.522888 1229.4125 178.79688
95.847679 1229.4125 178.79688
101.17268 1229.4125 178.79688
106.49747 1229.4125 178.79688
111.82227 1229.4125 178.79688
117.14725 1229.4125 178.79688
122.47205 1229.4125 178.79688
127.79705 1229.4125 178.79688
133.12184 1229.4125 178.79688
138.44662 1229.4125 178.79688
143.77162 1229.4125 178.79688
149.09642 1229.4125 178.79688
154.42142 1229.4125 178.79688
159.7462 1229.4125 178.79688
165.071 1229.4125 178.79688
171.91087 1220.6057 204.39062
177.283 1220.6057 204.39062
182.65533 1220.6057 204.39062
188.02748 1220.6057 204.39062
193.39961 1220.6057 204.39062
198.77194 1220.6057 204.39062
204.14407 1220.6057 204.39062
211.43105 1211.4729 230.93213
216.85228 1211.4729 230.93213
224.28632 1202.3401 257.47339
229.75684 1202.3401 257.47339
235.22717 1202.3401 257.47339
240.69769 1202.3401 257.47339
246.16801 1202.3401 257.47339
251.63832 1202.3401 257.47339
257.10886 1202.3401 257.47339
-131.93834 1233.3611 151.1416
-125.5667 1241.8837 126.51367
-120.33474 1241.8837 126.51367
-115.10287 1241.8837 126.51367
-109.87091 1241.8837 126.51367
-104.63894 1241.8837 126.51367
-98.540825 1250.406 101.88599
-93.354446 1250.406 101.88599
-88.943138 1241.8837 126.51367
-83.711174 1241.8837 126.51367
-78.479202 1241.8837 126.51367
-73.247231 1241.8837 126.51367
-68.015266 1241.8837 126.51367
-62.783401 1241.8837 126.51367
-57.551434 1241.8837 126.51367
-52.319469 1241.8837 126.51367
-47.087502 1241.8837 126.51367
-41.855534 1241.8837 126.51367
-36.623669 1241.8837 126.51367
-31.391701 1241.8837 126.51367
-26.159735 1241.8837 126.51367
-20.927767 1241.8837 126.51367
-15.83256 1233.3611 151.1416
-10.555108 1233.3611 151.1416
-5.277554 1233.3611 151.1416
0 1233.3611 151.1416
5.2774534 1233.3611 151.1416
10.649788 1224.511 176.71631
15.97458 1224.511 176.71631
21.299576 1224.511 176.71631
26.624367 1224.511 176.71631
31.94916 1224.511 176.71631
37.605534 1215.6606 202.2915
42.977669 1215.6606 202.2915
48.350006 1215.6606 202.2915
53.248734 1224.511 176.71631
58.573528 1224.511 176.71631
63.898525 1224.511 176.71631
69.223312 1224.511 176.71631
74.548309 1224.511 176.71631
79.163002 1233.3611 151.1416
84.44046 1233.3611 151.1416
90.522888 1224.511 176.71631
95.847679 1224.511 176.71631
101.17268 1224.511 176.71631
106.49747 1224.511 176.71631
111.82227 1224.511 176.71631
117.14725 1224.511 176.71631
122.47205 1224.511 176.71631
127.79705 1224.511 176.71631
133.12184 1224.511 176.71631
138.44662 1224.511 176.71631
143.77162 1224.511 176.71631
149.09642 1224.511 176.71631
154.42142 1224.511 176.71631
161.16641 1215.6606 202.2915
166.53854 1215.6606 202.2915
171.91087 1215.6606 202.2915
177.283 1215.6606 202.2915
182.65533 1215.6606 202.2915
188.02748 1215.6606 202.2915
193.39961 1215.6606 202.2915
200.58839 1206.4827 228.81372
206.00961 1206.4827 228.81372
211.43105 1206.4827 228.81372
216.85228 1206.4827 228.81372
224.28632 1197.3047 255.33594
229.75684 1197.3047 255.33594
235.22717 1197.3047 255.33594
240.69769 1197.3047 255.33594
246.16801 1197.3047 255.33594
251.63832 1197.3047 255.33594
257.10886 1197.3047 255.33594
-130.79868 1237.0676 124.46948
-125.5667 1237.0676 124.46948
-119.28625 1245.632 99.859375
-114.09996 1245.632 99.859375
-108.91359 1245.632 99.859375
-103.7272 1245.632 99.859375
-98.540825 1245.632 99.859375
-93.354446 1245.632 99.859375
-88.943138 1237.0676 124.46948
-83.711174 1237.0676 124.46948
-78.479202 1237.0676 124.46948
-73.247231 1237.0676 124.46948
-68.015266 1237.0676 124.46948
-62.783401 1237.0676 124.46948
-57.551434 1237.0676 124.46948
-52.319469 1237.0676 124.46948
-47.087502 1237.0676 124.46948
-41.855534 1237.0676 124.46948
-36.623669 1237.0676 124.46948
-31.391701 1237.0676 124.46948
-26.159735 1237.0676 124.46948
-20.927767 1237.0676 124.46948
-15.83256 1228.5032 149.07935
-10.555108 1228.5032 149.07935
-5.277554 1228.5032 149.07935
0 1219.6094 174.63574
5.3247924 1219.6094 174.63574
10.649788 1219.6094 174.63574
15.97458 1219.6094 174.63574
21.299576 1219.6094 174.63574
26.624367 1219.6094 174.63574
31.94916 1219.6094 174.63574
37.274155 1219.6094 174.63574
42.977669 1210.7155 200.19238
48.350006 1210.7155 200.19238
53.248734 1219.6094 174.63574
58.573528 1219.6094 174.63574
63.898525 1219.6094 174.63574
69.223312 1219.6094 174.63574
74.548309 1219.6094 174.63574
79.163002 1228.5032 149.07935
84.44046 1228.5032 149.07935
90.522888 1219.6094 174.63574
95.847679 1219.6094 174.63574
101.17268 1219.6094 174.63574
106.49747 1219.6094 174.63574
111.82227 1219.6094 174.63574
117.14725 1219.6094 174.63574
122.47205 1219.6094 174.63574
127.79705 1219.6094 174.63574
133.12184 1219.6094 174.63574
138.44662 1219.6094 174.63574
143.77162 1219.6094 174.63574
149.09642 1219.6094 174.63574
154.42142 1219.6094 174.63574
161.16641 1210.7155 200.19238
166.53854 1210.7155 200.19238
171.91087 1210.7155 200.19238
177.283 1210.7155 200.19238
182.65533 1210.7155 200.19238
188.02748 1210.7155 200.19238
193.39961 1210.7155 200.19238
200.58839 1201.4923 226.69556
206.00961 1201.4923 226.69556
211.43105 1201.4923 226.69556
216.85228 1201.4923 226.69556
224.28632 1192.2692 253.19849
229.75684 1192.2692 253.19849
235.22717 1192.2692 253.19849
240.69769 1192.2692 253.19849
246.16801 1192.2692 253.19849
251.63832 1192.2692 253.19849
259.49866 1182.7164 280.64819
-130.79868 1232.2515 122.42505
-125.5667 1232.2515 122.42505
-119.28625 1240.8579 97.833008
-114.09996 1240.8579 97.833008
-108.91359 1240.8579 97.833008
-103.7272 1240.8579 97.833008
-98.540825 1240.8579 97.833008
-93.354446 1240.8579 97.833008
-88.168159 1240.8579 97.833008
-82.981789 1240.8579 97.833008
-78.479202 1232.2515 122.42505
-72.609024 1240.8579 97.833008
-67.422646 1240.8579 97.833008
-62.783401 1232.2515 122.42505
-57.04998 1240.8579 97.833008
-51.863602 1240.8579 97.833008
-46.677223 1240.8579 97.833008
-41.490841 1240.8579 97.833008
-36.304562 1240.8579 97.833008
-31.118181 1240.8579 97.833008
-25.931801 1240.8579 97.833008
-20.74542 1240.8579 97.833008
-15.83256 1223.645 147.01733
-10.555108 1223.645 147.01733
-5.277554 1223.645 147.01733
0 1214.7078 172.55518
5.3247924 1214.7078 172.55518
10.649788 1214.7078 172.55518
15.97458 1214.7078 172.55518
21.299576 1214.7078 172.55518
26.624367 1214.7078 172.55518
31.94916 1214.7078 172.55518
37.274155 1214.7078 172.55518
42.977669 1205.7703 198.09326
48.350006 1205.7703 198.09326
53.248734 1214.7078 172.55518
58.573528 1214.7078 172.55518
63.898525 1214.7078 172.55518
69.223312 1214.7078 172.55518
74.548309 1214.7078 172.55518
79.163002 1223.645 147.01733
84.44046 1223.645 147.01733
90.522888 1214.7078 172.55518
95.847679 1214.7078 172.55518
101.17268 1214.7078 172.55518
106.49747 1214.7078 172.55518
110.82812 1223.645 147.01733
116.10578 1223.645 147.01733
121.38322 1223.645 147.01733
127.79705 1214.7078 172.55518
133.12184 1214.7078 172.55518
138.44662 1214.7078 172.55518
143.77162 1214.7078 172.55518
149.09642 1214.7078 172.55518
154.42142 1214.7078 172.55518
161.16641 1205.7703 198.09326
166.53854 1205.7703 198.09326
171.91087 1205.7703 198.09326
177.283 1205.7703 198.09326
182.65533 1205.7703 198.09326
188.02748 1205.7703 198.09326
195.16696 1196.502 224.57715
200.58839 1196.502 224.57715
206.00961 1196.502 224.57715
211.43105 1196.502 224.57715
216.85228 1196.502 224.57715
224.28632 1187.2335 251.06104
229.75684 1187.2335 251.06104
235.22717 1187.2335 251.06104
240.69769 1187.2335 251.06104
246.16801 1187.2335 251.06104
253.97728 1177.634 278.49097
259.49866 1177.634 278.49097
-131.93834 1218.7871 144.95508
-125.5667 1227.4355 120.38086
-119.28625 1236.0837 95.806396
-114.09996 1236.0837 95.806396
-108.91359 1236.0837 95.806396
-103.7272 1236.0837 95.806396
-98.540825 1236.0837 95.806396
-93.354446 1236.0837 95.806396
-88.168159 1236.0837 95.806396
-82.981789 1236.0837 95.806396
-78.479202 1227.4355 120.38086
-72.609024 1236.0837 95.806396
-67.422646 1236.0837 95.806396
-62.783401 1227.4355 120.38086
-57.04998 1236.0837 95.806396
-51.863602 1236.0837 95.806396
-46.677223 1236.0837 95.806396
-41.490841 1236.0837 95.806396
-36.304562 1236.0837 95.806396
-31.118181 1236.0837 95.806396
-25.931801 1236.0837 95.806396
-20.74542 1236.0837 95.806396
-15.83256 1218.7871 144.95508
-10.555108 1218.7871 144.95508
-5.277554 1218.7871 144.95508
0 1209.8062 170.47461
5.3247924 1209.8062 170.47461
10.649788 1209.8062 170.47461
15.97458 1209.8062 170.47461
21.299576 1209.8062 170.47461
26.624367 1209.8062 170.47461
31.94916 1209.8062 170.47461
37.274155 1209.8062 170.47461
42.598946 1209.8062 170.47461
47.923943 1209.8062 170.47461
53.248734 1209.8062 170.47461
58.573528 1209.8062 170.47461
63.898525 1209.8062 170.47461
69.223312 1209.8062 170.47461
74.548309 1209.8062 170.47461
79.163002 1218.7871 144.95508
84.44046 1218.7871 144.95508
90.522888 1209.8062 170.47461
94.99556 1218.7871 144.95508
100.27322 1218.7871 144.95508
105.55067 1218.7871 144.95508
110.82812 1218.7871 144.95508
116.10578 1218.7871 144.95508
121.38322 1218.7871 144.95508
126.66088 1218.7871 144.95508
131.93834 1218.7871 144.95508
138.44662 1209.8062 170.47461
143.77162 1209.8062 170.47461
149.09642 1209.8062 170.47461
154.42142 1209.8062 170.47461
161.16641 1200.8252 195.99414
166.53854 1200.8252 195.99414
171.91087 1200.8252 195.99414
177.283 1200.8252 195.99414
182.65533 1200.8252 195.99414
188.02748 1200.8252 195.99414
195.16696 1191.5116 222.45898
200.58839 1191.5116 222.45898
206.00961 1191.5116 222.45898
211.43105 1191.5116 222.45898
216.85228 1191.5116 222.45898
224.28632 1182.198 248.92358
229.75684 1182.198 248.92358
235.22717 1182.198 248.92358
240.69769 1182.198 248.92358
246.16801 1182.198 248.92358
251.63832 1182.198 248.92358
259.49866 1172.5516 276.3335
-130.79868 1222.6194 118.33667
-124.47263 1231.3097 93.780029
-119.28625 1231.3097 93.780029
-114.09996 1231.3097 93.780029
-108.91359 1231.3097 93.780029
-103.7272 1231.3097 93.780029
-98.540825 1231.3097 93.780029
-93.354446 1231.3097 93.780029
-88.168159 1231.3097 93.780029
-82.981789 1231.3097 93.780029
-77.795403 1231.3097 93.780029
-72.609024 1231.3097 93.780029
-67.422646 1231.3097 93.780029
-62.783401 1222.6194 118.33667
-57.551434 1222.6194 118.33667
-51.863602 1231.3097 93.780029
-46.677223 1231.3097 93.780029
-41.490841 1231.3097 93.780029
-36.304562 1231.3097 93.780029
-31.118181 1231.3097 93.780029
-26.159735 1222.6194 118.33667
-20.927767 1222.6194 118.33667
-15.83256 1213.9291 142.89307
-10.555108 1213.9291 142.89307
-5.277554 1213.9291 142.89307
0 1213.9291 142.89307
5.2774534 1213.9291 142.89307
10.649788 1204.9045 168.39404
15.97458 1204.9045 168.39404
21.299576 1204.9045 168.39404
26.624367 1204.9045 168.39404
31.94916 1204.9045 168.39404
37.274155 1204.9045 168.39404
42.598946 1204.9045 168.39404
47.923943 1204.9045 168.39404
53.248734 1204.9045 168.39404
58.573528 1204.9045 168.39404
63.898525 1204.9045 168.39404
69.223312 1204.9045 168.39404
74.548309 1204.9045 168.39404
79.163002 1213.9291 142.89307
84.44046 1213.9291 142.89307
90.522888 1204.9045 168.39404
94.99556 1213.9291 142.89307
100.27322 1213.9291 142.89307
105.55067 1213.9291 142.89307
110.82812 1213.9291 142.89307
116.10578 1213.9291 142.89307
121.38322 1213.9291 142.89307
126.66088 1213.9291 142.89307
131.93834 1213.9291 142.89307
138.44662 1204.9045 168.39404
143.77162 1204.9045 168.39404
149.09642 1204.9045 168.39404
154.42142 1204.9045 168.39404
161.16641 1195.88 193.89526
166.53854 1195.88 193.89526
171.91087 1195.88 193.89526
177.283 1195.88 193.89526
182.65533 1195.88 193.89526
188.02748 1195.88 193.89526
195.16696 1186.5212 220.34082
200.58839 1186.5212 220.34082
206.00961 1186.5212 220.34082
211.43105 1186.5212 220.34082
216.85228 1186.5212 220.34082
224.28632 1177.1625 246.78613
229.75684 1177.1625 246.78613
235.22717 1177.1625 246.78613
240.69769 1177.1625 246.78613
246.16801 1177.1625 246.78613
251.63832 1177.1625 246.78613
259.49866 1167.4694 274.17627
-130.79868 1217.8035 116.29224
-124.47263 1226.5356 91.753662
-119.28625 1226.5356 91.753662
-114.09996 1226.5356 91.753662
-108.91359 1226.5356 91.753662
-103.7272 1226.5356 91.753662
-98.540825 1226.5356 91.753662
-93.354446 1226.5356 91.753662
-88.168159 1226.5356 91.753662
-82.981789 1226.5356 91.753662
-77.795403 1226.5356 91.753662
-72.609024 1226.5356 91.753662
-67.422646 1226.5356 91.753662
-62.236362 1226.5356 91.753662
-57.551434 1217.8035 116.29224
-51.863602 1226.5356 91.753662
-46.677223 1226.5356 91.753662
-41.490841 1226.5356 91.753662
-36.304562 1226.5356 91.753662
-31.391701 1217.8035 116.29224
-26.159735 1217.8035 116.29224
-20.927767 1217.8035 116.29224
-15.83256 1209.071 140.83105
-10.555108 1209.071 140.83105
-5.277554 1209.071 140.83105
0 1209.071 140.83105
5.2774534 1209.071 140.83105
10.649788 1200.0031 166.31348
15.97458 1200.0031 166.31348
21.299576 1200.0031 166.31348
26.624367 1200.0031 166.31348
31.94916 1200.0031 166.31348
37.274155 1200.0031 166.31348
42.598946 1200.0031 166.31348
47.923943 1200.0031 166.31348
53.248734 1200.0031 166.31348
58.573528 1200.0031 166.31348
63.898525 1200.0031 166.31348
69.223312 1200.0031 166.31348
74.548309 1200.0031 166.31348
79.8731 1200.0031 166.31348
85.197891 1200.0031 166.31348
89.718109 1209.071 140.83105
94.99556 1209.071 140.83105
100.27322 1209.071 140.83105
105.55067 1209.071 140.83105
110.82812 1209.071 140.83105
116.10578 1209.071 140.83105
121.38322 1209.071 140.83105
126.66088 1209.071 140.83105
131.93834 1209.071 140.83105
137.21579 1209.071 140.83105
143.77162 1200.0031 166.31348
149.09642 1200.0031 166.31348
154.42142 1200.0031 166.31348
161.16641 1190.9348 191.79614
166.53854 1190.9348 191.79614
171.91087 1190.9348 191.79614
177.283 1190.9348 191.79614
182.65533 1190.9348 191.79614
188.02748 1190.9348 191.79614
195.16696 1181.5309 218.22241
200.58839 1181.5309 218.22241
206.00961 1181.5309 218.22241
211.43105 1181.5309 218.22241
216.85228 1181.5309 218.22241
224.28632 1172.127 244.64868
229.75684 1172.127 244.64868
235.22717 1172.127 244.64868
240.69769 1172.127 244.64868
246.16801 1172.127 244.64868
251.63832 1172.127 244.64868
259.49866 1162.387 272.0188
-130.79868 1212.9874 114.24805
-125.5667 1212.9874 114.24805
-120.33474 1212.9874 114.24805
-115.10287 1212.9874 114.24805
-109.87091 1212.9874 114.24805
-103.7272 1221.7616 89.727051
-98.540825 1221.7616 89.727051
-93.354446 1221.7616 89.727051
-88.168159 1221.7616 89.727051
-82.981789 1221.7616 89.727051
-77.795403 1221.7616 89.727051
-72.609024 1221.7616 89.727051
-67.422646 1221.7616 89.727051
-62.236362 1221.7616 89.727051
-57.04998 1221.7616 89.727051
-51.863602 1221.7616 89.727051
-46.677223 1221.7616 89.727051
-41.490841 1221.7616 89.727051
-36.304562 1221.7616 89.727051
-31.391701 1212.9874 114.24805
-26.159735 1212.9874 114.24805
-20.927767 1212.9874 114.24805
-15.83256 1204.2131 138.7688
-10.555108 1204.2131 138.7688
-5.277554 1204.2131 138.7688
0 1204.2131 138.7688
5.2774534 1204.2131 138.7688
10.649788 1195.1014 164.23291
15.97458 1195.1014 164.23291
21.299576 1195.1014 164.23291
26.624367 1195.1014 164.23291
31.94916 1195.1014 164.23291
37.274155 1195.1014 164.23291
42.598946 1195.1014 164.23291
47.923943 1195.1014 164.23291
53.248734 1195.1014 164.23291
58.573528 1195.1014 164.23291
63.898525 1195.1014 164.23291
69.223312 1195.1014 164.23291
74.548309 1195.1014 164.23291
79.8731 1195.1014 164.23291
85.197891 1195.1014 164.23291
89.718109 1204.2131 138.7688
94.99556 1204.2131 138.7688
100.27322 1204.2131 138.7688
105.55067 1204.2131 138.7688
110.82812 1204.2131 138.7688
116.10578 1204.2131 138.7688
121.38322 1204.2131 138.7688
126.66088 1204.2131 138.7688
131.93834 1204.2131 138.7688
137.21579 1204.2131 138.7688
142.49345 1204.2131 138.7688
149.09642 1195.1014 164.23291
154.42142 1195.1014 164.23291
161.16641 1185.9897 189.69702
166.53854 1185.9897 189.69702
171.91087 1185.9897 189.69702
177.283 1185.9897 189.69702
184.32451 1176.5405 216.10425
189.74574 1176.5405 216.10425
195.16696 1176.5405 216.10425
200.58839 1176.5405 216.10425
206.00961 1176.5405 216.10425
211.43105 1176.5405 216.10425
216.85228 1176.5405 216.10425
224.28632 1167.0914 242.51123
229.75684 1167.0914 242.51123
235.22717 1167.0914 242.51123
240.69769 1167.0914 242.51123
246.16801 1167.0914 242.51123
251.63832 1167.0914 242.51123
259.49866 1157.3047 269.86157
267.46045 1147.5181 297.21167
-137.21588 1199.3551 136.70679
-130.79868 1208.1714 112.20361
-125.5667 1208.1714 112.20361
-120.33474 1208.1714 112.20361
-115.10287 1208.1714 112.20361
-109.87091 1208.1714 112.20361
-103.7272 1216.9875 87.700684
-98.540825 1216.9875 87.700684
-93.354446 1216.9875 87.700684
-88.168159 1216.9875 87.700684
-82.981789 1216.9875 87.700684
-77.795403 1216.9875 87.700684
-72.609024 1216.9875 87.700684
-67.422646 1216.9875 87.700684
-62.236362 1216.9875 87.700684
-57.04998 1216.9875 87.700684
-51.863602 1216.9875 87.700684
-46.677223 1216.9875 87.700684
-41.490841 1216.9875 87.700684
-36.304562 1216.9875 87.700684
-31.391701 1208.1714 112.20361
-26.159735 1208.1714 112.20361
-20.927767 1208.1714 112.20361
-15.83256 1199.3551 136.70679
-10.555108 1199.3551 136.70679
-5.277554 1199.3551 136.70679
0 1199.3551 136.70679
5.2774534 1199.3551 136.70679
10.555108 1199.3551 136.70679
15.83256 1199.3551 136.70679
21.110216 1199.3551 136.70679
26.387667 1199.3551 136.70679
31.94916 1190.2 162.15234
37.274155 1190.2 162.15234
42.598946 1190.2 162.15234
47.923943 1190.2 162.15234
53.248734 1190.2 162.15234
58.573528 1190.2 162.15234
63.898525 1190.2 162.15234
69.223312 1190.2 162.15234
74.548309 1190.2 162.15234
79.8731 1190.2 162.15234
85.197891 1190.2 162.15234
90.522888 1190.2 162.15234
94.99556 1199.3551 136.70679
100.27322 1199.3551 136.70679
105.55067 1199.3551 136.70679
110.82812 1199.3551 136.70679
116.10578 1199.3551 136.70679
121.38322 1199.3551 136.70679
126.66088 1199.3551 136.70679
131.93834 1199.3551 136.70679
137.21579 1199.3551 136.70679
142.49345 1199.3551 136.70679
149.09642 1190.2 162.15234
154.42142 1190.2 162.15234
161.16641 1181.0446 187.5979
166.53854 1181.0446 187.5979
171.91087 1181.0446 187.5979
177.283 1181.0446 187.5979
184.32451 1171.5502 213.98584
189.74574 1171.5502 213.98584
195.16696 1171.5502 213.98584
200.58839 1171.5502 213.98584
206.00961 1171.5502 213.98584
211.43105 1171.5502 213.98584
216.85228 1171.5502 213.98584
224.28632 1162.0559 240.37378
229.75684 1162.0559 240.37378
235.22717 1162.0559 240.37378
240.69769 1162.0559 240.37378
246.16801 1162.0559 240.37378
251.63832 1162.0559 240.37378
259.49866 1152.2223 267.70435
267.46045 1142.3889 295.03467
-137.21588 1194.4971 134.64478
-130.79868 1203.3553 110.15942
-125.5667 1203.3553 110.15942
-120.33474 1203.3553 110.15942
-115.10287 1203.3553 110.15942
-109.87091 1203.3553 110.15942
-103.7272 1212.2134 85.674072
-98.540825 1212.2134 85.674072
-93.354446 1212.2134 85.674072
-88.168159 1212.2134 85.674072
-82.981789 1212.2134 85.674072
-77.795403 1212.2134 85.674072
-72.609024 1212.2134 85.674072
-67.422646 1212.2134 85.674072
-62.236362 1212.2134 85.674072
-57.04998 1212.2134 85.674072
-51.863602 1212.2134 85.674072
-46.677223 1212.2134 85.674072
-41.490841 1212.2134 85.674072
-36.304562 1212.2134 85.674072
-31.391701 1203.3553 110.15942
-26.159735 1203.3553 110.15942
-20.927767 1203.3553 110.15942
-15.695801 1203.3553 110.15942
-10.555108 1194.4971 134.64478
-5.277554 1194.4971 134.64478
0 1194.4971 134.64478
5.2774534 1194.4971 134.64478
10.555108 1194.4971 134.64478
15.83256 1194.4971 134.64478
21.110216 1194.4971 134.64478
26.387667 1194.4971 134.64478
31.665119 1194.4971 134.64478
37.274155 1185.2983 160.07153
42.598946 1185.2983 160.07153
47.923943 1185.2983 160.07153
53.248734 1185.2983 160.07153
58.573528 1185.2983 160.07153
63.898525 1185.2983 160.07153
69.223312 1185.2983 160.07153
74.548309 1185.2983 160.07153
79.8731 1185.2983 160.07153
85.197891 1185.2983 160.07153
90.522888 1185.2983 160.07153
94.99556 1194.4971 134.64478
100.27322 1194.4971 134.64478
105.55067 1194.4971 134.64478
110.82812 1194.4971 134.64478
116.10578 1194.4971 134.64478
121.38322 1194.4971 134.64478
126.66088 1194.4971 134.64478
131.93834 1194.4971 134.64478
137.21579 1194.4971 134.64478
142.49345 1194.4971 134.64478
149.09642 1185.2983 160.07153
154.42142 1185.2983 160.07153
161.16641 1176.0994 185.49878
166.53854 1176.0994 185.49878
171.91087 1176.0994 185.49878
177.283 1176.0994 185.49878
182.65533 1176.0994 185.49878
189.74574 1166.5599 211.86768
195.16696 1166.5599 211.86768
200.58839 1166.5599 211.86768
207.87517 1157.0204 238.23633
213.34569 1157.0204 238.23633
218.81601 1157.0204 238.23633
224.28632 1157.0204 238.23633
229.75684 1157.0204 238.23633
235.22717 1157.0204 238.23633
240.69769 1157.0204 238.23633
246.16801 1157.0204 238.23633
251.63832 1157.0204 238.23633
257.10886 1157.0204 238.23633
265.01981 1147.14 265.54688
270.54117 1147.14 265.54688
-142.49345 1189.6392 132.58252
-137.21588 1189.6392 132.58252
-131.93834 1189.6392 132.58252
-125.5667 1198.5393 108.11523
-120.33474 1198.5393 108.11523
-115.10287 1198.5393 108.11523
-109.87091 1198.5393 108.11523
-103.7272 1207.4395 83.647705
-98.540825 1207.4395 83.647705
-93.354446 1207.4395 83.647705
-88.168159 1207.4395 83.647705
-82.981789 1207.4395 83.647705
-77.795403 1207.4395 83.647705
-72.609024 1207.4395 83.647705
-67.422646 1207.4395 83.647705
-62.236362 1207.4395 83.647705
-57.04998 1207.4395 83.647705
-51.863602 1207.4395 83.647705
-46.677223 1207.4395 83.647705
-41.490841 1207.4395 83.647705
-36.304562 1207.4395 83.647705
-31.391701 1198.5393 108.11523
-25.931801 1207.4395 83.647705
-20.74542 1207.4395 83.647705
-15.695801 1198.5393 108.11523
-10.463933 1198.5393 108.11523
-5.2319665 1198.5393 108.11523
0 1198.5393 108.11523
5.2318668 1198.5393 108.11523
10.555108 1189.6392 132.58252
15.83256 1189.6392 132.58252
21.110216 1189.6392 132.58252
26.387667 1189.6392 132.58252
31.665119 1189.6392 132.58252
37.274155 1180.3967 157.99097
42.598946 1180.3967 157.99097
47.923943 1180.3967 157.99097
53.248734 1180.3967 157.99097
58.573528 1180.3967 157.99097
63.898525 1180.3967 157.99097
69.223312 1180.3967 157.99097
74.548309 1180.3967 157.99097
79.8731 1180.3967 157.99097
85.197891 1180.3967 157.99097
90.522888 1180.3967 157.99097
94.99556 1189.6392 132.58252
100.27322 1189.6392 132.58252
105.55067 1189.6392 132.58252
110.82812 1189.6392 132.58252
116.10578 1189.6392 132.58252
121.38322 1189.6392 132.58252
126.66088 1189.6392 132.58252
131.93834 1189.6392 132.58252
137.21579 1189.6392 132.58252
142.49345 1189.6392 132.58252
149.09642 1180.3967 157.99097
154.42142 1180.3967 157.99097
159.7462 1180.3967 157.99097
166.53854 1171.1543 183.39966
171.91087 1171.1543 183.39966
177.283 1171.1543 183.39966
182.65533 1171.1543 183.39966
189.74574 1161.5696 209.74927
196.93433 1151.9849 236.09888
202.40485 1151.9849 236.09888
207.87517 1151.9849 236.09888
213.34569 1151.9849 236.09888
218.81601 1151.9849 236.09888
224.28632 1151.9849 236.09888
229.75684 1151.9849 236.09888
237.41357 1142.0576 263.38965
240.69769 1151.9849 236.09888
246.16801 1151.9849 236.09888
251.63832 1151.9849 236.09888
257.10886 1151.9849 236.09888
262.57916 1151.9849 236.09888
268.04968 1151.9849 236.09888
-142.49345 1184.7811 130.52051
-136.03064 1193.7233 106.0708
-130.79868 1193.7233 106.0708
-125.5667 1193.7233 106.0708
-120.33474 1193.7233 106.0708
-115.10287 1193.7233 106.0708
-109.87091 1193.7233 106.0708
-103.7272 1202.6653 81.621094
-98.540825 1202.6653 81.621094
-93.354446 1202.6653 81.621094
-88.168159 1202.6653 81.621094
-82.981789 1202.6653 81.621094
-77.795403 1202.6653 81.621094
-72.609024 1202.6653 81.621094
-67.422646 1202.6653 81.621094
-62.783401 1193.7233 106.0708
-57.04998 1202.6653 81.621094
-51.863602 1202.6653 81.621094
-46.677223 1202.6653 81.621094
-41.490841 1202.6653 81.621094
-36.304562 1202.6653 81.621094
-31.391701 1193.7233 106.0708
-25.931801 1202.6653 81.621094
-20.74542 1202.6653 81.621094
-15.695801 1193.7233 106.0708
-10.463933 1193.7233 106.0708
-5.2319665 1193.7233 106.0708
0 1193.7233 106.0708
5.2318668 1193.7233 106.0708
10.555108 1184.7811 130.52051
15.83256 1184.7811 130.52051
21.110216 1184.7811 130.52051
26.387667 1184.7811 130.52051
31.665119 1184.7811 130.52051
37.274155 1175.4952 155.9104
42.598946 1175.4952 155.9104
47.923943 1175.4952 155.9104
53.248734 1175.4952 155.9104
58.573528 1175.4952 155.9104
63.898525 1175.4952 155.9104
69.223312 1175.4952 155.9104
74.548309 1175.4952 155.9104
79.8731 1175.4952 155.9104
85.197891 1175.4952 155.9104
90.522888 1175.4952 155.9104
94.99556 1184.7811 130.52051
100.27322 1184.7811 130.52051
105.55067 1184.7811 130.52051
110.82812 1184.7811 130.52051
116.10578 1184.7811 130.52051
121.38322 1184.7811 130.52051
126.66088 1184.7811 130.52051
131.93834 1184.7811 130.52051
137.21579 1184.7811 130.52051
142.49345 1184.7811 130.52051
149.09642 1175.4952 155.9104
154.42142 1175.4952 155.9104
159.7462 1175.4952 155.9104
165.071 1175.4952 155.9104
170.396 1175.4952 155.9104
177.283 1166.2091 181.30054
182.65533 1166.2091 181.30054
189.74574 1156.5792 207.6311
195.16696 1156.5792 207.6311
200.58839 1156.5792 207.6311
207.87517 1146.9493 233.96143
213.34569 1146.9493 233.96143
218.81601 1146.9493 233.96143
224.28632 1146.9493 233.96143
229.75684 1146.9493 233.96143
237.41357 1136.9753 261.23218
242.93494 1136.9753 261.23218
248.45612 1136.9753 261.23218
251.63832 1146.9493 233.96143
257.10886 1146.9493 233.96143
262.57916 1146.9493 233.96143
270.54117 1136.9753 261.23218
-142.49345 1179.9231 128.4585
-136.03064 1188.9072 104.02661
-130.79868 1188.9072 104.02661
-125.5667 1188.9072 104.02661
-120.33474 1188.9072 104.02661
-115.10287 1188.9072 104.02661
-109.87091 1188.9072 104.02661
-104.63894 1188.9072 104.02661
-98.540825 1197.8912 79.594727
-93.354446 1197.8912 79.594727
-88.168159 1197.8912 79.594727
-82.981789 1197.8912 79.594727
-77.795403 1197.8912 79.594727
-72.609024 1197.8912 79.594727
-67.422646 1197.8912 79.594727
-62.783401 1188.9072 104.02661
-57.04998 1197.8912 79.594727
-51.863602 1197.8912 79.594727
-46.677223 1197.8912 79.594727
-41.490841 1197.8912 79.594727
-36.304562 1197.8912 79.594727
-31.391701 1188.9072 104.02661
-25.931801 1197.8912 79.594727
-20.74542 1197.8912 79.594727
-15.695801 1188.9072 104.02661
-10.463933 1188.9072 104.02661
-5.2319665 1188.9072 104.02661
0 1188.9072 104.02661
5.2318668 1188.9072 104.02661
10.463933 1188.9072 104.02661
15.695801 1188.9072 104.02661
21.110216 1179.9231 128.4585
26.387667 1179.9231 128.4585
31.665119 1179.9231 128.4585
36.942772 1179.9231 128.4585
42.22023 1179.9231 128.4585
47.497883 1179.9231 128.4585
53.248734 1170.5936 153.82983
58.573528 1170.5936 153.82983
63.898525 1170.5936 153.82983
69.223312 1170.5936 153.82983
74.548309 1170.5936 153.82983
79.8731 1170.5936 153.82983
85.197891 1170.5936 153.82983
90.522888 1170.5936 153.82983
94.99556 1179.9231 128.4585
100.27322 1179.9231 128.4585
105.55067 1179.9231 128.4585
110.82812 1179.9231 128.4585
116.10578 1179.9231 128.4585
121.38322 1179.9231 128.4585
127.79705 1170.5936 153.82983
133.12184 1170.5936 153.82983
138.44662 1170.5936 153.82983
143.77162 1170.5936 153.82983
149.09642 1170.5936 153.82983
154.42142 1170.5936 153.82983
159.7462 1170.5936 153.82983
165.071 1170.5936 153.82983
170.396 1170.5936 153.82983
177.283 1161.264 179.20166
182.65533 1161.264 179.20166
189.74574 1151.5889 205.51294
195.16696 1151.5889 205.51294
200.58839 1151.5889 205.51294
207.87517 1141.9138 231.82397
213.34569 1141.9138 231.82397
218.81601 1141.9138 231.82397
224.28632 1141.9138 231.82397
229.75684 1141.9138 231.82397
235.22717 1141.9138 231.82397
242.93494 1131.8931 259.07495
248.45612 1131.8931 259.07495
253.97728 1131.8931 259.07495
259.49866 1131.8931 259.07495
265.01981 1131.8931 259.07495
270.54117 1131.8931 259.07495
-141.2626 1184.0912 101.98242
-136.03064 1184.0912 101.98242
-130.79868 1184.0912 101.98242
-125.5667 1184.0912 101.98242
-120.33474 1184.0912 101.98242
-115.10287 1184.0912 101.98242
-109.87091 1184.0912 101.98242
-104.63894 1184.0912 101.98242
-98.540825 1193.1172 77.568359
-93.354446 1193.1172 77.568359
-88.168159 1193.1172 77.568359
-82.981789 1193.1172 77.568359
-77.795403 1193.1172 77.568359
-72.609024 1193.1172 77.568359
-67.422646 1193.1172 77.568359
-62.783401 1184.0912 101.98242
-57.04998 1193.1172 77.568359
-51.863602 1193.1172 77.568359
-46.677223 1193.1172 77.568359
-41.490841 1193.1172 77.568359
-36.304562 1193.1172 77.568359
-31.118181 1193.1172 77.568359
-25.931801 1193.1172 77.568359
-20.74542 1193.1172 77.568359
-15.695801 1184.0912 101.98242
-10.463933 1184.0912 101.98242
-5.2319665 1184.0912 101.98242
0 1184.0912 101.98242
5.2318668 1184.0912 101.98242
10.463933 1184.0912 101.98242
15.695801 1184.0912 101.98242
21.110216 1175.0652 126.39624
26.387667 1175.0652 126.39624
31.665119 1175.0652 126.39624
36.942772 1175.0652 126.39624
42.22023 1175.0652 126.39624
47.497883 1175.0652 126.39624
52.775333 1175.0652 126.39624
58.573528 1165.692 151.74927
63.898525 1165.692 151.74927
69.223312 1165.692 151.74927
74.548309 1165.692 151.74927
79.8731 1165.692 151.74927
85.197891 1165.692 151.74927
90.522888 1165.692 151.74927
95.847679 1165.692 151.74927
100.27322 1175.0652 126.39624
105.55067 1175.0652 126.39624
110.82812 1175.0652 126.39624
116.10578 1175.0652 126.39624
121.38322 1175.0652 126.39624
127.79705 1165.692 151.74927
133.12184 1165.692 151.74927
138.44662 1165.692 151.74927
143.77162 1165.692 151.74927
149.09642 1165.692 151.74927
154.42142 1165.692 151.74927
159.7462 1165.692 151.74927
165.071 1165.692 151.74927
170.396 1165.692 151.74927
177.283 1156.3188 177.10254
182.65533 1156.3188 177.10254
189.74574 1146.5985 203.39453
195.16696 1146.5985 203.39453
202.40485 1136.8783 229.68652
207.87517 1136.8783 229.68652
213.34569 1136.8783 229.68652
218.81601 1136.8783 229.68652
224.28632 1136.8783 229.68652
229.75684 1136.8783 229.68652
235.22717 1136.8783 229.68652
242.93494 1126.8107 256.91772
248.45612 1126.8107 256.91772
253.97728 1126.8107 256.91772
259.49866 1126.8107 256.91772
265.01981 1126.8107 256.91772
273.03268 1116.7433 284.14868
-146.49446 1179.2753 99.937988
-141.2626 1179.2753 99.937988
-136.03064 1179.2753 99.937988
-129.65901 1188.3431 75.541748
-124.47263 1188.3431 75.541748
-120.33474 1179.2753 99.937988
-115.10287 1179.2753 99.937988
-109.87091 1179.2753 99.937988
-104.63894 1179.2753 99.937988
-99.406967 1179.2753 99.937988
-94.175003 1179.2753 99.937988
-88.943138 1179.2753 99.937988
-83.711174 1179.2753 99.937988
-78.479202 1179.2753 99.937988
-72.609024 1188.3431 75.541748
-67.422646 1188.3431 75.541748
-62.783401 1179.2753 99.937988
-57.04998 1188.3431 75.541748
-51.863602 1188.3431 75.541748
-46.677223 1188.3431 75.541748
-41.490841 1188.3431 75.541748
-36.304562 1188.3431 75.541748
-31.118181 1188.3431 75.541748
-25.931801 1188.3431 75.541748
-20.74542 1188.3431 75.541748
-15.695801 1179.2753 99.937988
-10.463933 1179.2753 99.937988
-5.2319665 1179.2753 99.937988
0 1179.2753 99.937988
5.2318668 1179.2753 99.937988
10.463933 1179.2753 99.937988
15.695801 1179.2753 99.937988
21.110216 1170.2072 124.33423
26.387667 1170.2072 124.33423
31.665119 1170.2072 124.33423
36.942772 1170.2072 124.33423
42.22023 1170.2072 124.33423
47.497883 1170.2072 124.33423
52.775333 1170.2072 124.33423
58.573528 1160.7905 149.6687
63.898525 1160.7905 149.6687
69.223312 1160.7905 149.6687
74.548309 1160.7905 149.6687
79.8731 1160.7905 149.6687
85.197891 1160.7905 149.6687
90.522888 1160.7905 149.6687
95.847679 1160.7905 149.6687
101.17268 1160.7905 149.6687
106.49747 1160.7905 149.6687
111.82227 1160.7905 149.6687
117.14725 1160.7905 149.6687
122.47205 1160.7905 149.6687
127.79705 1160.7905 149.6687
133.12184 1160.7905 149.6687
138.44662 1160.7905 149.6687
143.77162 1160.7905 149.6687
149.09642 1160.7905 149.6687
154.42142 1160.7905 149.6687
159.7462 1160.7905 149.6687
165.071 1160.7905 149.6687
170.396 1160.7905 149.6687
177.283 1151.3737 175.00342
182.65533 1151.3737 175.00342
189.74574 1141.6082 201.27637
196.93433 1131.8428 227.54883
202.40485 1131.8428 227.54883
207.87517 1131.8428 227.54883
213.34569 1131.8428 227.54883
218.81601 1131.8428 227.54883
224.28632 1131.8428 227.54883
231.89241 1121.7284 254.76025
237.41357 1121.7284 254.76025
242.93494 1121.7284 254.76025
248.45612 1121.7284 254.76025
253.97728 1121.7284 254.76025
259.49866 1121.7284 254.76025
265.01981 1121.7284 254.76025
273.03268 1111.6141 281.97144
278.60468 1111.6141 281.97144
-143.99071 1192.3286 50.074463
-138.84827 1192.3286 50.074463
-133.70572 1192.3286 50.074463
-129.65901 1183.5691 73.515381
-124.47263 1183.5691 73.515381
-120.33474 1174.4592 97.893799
-115.10287 1174.4592 97.893799
-109.87091 1174.4592 97.893799
-104.63894 1174.4592 97.893799
-99.406967 1174.4592 97.893799
-94.175003 1174.4592 97.893799
-88.943138 1174.4592 97.893799
-83.711174 1174.4592 97.893799
-78.479202 1174.4592 97.893799
-73.247231 1174.4592 97.893799
-68.015266 1174.4592 97.893799
-62.783401 1174.4592 97.893799
-57.04998 1183.5691 73.515381
-51.863602 1183.5691 73.515381
-46.677223 1183.5691 73.515381
-41.490841 1183.5691 73.515381
-36.304562 1183.5691 73.515381
-31.118181 1183.5691 73.515381
-26.159735 1174.4592 97.893799
-20.927767 1174.4592 97.893799
-15.695801 1174.4592 97.893799
-10.463933 1174.4592 97.893799
-5.2319665 1174.4592 97.893799
0 1174.4592 97.893799
5.2318668 1174.4592 97.893799
10.463933 1174.4592 97.893799
15.695801 1174.4592 97.893799
21.110216 1165.3492 122.27222
26.387667 1165.3492 122.27222
31.665119 1165.3492 122.27222
36.942772 1165.3492 122.27222
42.22023 1165.3492 122.27222
47.497883 1165.3492 122.27222
52.775333 1165.3492 122.27222
58.573528 1155.8889 147.58813
63.898525 1155.8889 147.58813
69.223312 1155.8889 147.58813
74.548309 1155.8889 147.58813
79.8731 1155.8889 147.58813
85.197891 1155.8889 147.58813
90.522888 1155.8889 147.58813
95.847679 1155.8889 147.58813
101.17268 1155.8889 147.58813
106.49747 1155.8889 147.58813
111.82227 1155.8889 147.58813
117.14725 1155.8889 147.58813
122.47205 1155.8889 147.58813
