ply
format ascii 1.0
comment PCL generated
element vertex 1549
property float x
property float y
property float z
element camera 0
property float view_px
property float view_py
property float view_pz
property float x_axisx
property float x_axisy
property float x_axisz
property float y_axisx
property float y_axisy
property float y_axisz
property float z_axisx
property float z_axisy
property float z_axisz
property float focal
property float scalex
property float scaley
property float centerx
property float centery
property int viewportx
property int viewporty
property float k1
property float k2
end_header
226.37105 715.1416 82.174561
231.89241 715.1416 82.174561
441.96445 768.66467 -16.778809
447.28946 768.66467 -16.778809
456.63815 755.76172 7.0761719
457.93906 768.66467 -16.778809
463.26404 768.66467 -16.778809
468.58884 768.66467 -16.778809
478.12711 755.76172 7.0761719
483.49921 755.76172 7.0761719
484.56342 768.66467 -16.778809
489.8884 768.66467 -16.778809
495.2132 768.66467 -16.778809
500.53821 768.66467 -16.778809
505.86298 768.66467 -16.778809
-408.0918 789.17664 -65.648926
-402.85995 789.17664 -65.648926
-397.62796 789.17664 -65.648926
-395.815 776.70959 -42.695557
-390.53745 776.70959 -42.695557
-385.25992 776.70959 -42.695557
-379.98245 776.70959 -42.695557
-374.70493 776.70959 -42.695557
-369.42734 776.70959 -42.695557
-364.14978 776.70959 -42.695557
-362.09137 763.76318 -18.859375
-356.76657 763.76318 -18.859375
-351.44168 763.76318 -18.859375
-346.11679 763.76318 -18.859375
-173.48186 737.39075 29.696289
-168.06053 737.39075 29.696289
-161.16641 750.81665 4.9770508
-155.79417 750.81665 4.9770508
-150.42194 750.81665 4.9770508
-145.04982 750.81665 4.9770508
-139.67758 750.81665 4.9770508
-133.12184 763.76318 -18.859375
-126.66079 776.70959 -42.695557
-121.38322 776.70959 -42.695557
-116.10578 776.70959 -42.695557
-110.82822 776.70959 -42.695557
-105.55067 776.70959 -42.695557
-100.27312 776.70959 -42.695557
-94.99556 776.70959 -42.695557
-89.718109 776.70959 -42.695557
-84.440552 776.70959 -42.695557
-79.163002 776.70959 -42.695557
-73.885452 776.70959 -42.695557
-68.607895 776.70959 -42.695557
-63.898525 763.76318 -18.859375
-58.052891 776.70959 -42.695557
-52.775333 776.70959 -42.695557
-47.49778 776.70959 -42.695557
-42.22023 776.70959 -42.695557
-36.942772 776.70959 -42.695557
-31.66522 776.70959 -42.695557
-26.387667 776.70959 -42.695557
-21.110115 776.70959 -42.695557
-15.83256 776.70959 -42.695557
-10.649788 763.76318 -18.859375
-5.324894 763.76318 -18.859375
0 763.76318 -18.859375
5.3247924 763.76318 -18.859375
10.649788 763.76318 -18.859375
15.97458 763.76318 -18.859375
21.299576 763.76318 -18.859375
26.624367 763.76318 -18.859375
31.94916 763.76318 -18.859375
37.274155 763.76318 -18.859375
42.598946 763.76318 -18.859375
47.923943 763.76318 -18.859375
53.248734 763.76318 -18.859375
58.573528 763.76318 -18.859375
63.898525 763.76318 -18.859375
69.223312 763.76318 -18.859375
74.548309 763.76318 -18.859375
79.8731 763.76318 -18.859375
85.197891 763.76318 -18.859375
90.522888 763.76318 -18.859375
95.847679 763.76318 -18.859375
101.17268 763.76318 -18.859375
106.49747 763.76318 -18.859375
111.82227 763.76318 -18.859375
117.14725 763.76318 -18.859375
122.47205 763.76318 -18.859375
127.79705 763.76318 -18.859375
133.12184 763.76318 -18.859375
138.44662 763.76318 -18.859375
143.77162 763.76318 -18.859375
149.09642 763.76318 -18.859375
154.42142 763.76318 -18.859375
159.7462 763.76318 -18.859375
165.071 763.76318 -18.859375
170.396 763.76318 -18.859375
175.72078 763.76318 -18.859375
182.65533 750.81665 4.9770508
188.02748 750.81665 4.9770508
193.39961 750.81665 4.9770508
200.58839 737.39075 29.696289
206.00961 737.39075 29.696289
213.34569 723.96484 54.415039
220.84987 710.05933 80.01709
226.37105 710.05933 80.01709
231.89241 710.05933 80.01709
441.96445 763.76318 -18.859375
447.28946 763.76318 -18.859375
456.63815 750.81665 4.9770508
457.93906 763.76318 -18.859375
463.26404 763.76318 -18.859375
468.58884 763.76318 -18.859375
478.12711 750.81665 4.9770508
483.49921 750.81665 4.9770508
484.56342 763.76318 -18.859375
489.8884 763.76318 -18.859375
495.2132 763.76318 -18.859375
504.98816 750.81665 4.9770508
515.02417 737.39075 29.696289
520.44537 737.39075 29.696289
-416.92511 771.85156 -44.757568
-411.64758 771.85156 -44.757568
-402.85995 784.36047 -67.693359
-397.62796 784.36047 -67.693359
-395.815 771.85156 -44.757568
-390.53745 771.85156 -44.757568
-385.25992 771.85156 -44.757568
-379.98245 771.85156 -44.757568
-374.70493 771.85156 -44.757568
-369.42734 771.85156 -44.757568
-367.41626 758.86157 -20.939941
-362.09137 758.86157 -20.939941
-353.59479 771.85156 -44.757568
-348.31726 771.85156 -44.757568
-343.03967 771.85156 -44.757568
-173.48186 732.40039 27.577881
-168.06053 732.40039 27.577881
-161.16641 745.87146 2.8779297
-155.79417 745.87146 2.8779297
-150.42194 745.87146 2.8779297
-145.04982 745.87146 2.8779297
-139.67758 745.87146 2.8779297
-133.12184 758.86157 -20.939941
-126.66079 771.85156 -44.757568
-121.38322 771.85156 -44.757568
-116.10578 771.85156 -44.757568
-110.82822 771.85156 -44.757568
-105.55067 771.85156 -44.757568
-100.27312 771.85156 -44.757568
-94.99556 771.85156 -44.757568
-89.718109 771.85156 -44.757568
-84.440552 771.85156 -44.757568
-79.163002 771.85156 -44.757568
-73.885452 771.85156 -44.757568
-68.607895 771.85156 -44.757568
-63.898525 758.86157 -20.939941
-58.052891 771.85156 -44.757568
-52.775333 771.85156 -44.757568
-47.49778 771.85156 -44.757568
-42.22023 771.85156 -44.757568
-36.942772 771.85156 -44.757568
-31.66522 771.85156 -44.757568
-26.387667 771.85156 -44.757568
-21.110115 771.85156 -44.757568
-15.83256 771.85156 -44.757568
-10.649788 758.86157 -20.939941
-5.324894 758.86157 -20.939941
0 758.86157 -20.939941
5.3247924 758.86157 -20.939941
10.649788 758.86157 -20.939941
16.116598 745.87146 2.8779297
21.488937 745.87146 2.8779297
26.861067 745.87146 2.8779297
31.94916 758.86157 -20.939941
37.274155 758.86157 -20.939941
42.977669 745.87146 2.8779297
48.350006 745.87146 2.8779297
53.722134 745.87146 2.8779297
58.573528 758.86157 -20.939941
63.898525 758.86157 -20.939941
69.223312 758.86157 -20.939941
74.548309 758.86157 -20.939941
79.8731 758.86157 -20.939941
85.197891 758.86157 -20.939941
90.522888 758.86157 -20.939941
95.847679 758.86157 -20.939941
101.17268 758.86157 -20.939941
106.49747 758.86157 -20.939941
111.82227 758.86157 -20.939941
117.14725 758.86157 -20.939941
122.47205 758.86157 -20.939941
127.79705 758.86157 -20.939941
133.12184 758.86157 -20.939941
138.44662 758.86157 -20.939941
143.77162 758.86157 -20.939941
149.09642 758.86157 -20.939941
154.42142 758.86157 -20.939941
159.7462 758.86157 -20.939941
165.071 758.86157 -20.939941
170.396 758.86157 -20.939941
175.72078 758.86157 -20.939941
182.65533 745.87146 2.8779297
189.74574 732.40039 27.577881
195.16696 732.40039 27.577881
200.58839 732.40039 27.577881
207.87517 718.9292 52.277588
213.34569 718.9292 52.277588
220.84987 704.97693 77.859863
226.37105 704.97693 77.859863
456.63815 745.87146 2.8779297
457.93906 758.86157 -20.939941
463.26404 758.86157 -20.939941
468.58884 758.86157 -20.939941
478.12711 745.87146 2.8779297
483.49921 745.87146 2.8779297
488.87134 745.87146 2.8779297
494.24368 745.87146 2.8779297
499.61581 745.87146 2.8779297
504.98816 745.87146 2.8779297
515.02417 732.40039 27.577881
520.44537 732.40039 27.577881
525.86682 732.40039 27.577881
-416.92511 766.99365 -46.819824
-411.64758 766.99365 -46.819824
-402.85995 779.54456 -69.737549
-397.62796 779.54456 -69.737549
-395.815 766.99365 -46.819824
-390.53745 766.99365 -46.819824
-385.25992 766.99365 -46.819824
-379.98245 766.99365 -46.819824
-374.70493 766.99365 -46.819824
-372.74115 753.96008 -23.020508
-367.41626 753.96008 -23.020508
-362.09137 753.96008 -23.020508
-353.59479 766.99365 -46.819824
-348.31726 766.99365 -46.819824
-343.03967 766.99365 -46.819824
-173.48186 727.41016 25.459717
-168.06053 727.41016 25.459717
-162.63921 727.41016 25.459717
-155.79417 740.92639 0.77880859
-150.42194 740.92639 0.77880859
-145.04982 740.92639 0.77880859
-138.44673 753.96008 -23.020508
-133.12184 753.96008 -23.020508
-126.66079 766.99365 -46.819824
-121.38322 766.99365 -46.819824
-116.10578 766.99365 -46.819824
-110.82822 766.99365 -46.819824
-105.55067 766.99365 -46.819824
-100.27312 766.99365 -46.819824
-94.99556 766.99365 -46.819824
-89.718109 766.99365 -46.819824
-84.440552 766.99365 -46.819824
-79.163002 766.99365 -46.819824
-73.885452 766.99365 -46.819824
-68.607895 766.99365 -46.819824
-63.898525 753.96008 -23.020508
-58.573627 753.96008 -23.020508
-53.248734 753.96008 -23.020508
-47.92384 753.96008 -23.020508
-42.598946 753.96008 -23.020508
-37.274155 753.96008 -23.020508
-31.949263 753.96008 -23.020508
-26.624367 753.96008 -23.020508
-21.299473 753.96008 -23.020508
-15.97458 753.96008 -23.020508
-10.744469 740.92639 0.77880859
-5.3722343 740.92639 0.77880859
0 740.92639 0.77880859
5.3721313 740.92639 0.77880859
10.744469 740.92639 0.77880859
16.116598 740.92639 0.77880859
21.488937 740.92639 0.77880859
26.861067 740.92639 0.77880859
31.94916 753.96008 -23.020508
37.274155 753.96008 -23.020508
42.977669 740.92639 0.77880859
48.350006 740.92639 0.77880859
53.722134 740.92639 0.77880859
59.094265 740.92639 0.77880859
64.466599 740.92639 0.77880859
69.223312 753.96008 -23.020508
74.548309 753.96008 -23.020508
79.8731 753.96008 -23.020508
85.197891 753.96008 -23.020508
90.522888 753.96008 -23.020508
95.847679 753.96008 -23.020508
101.17268 753.96008 -23.020508
106.49747 753.96008 -23.020508
111.82227 753.96008 -23.020508
117.14725 753.96008 -23.020508
122.47205 753.96008 -23.020508
127.79705 753.96008 -23.020508
133.12184 753.96008 -23.020508
138.44662 753.96008 -23.020508
143.77162 753.96008 -23.020508
149.09642 753.96008 -23.020508
154.42142 753.96008 -23.020508
159.7462 753.96008 -23.020508
165.071 753.96008 -23.020508
170.396 753.96008 -23.020508
177.283 740.92639 0.77880859
182.65533 740.92639 0.77880859
189.74574 727.41016 25.459717
195.16696 727.41016 25.459717
200.58839 727.41016 25.459717
207.87517 713.8938 50.140137
213.34569 713.8938 50.140137
220.84987 699.89465 75.702637
226.37105 699.89465 75.702637
457.93906 753.96008 -23.020508
463.26404 753.96008 -23.020508
468.58884 753.96008 -23.020508
478.12711 740.92639 0.77880859
483.49921 740.92639 0.77880859
488.87134 740.92639 0.77880859
494.24368 740.92639 0.77880859
499.61581 740.92639 0.77880859
509.60294 727.41016 25.459717
515.02417 727.41016 25.459717
520.44537 727.41016 25.459717
525.86682 727.41016 25.459717
-420.66498 749.05835 -25.101318
-415.34009 749.05835 -25.101318
-406.37012 762.1355 -48.881836
-401.09259 762.1355 -48.881836
-395.815 762.1355 -48.881836
-390.53745 762.1355 -48.881836
-385.25992 762.1355 -48.881836
-379.98245 762.1355 -48.881836
-374.70493 762.1355 -48.881836
-372.74115 749.05835 -25.101318
-367.41626 749.05835 -25.101318
-362.09137 749.05835 -25.101318
-356.76657 749.05835 -25.101318
-351.44168 749.05835 -25.101318
-168.06053 722.41968 23.341309
-162.63921 722.41968 23.341309
-155.79417 735.9812 -1.3203125
-150.42194 735.9812 -1.3203125
-145.04982 735.9812 -1.3203125
-138.44673 749.05835 -25.101318
-133.12184 749.05835 -25.101318
-126.66079 762.1355 -48.881836
-121.38322 762.1355 -48.881836
-116.10578 762.1355 -48.881836
-110.82822 762.1355 -48.881836
-105.55067 762.1355 -48.881836
-100.27312 762.1355 -48.881836
-94.99556 762.1355 -48.881836
-89.718109 762.1355 -48.881836
-84.440552 762.1355 -48.881836
-79.163002 762.1355 -48.881836
-73.885452 762.1355 -48.881836
-68.607895 762.1355 -48.881836
-63.898525 749.05835 -25.101318
-58.573627 749.05835 -25.101318
-53.248734 749.05835 -25.101318
-47.92384 749.05835 -25.101318
-42.598946 749.05835 -25.101318
-37.605534 735.9812 -1.3203125
-31.949263 749.05835 -25.101318
-26.624367 749.05835 -25.101318
-21.299473 749.05835 -25.101318
-16.116598 735.9812 -1.3203125
-10.842655 722.41968 23.341309
-5.4213276 722.41968 23.341309
0 722.41968 23.341309
5.4212241 722.41968 23.341309
10.744469 735.9812 -1.3203125
16.116598 735.9812 -1.3203125
21.488937 735.9812 -1.3203125
26.861067 735.9812 -1.3203125
32.233196 735.9812 -1.3203125
37.605534 735.9812 -1.3203125
42.977669 735.9812 -1.3203125
48.350006 735.9812 -1.3203125
53.722134 735.9812 -1.3203125
59.094265 735.9812 -1.3203125
64.466599 735.9812 -1.3203125
69.838737 735.9812 -1.3203125
74.548309 749.05835 -25.101318
79.8731 749.05835 -25.101318
85.197891 749.05835 -25.101318
90.522888 749.05835 -25.101318
95.847679 749.05835 -25.101318
101.17268 749.05835 -25.101318
106.49747 749.05835 -25.101318
111.82227 749.05835 -25.101318
117.14725 749.05835 -25.101318
122.47205 749.05835 -25.101318
127.79705 749.05835 -25.101318
133.12184 749.05835 -25.101318
138.44662 749.05835 -25.101318
143.77162 749.05835 -25.101318
149.09642 749.05835 -25.101318
154.42142 749.05835 -25.101318
159.7462 749.05835 -25.101318
165.071 749.05835 -25.101318
171.91087 735.9812 -1.3203125
177.283 735.9812 -1.3203125
182.65533 735.9812 -1.3203125
189.74574 722.41968 23.341309
195.16696 722.41968 23.341309
200.58839 722.41968 23.341309
207.87517 708.85815 48.002686
213.34569 708.85815 48.002686
220.84987 694.81226 73.545166
226.37105 694.81226 73.545166
463.26404 749.05835 -25.101318
468.58884 749.05835 -25.101318
478.12711 735.9812 -1.3203125
483.49921 735.9812 -1.3203125
488.87134 735.9812 -1.3203125
494.24368 735.9812 -1.3203125
499.61581 735.9812 -1.3203125
509.60294 722.41968 23.341309
515.02417 722.41968 23.341309
520.44537 722.41968 23.341309
-420.66498 744.15698 -27.181641
-415.34009 744.15698 -27.181641
-406.37012 757.27759 -50.943848
-401.09259 757.27759 -50.943848
-395.815 757.27759 -50.943848
-390.53745 757.27759 -50.943848
-385.25992 757.27759 -50.943848
-379.98245 757.27759 -50.943848
-378.06604 744.15698 -27.181641
-372.74115 744.15698 -27.181641
-367.41626 744.15698 -27.181641
-362.09137 744.15698 -27.181641
-356.76657 744.15698 -27.181641
-162.63921 717.42944 21.223145
-157.21788 717.42944 21.223145
-150.42194 731.03613 -3.4194336
-145.04982 731.03613 -3.4194336
-139.67758 731.03613 -3.4194336
-133.12184 744.15698 -27.181641
-127.79694 744.15698 -27.181641
-122.47205 744.15698 -27.181641
-116.10578 757.27759 -50.943848
-110.82822 757.27759 -50.943848
-105.55067 757.27759 -50.943848
-100.27312 757.27759 -50.943848
-94.99556 757.27759 -50.943848
-89.718109 757.27759 -50.943848
-84.440552 757.27759 -50.943848
-79.163002 757.27759 -50.943848
-73.885452 757.27759 -50.943848
-68.607895 757.27759 -50.943848
-63.898525 744.15698 -27.181641
-58.573627 744.15698 -27.181641
-53.248734 744.15698 -27.181641
-47.92384 744.15698 -27.181641
-42.977669 731.03613 -3.4194336
-37.605534 731.03613 -3.4194336
-32.233299 731.03613 -3.4194336
-26.861067 731.03613 -3.4194336
-21.488834 731.03613 -3.4194336
-16.116598 731.03613 -3.4194336
-10.842655 717.42944 21.223145
-5.4704208 703.82275 45.865234
0 703.82275 45.865234
5.4703169 703.82275 45.865234
10.744469 731.03613 -3.4194336
16.116598 731.03613 -3.4194336
21.488937 731.03613 -3.4194336
26.861067 731.03613 -3.4194336
32.233196 731.03613 -3.4194336
37.605534 731.03613 -3.4194336
42.977669 731.03613 -3.4194336
48.350006 731.03613 -3.4194336
54.21307 717.42944 21.223145
59.634293 717.42944 21.223145
65.055725 717.42944 21.223145
69.838737 731.03613 -3.4194336
75.211067 731.03613 -3.4194336
80.583206 731.03613 -3.4194336
85.197891 744.15698 -27.181641
90.522888 744.15698 -27.181641
95.847679 744.15698 -27.181641
101.17268 744.15698 -27.181641
106.49747 744.15698 -27.181641
111.82227 744.15698 -27.181641
117.14725 744.15698 -27.181641
122.47205 744.15698 -27.181641
127.79705 744.15698 -27.181641
133.12184 744.15698 -27.181641
138.44662 744.15698 -27.181641
143.77162 744.15698 -27.181641
149.09642 744.15698 -27.181641
154.42142 744.15698 -27.181641
159.7462 744.15698 -27.181641
165.071 744.15698 -27.181641
171.91087 731.03613 -3.4194336
177.283 731.03613 -3.4194336
182.65533 731.03613 -3.4194336
189.74574 717.42944 21.223145
195.16696 717.42944 21.223145
200.58839 717.42944 21.223145
207.87517 703.82275 45.865234
213.34569 703.82275 45.865234
218.81601 703.82275 45.865234
226.37105 689.72998 71.387939
463.26404 744.15698 -27.181641
468.58884 744.15698 -27.181641
473.91382 744.15698 -27.181641
483.49921 731.03613 -3.4194336
493.33884 717.42944 21.223145
498.76028 717.42944 21.223145
504.18149 717.42944 21.223145
514.21771 703.82275 45.865234
519.68805 703.82275 45.865234
525.15833 703.82275 45.865234
-420.66498 739.25537 -29.262451
-415.34009 739.25537 -29.262451
-406.37012 752.41956 -53.006104
-401.09259 752.41956 -53.006104
-395.815 752.41956 -53.006104
-390.53745 752.41956 -53.006104
-385.25992 752.41956 -53.006104
-379.98245 752.41956 -53.006104
-378.06604 739.25537 -29.262451
-372.74115 739.25537 -29.262451
-367.41626 739.25537 -29.262451
-362.09137 739.25537 -29.262451
-157.21788 712.43896 19.104736
-150.42194 726.09094 -5.5185547
-145.04982 726.09094 -5.5185547
-139.67758 726.09094 -5.5185547
-133.12184 739.25537 -29.262451
-127.79694 739.25537 -29.262451
-122.47205 739.25537 -29.262451
-117.14725 739.25537 -29.262451
-111.82236 739.25537 -29.262451
-106.49747 739.25537 -29.262451
-101.17258 739.25537 -29.262451
-95.847679 739.25537 -29.262451
-90.522888 739.25537 -29.262451
-85.197998 739.25537 -29.262451
-79.8731 739.25537 -29.262451
-73.885452 752.41956 -53.006104
-68.607895 752.41956 -53.006104
-63.898525 739.25537 -29.262451
-58.573627 739.25537 -29.262451
-53.248734 739.25537 -29.262451
-47.92384 739.25537 -29.262451
-42.977669 726.09094 -5.5185547
-37.605534 726.09094 -5.5185547
-32.233299 726.09094 -5.5185547
-26.861067 726.09094 -5.5185547
-21.488834 726.09094 -5.5185547
-16.116598 726.09094 -5.5185547
-10.940842 698.78711 43.727783
-5.4704208 698.78711 43.727783
0 698.78711 43.727783
5.4703169 698.78711 43.727783
10.842655 712.43896 19.104736
16.116598 726.09094 -5.5185547
21.488937 726.09094 -5.5185547
26.861067 726.09094 -5.5185547
32.233196 726.09094 -5.5185547
37.605534 726.09094 -5.5185547
42.977669 726.09094 -5.5185547
48.350006 726.09094 -5.5185547
54.21307 712.43896 19.104736
59.634293 712.43896 19.104736
65.055725 712.43896 19.104736
69.838737 726.09094 -5.5185547
75.211067 726.09094 -5.5185547
80.583206 726.09094 -5.5185547
85.955338 726.09094 -5.5185547
90.522888 739.25537 -29.262451
95.847679 739.25537 -29.262451
101.17268 739.25537 -29.262451
106.49747 739.25537 -29.262451
111.82227 739.25537 -29.262451
117.14725 739.25537 -29.262451
122.47205 739.25537 -29.262451
127.79705 739.25537 -29.262451
133.12184 739.25537 -29.262451
138.44662 739.25537 -29.262451
143.77162 739.25537 -29.262451
149.09642 739.25537 -29.262451
154.42142 739.25537 -29.262451
159.7462 739.25537 -29.262451
165.071 739.25537 -29.262451
171.91087 726.09094 -5.5185547
177.283 726.09094 -5.5185547
182.65533 726.09094 -5.5185547
189.74574 712.43896 19.104736
195.16696 712.43896 19.104736
200.58839 712.43896 19.104736
207.87517 698.78711 43.727783
213.34569 698.78711 43.727783
218.81601 698.78711 43.727783
224.28632 698.78711 43.727783
229.75684 698.78711 43.727783
468.58884 739.25537 -29.262451
473.91382 739.25537 -29.262451
483.49921 726.09094 -5.5185547
493.33884 712.43896 19.104736
503.27686 698.78711 43.727783
508.74719 698.78711 43.727783
514.21771 698.78711 43.727783
519.68805 698.78711 43.727783
525.15833 698.78711 43.727783
-419.03259 721.14575 -7.6176758
-413.66049 721.14575 -7.6176758
-404.6904 734.35364 -31.343018
-395.815 747.56152 -55.068115
-390.53745 747.56152 -55.068115
-385.25992 747.56152 -55.068115
-379.98245 747.56152 -55.068115
-374.70493 747.56152 -55.068115
-369.42734 747.56152 -55.068115
-157.21788 707.44861 16.986572
-150.42194 721.14575 -7.6176758
-145.04982 721.14575 -7.6176758
-139.67758 721.14575 -7.6176758
-134.30534 721.14575 -7.6176758
-127.79694 734.35364 -31.343018
-122.47205 734.35364 -31.343018
-117.14725 734.35364 -31.343018
-111.82236 734.35364 -31.343018
-106.49747 734.35364 -31.343018
-101.17258 734.35364 -31.343018
-95.847679 734.35364 -31.343018
-90.522888 734.35364 -31.343018
-85.197998 734.35364 -31.343018
-79.8731 734.35364 -31.343018
-74.54821 734.35364 -31.343018
-69.223312 734.35364 -31.343018
-63.898525 734.35364 -31.343018
-58.573627 734.35364 -31.343018
-53.248734 734.35364 -31.343018
-47.92384 734.35364 -31.343018
-42.977669 721.14575 -7.6176758
-37.605534 721.14575 -7.6176758
-32.233299 721.14575 -7.6176758
-26.861067 721.14575 -7.6176758
-21.685207 707.44861 16.986572
-16.26388 707.44861 16.986572
-10.940842 693.75159 41.590332
-5.4704208 693.75159 41.590332
0 693.75159 41.590332
5.4703169 693.75159 41.590332
10.842655 707.44861 16.986572
16.116598 721.14575 -7.6176758
21.488937 721.14575 -7.6176758
26.624367 734.35364 -31.343018
31.94916 734.35364 -31.343018
37.605534 721.14575 -7.6176758
42.977669 721.14575 -7.6176758
48.350006 721.14575 -7.6176758
54.21307 707.44861 16.986572
59.634293 707.44861 16.986572
65.055725 707.44861 16.986572
70.476952 707.44861 16.986572
75.211067 721.14575 -7.6176758
80.583206 721.14575 -7.6176758
85.955338 721.14575 -7.6176758
90.522888 734.35364 -31.343018
95.847679 734.35364 -31.343018
101.17268 734.35364 -31.343018
106.49747 734.35364 -31.343018
111.82227 734.35364 -31.343018
117.14725 734.35364 -31.343018
122.47205 734.35364 -31.343018
127.79705 734.35364 -31.343018
133.12184 734.35364 -31.343018
138.44662 734.35364 -31.343018
143.77162 734.35364 -31.343018
149.09642 734.35364 -31.343018
154.42142 734.35364 -31.343018
161.16641 721.14575 -7.6176758
166.53854 721.14575 -7.6176758
171.91087 721.14575 -7.6176758
177.283 721.14575 -7.6176758
182.65533 721.14575 -7.6176758
189.74574 707.44861 16.986572
195.16696 707.44861 16.986572
200.58839 707.44861 16.986572
206.00961 707.44861 16.986572
211.43105 707.44861 16.986572
218.81601 693.75159 41.590332
224.28632 693.75159 41.590332
229.75684 693.75159 41.590332
468.58884 734.35364 -31.343018
473.91382 734.35364 -31.343018
483.49921 721.14575 -7.6176758
493.33884 707.44861 16.986572
503.27686 693.75159 41.590332
508.74719 693.75159 41.590332
514.21771 693.75159 41.590332
519.68805 693.75159 41.590332
525.15833 693.75159 41.590332
-413.66049 716.20068 -9.7165527
-404.6904 729.45215 -33.423584
-392.39603 755.46436 -79.958984
-387.16406 755.46436 -79.958984
-381.93207 755.46436 -79.958984
-376.70023 755.46436 -79.958984
-371.46823 755.46436 -79.958984
-369.42734 742.70361 -57.130371
-157.21788 702.45837 14.868164
-151.79655 702.45837 14.868164
-145.04982 716.20068 -9.7165527
-139.67758 716.20068 -9.7165527
-134.30534 716.20068 -9.7165527
-128.93311 716.20068 -9.7165527
-123.56087 716.20068 -9.7165527
-118.18874 716.20068 -9.7165527
-111.82236 729.45215 -33.423584
-106.49747 729.45215 -33.423584
-101.17258 729.45215 -33.423584
-95.847679 729.45215 -33.423584
-90.522888 729.45215 -33.423584
-84.440552 742.70361 -57.130371
-79.163002 742.70361 -57.130371
-74.54821 729.45215 -33.423584
-69.223312 729.45215 -33.423584
-63.898525 729.45215 -33.423584
-58.573627 729.45215 -33.423584
-53.248734 729.45215 -33.423584
-47.92384 729.45215 -33.423584
-42.977669 716.20068 -9.7165527
-37.605534 716.20068 -9.7165527
-32.233299 716.20068 -9.7165527
-26.861067 716.20068 -9.7165527
-21.685207 702.45837 14.868164
-16.26388 702.45837 14.868164
-10.940842 688.71606 39.452881
-5.4704208 688.71606 39.452881
0 688.71606 39.452881
5.4703169 688.71606 39.452881
10.842655 702.45837 14.868164
16.116598 716.20068 -9.7165527
21.488937 716.20068 -9.7165527
26.624367 729.45215 -33.423584
31.94916 729.45215 -33.423584
37.605534 716.20068 -9.7165527
42.977669 716.20068 -9.7165527
48.350006 716.20068 -9.7165527
54.21307 702.45837 14.868164
60.174316 688.71606 39.452881
65.055725 702.45837 14.868164
70.476952 702.45837 14.868164
75.211067 716.20068 -9.7165527
80.583206 716.20068 -9.7165527
85.197891 729.45215 -33.423584
90.522888 729.45215 -33.423584
95.847679 729.45215 -33.423584
101.17268 729.45215 -33.423584
106.49747 729.45215 -33.423584
111.82227 729.45215 -33.423584
117.14725 729.45215 -33.423584
122.47205 729.45215 -33.423584
127.79705 729.45215 -33.423584
133.12184 729.45215 -33.423584
138.44662 729.45215 -33.423584
143.77162 729.45215 -33.423584
150.42194 716.20068 -9.7165527
155.79427 716.20068 -9.7165527
161.16641 716.20068 -9.7165527
166.53854 716.20068 -9.7165527
173.48186 702.45837 14.868164
178.90309 702.45837 14.868164
184.32451 702.45837 14.868164
189.74574 702.45837 14.868164
195.16696 702.45837 14.868164
200.58839 702.45837 14.868164
206.00961 702.45837 14.868164
211.43105 702.45837 14.868164
216.85228 702.45837 14.868164
224.28632 688.71606 39.452881
229.75684 688.71606 39.452881
468.58884 729.45215 -33.423584
473.91382 729.45215 -33.423584
483.49921 716.20068 -9.7165527
493.33884 702.45837 14.868164
503.27686 688.71606 39.452881
508.74719 688.71606 39.452881
514.21771 688.71606 39.452881
-392.39603 750.64819 -82.003418
-387.16406 750.64819 -82.003418
-381.93207 750.64819 -82.003418
-376.70023 750.64819 -82.003418
-371.46823 750.64819 -82.003418
-157.21788 697.46802 12.75
-151.79655 697.46802 12.75
-146.37532 697.46802 12.75
-140.95399 697.46802 12.75
-134.30534 711.25537 -11.815674
-128.93311 711.25537 -11.815674
-123.56087 711.25537 -11.815674
-118.18874 711.25537 -11.815674
-111.82236 724.55054 -35.50415
-106.49747 724.55054 -35.50415
-101.17258 724.55054 -35.50415
-95.847679 724.55054 -35.50415
-90.522888 724.55054 -35.50415
-84.440552 737.84558 -59.192383
-79.163002 737.84558 -59.192383
-74.54821 724.55054 -35.50415
-69.223312 724.55054 -35.50415
-63.898525 724.55054 -35.50415
-58.573627 724.55054 -35.50415
-53.722134 711.25537 -11.815674
-48.349903 711.25537 -11.815674
-42.977669 711.25537 -11.815674
-37.949188 697.46802 12.75
-32.527863 697.46802 12.75
-27.106535 697.46802 12.75
-21.685207 697.46802 12.75
-16.26388 697.46802 12.75
-10.940842 683.68054 37.31543
-5.4704208 683.68054 37.31543
0 683.68054 37.31543
5.4703169 683.68054 37.31543
10.940842 683.68054 37.31543
16.26388 697.46802 12.75
21.488937 711.25537 -11.815674
26.624367 724.55054 -35.50415
31.94916 724.55054 -35.50415
37.949188 697.46802 12.75
43.370415 697.46802 12.75
48.791843 697.46802 12.75
54.21307 697.46802 12.75
60.174316 683.68054 37.31543
65.055725 697.46802 12.75
70.476952 697.46802 12.75
75.211067 711.25537 -11.815674
80.583206 711.25537 -11.815674
85.197891 724.55054 -35.50415
90.522888 724.55054 -35.50415
95.847679 724.55054 -35.50415
101.17268 724.55054 -35.50415
106.49747 724.55054 -35.50415
111.82227 724.55054 -35.50415
117.14725 724.55054 -35.50415
122.47205 724.55054 -35.50415
127.79705 724.55054 -35.50415
133.12184 724.55054 -35.50415
138.44662 724.55054 -35.50415
143.77162 724.55054 -35.50415
150.42194 711.25537 -11.815674
155.79427 711.25537 -11.815674
161.16641 711.25537 -11.815674
166.53854 711.25537 -11.815674
173.48186 697.46802 12.75
178.90309 697.46802 12.75
184.32451 697.46802 12.75
189.74574 697.46802 12.75
195.16696 697.46802 12.75
200.58839 697.46802 12.75
206.00961 697.46802 12.75
209.5164 711.25537 -11.815674
214.88853 711.25537 -11.815674
220.26068 711.25537 -11.815674
468.58884 724.55054 -35.50415
473.91382 724.55054 -35.50415
483.49921 711.25537 -11.815674
497.80634 683.68054 37.31543
503.27686 683.68054 37.31543
-157.21788 692.47766 10.631592
-151.79655 692.47766 10.631592
-146.37532 692.47766 10.631592
-140.95399 692.47766 10.631592
-134.30534 706.3103 -13.914795
-128.93311 706.3103 -13.914795
-123.56087 706.3103 -13.914795
-118.18874 706.3103 -13.914795
-112.81651 706.3103 -13.914795
-107.44427 706.3103 -13.914795
-102.07204 706.3103 -13.914795
-96.699806 706.3103 -13.914795
-91.327667 706.3103 -13.914795
-85.955437 706.3103 -13.914795
-79.8731 719.64905 -37.584717
-74.54821 719.64905 -37.584717
-69.223312 719.64905 -37.584717
-64.466599 706.3103 -13.914795
-59.094368 706.3103 -13.914795
-53.722134 706.3103 -13.914795
-48.349903 706.3103 -13.914795
-43.370415 692.47766 10.631592
-37.949188 692.47766 10.631592
-32.527863 692.47766 10.631592
-27.106535 692.47766 10.631592
-21.685207 692.47766 10.631592
-16.26388 692.47766 10.631592
-10.940842 678.64502 35.177979
-5.4704208 678.64502 35.177979
0 678.64502 35.177979
5.4703169 678.64502 35.177979
10.940842 678.64502 35.177979
16.41116 678.64502 35.177979
21.881683 678.64502 35.177979
27.106535 692.47766 10.631592
32.52776 692.47766 10.631592
38.292843 678.64502 35.177979
43.763157 678.64502 35.177979
49.233688 678.64502 35.177979
54.704002 678.64502 35.177979
60.174316 678.64502 35.177979
65.644844 678.64502 35.177979
71.115158 678.64502 35.177979
75.898376 692.47766 10.631592
80.583206 706.3103 -13.914795
85.197891 719.64905 -37.584717
90.522888 719.64905 -37.584717
95.847679 719.64905 -37.584717
101.17268 719.64905 -37.584717
106.49747 719.64905 -37.584717
111.82227 719.64905 -37.584717
117.14725 719.64905 -37.584717
122.47205 719.64905 -37.584717
128.9332 706.3103 -13.914795
134.30534 706.3103 -13.914795
138.44662 719.64905 -37.584717
143.77162 719.64905 -37.584717
150.42194 706.3103 -13.914795
155.79427 706.3103 -13.914795
162.63921 692.47766 10.631592
168.06042 692.47766 10.631592
173.48186 692.47766 10.631592
178.90309 692.47766 10.631592
184.32451 692.47766 10.631592
191.464 678.64502 35.177979
195.16696 692.47766 10.631592
198.77194 706.3103 -13.914795
204.14407 706.3103 -13.914795
207.67015 719.64905 -37.584717
-155.79417 701.36511 -16.013916
-150.42194 701.36511 -16.013916
-145.04982 701.36511 -16.013916
-139.67758 701.36511 -16.013916
-134.30534 701.36511 -16.013916
-128.93311 701.36511 -16.013916
-123.56087 701.36511 -16.013916
-118.18874 701.36511 -16.013916
-112.81651 701.36511 -16.013916
-107.44427 701.36511 -16.013916
-102.07204 701.36511 -16.013916
-96.699806 701.36511 -16.013916
-91.327667 701.36511 -16.013916
-85.955437 701.36511 -16.013916
-79.8731 714.74731 -39.665283
-74.54821 714.74731 -39.665283
-69.223312 714.74731 -39.665283
-64.466599 701.36511 -16.013916
-59.094368 701.36511 -16.013916
-53.722134 701.36511 -16.013916
-48.349903 701.36511 -16.013916
-43.370415 687.4873 8.5134277
-37.949188 687.4873 8.5134277
-32.527863 687.4873 8.5134277
-27.106535 687.4873 8.5134277
-21.685207 687.4873 8.5134277
-16.26388 687.4873 8.5134277
-10.940842 673.6095 33.040527
-5.4704208 673.6095 33.040527
0 673.6095 33.040527
5.4703169 673.6095 33.040527
10.940842 673.6095 33.040527
16.41116 673.6095 33.040527
21.881683 673.6095 33.040527
27.352001 673.6095 33.040527
32.822319 673.6095 33.040527
38.292843 673.6095 33.040527
43.763157 673.6095 33.040527
49.233688 673.6095 33.040527
54.704002 673.6095 33.040527
60.174316 673.6095 33.040527
65.644844 673.6095 33.040527
71.115158 673.6095 33.040527
75.898376 687.4873 8.5134277
80.583206 701.36511 -16.013916
85.197891 714.74731 -39.665283
90.522888 714.74731 -39.665283
95.847679 714.74731 -39.665283
101.17268 714.74731 -39.665283
106.49747 714.74731 -39.665283
111.82227 714.74731 -39.665283
117.14725 714.74731 -39.665283
122.47205 714.74731 -39.665283
128.9332 701.36511 -16.013916
134.30534 701.36511 -16.013916
139.67747 701.36511 -16.013916
145.04982 701.36511 -16.013916
151.79655 687.4873 8.5134277
157.21799 687.4873 8.5134277
162.63921 687.4873 8.5134277
168.06042 687.4873 8.5134277
173.48186 687.4873 8.5134277
180.52318 673.6095 33.040527
185.9937 673.6095 33.040527
191.464 673.6095 33.040527
195.16696 687.4873 8.5134277
198.77194 701.36511 -16.013916
204.14407 701.36511 -16.013916
207.67015 714.74731 -39.665283
-155.79417 696.42004 -18.113037
-150.42194 696.42004 -18.113037
-145.04982 696.42004 -18.113037
-139.67758 696.42004 -18.113037
-134.30534 696.42004 -18.113037
-128.93311 696.42004 -18.113037
-123.56087 696.42004 -18.113037
-118.18874 696.42004 -18.113037
-112.81651 696.42004 -18.113037
-107.44427 696.42004 -18.113037
-102.07204 696.42004 -18.113037
-96.699806 696.42004 -18.113037
-91.327667 696.42004 -18.113037
-85.955437 696.42004 -18.113037
-79.8731 709.84595 -41.74585
-74.54821 709.84595 -41.74585
-69.838737 696.42004 -18.113037
-64.466599 696.42004 -18.113037
-59.094368 696.42004 -18.113037
-53.722134 696.42004 -18.113037
-48.79174 682.49707 6.3950195
-43.370415 682.49707 6.3950195
-37.949188 682.49707 6.3950195
-32.527863 682.49707 6.3950195
-27.106535 682.49707 6.3950195
-21.685207 682.49707 6.3950195
-16.26388 682.49707 6.3950195
-10.940842 668.57397 30.903076
-5.4704208 668.57397 30.903076
0 668.57397 30.903076
5.4703169 668.57397 30.903076
11.042537 654.15356 56.286621
16.563698 654.15356 56.286621
22.085073 654.15356 56.286621
27.352001 668.57397 30.903076
32.822319 668.57397 30.903076
38.292843 668.57397 30.903076
43.763157 668.57397 30.903076
49.233688 668.57397 30.903076
54.704002 668.57397 30.903076
60.174316 668.57397 30.903076
65.644844 668.57397 30.903076
71.115158 668.57397 30.903076
75.898376 682.49707 6.3950195
80.583206 696.42004 -18.113037
85.197891 709.84595 -41.74585
90.522888 709.84595 -41.74585
95.847679 709.84595 -41.74585
101.17268 709.84595 -41.74585
106.49747 709.84595 -41.74585
112.81641 696.42004 -18.113037
118.18874 696.42004 -18.113037
123.56087 696.42004 -18.113037
128.9332 696.42004 -18.113037
134.30534 696.42004 -18.113037
139.67747 696.42004 -18.113037
145.04982 696.42004 -18.113037
151.79655 682.49707 6.3950195
157.21799 682.49707 6.3950195
162.63921 682.49707 6.3950195
168.06042 682.49707 6.3950195
175.05284 668.57397 30.903076
180.52318 668.57397 30.903076
185.9937 668.57397 30.903076
191.464 668.57397 30.903076
195.16696 682.49707 6.3950195
200.58839 682.49707 6.3950195
206.00961 682.49707 6.3950195
211.43105 682.49707 6.3950195
216.85228 682.49707 6.3950195
-155.79417 691.47485 -20.212158
-150.42194 691.47485 -20.212158
-145.04982 691.47485 -20.212158
-139.67758 691.47485 -20.212158
-134.30534 691.47485 -20.212158
-128.93311 691.47485 -20.212158
-123.56087 691.47485 -20.212158
-118.18874 691.47485 -20.212158
-112.81651 691.47485 -20.212158
-107.44427 691.47485 -20.212158
-102.07204 691.47485 -20.212158
-96.699806 691.47485 -20.212158
-91.327667 691.47485 -20.212158
-85.955437 691.47485 -20.212158
-79.8731 704.94421 -43.82666
-74.54821 704.94421 -43.82666
-69.838737 691.47485 -20.212158
-64.466599 691.47485 -20.212158
-59.094368 691.47485 -20.212158
-53.722134 691.47485 -20.212158
-48.79174 677.50659 4.2768555
-43.370415 677.50659 4.2768555
-37.949188 677.50659 4.2768555
-32.822422 663.53833 28.765625
-27.352001 663.53833 28.765625
-21.881578 663.53833 28.765625
-16.41116 663.53833 28.765625
-10.940842 663.53833 28.765625
-5.5212684 649.07117 54.12915
0 649.07117 54.12915
5.521163 649.07117 54.12915
11.042537 649.07117 54.12915
16.563698 649.07117 54.12915
32.822319 663.53833 28.765625
38.292843 663.53833 28.765625
43.763157 663.53833 28.765625
49.233688 663.53833 28.765625
54.704002 663.53833 28.765625
60.174316 663.53833 28.765625
65.644844 663.53833 28.765625
71.115158 663.53833 28.765625
76.585686 663.53833 28.765625
80.583206 691.47485 -20.212158
85.955338 691.47485 -20.212158
90.522888 704.94421 -43.82666
95.847679 704.94421 -43.82666
101.17268 704.94421 -43.82666
106.49747 704.94421 -43.82666
112.81641 691.47485 -20.212158
118.18874 691.47485 -20.212158
124.69002 677.50659 4.2768555
130.11145 677.50659 4.2768555
135.53267 677.50659 4.2768555
140.9539 677.50659 4.2768555
146.37532 677.50659 4.2768555
151.79655 677.50659 4.2768555
157.21799 677.50659 4.2768555
164.112 663.53833 28.765625
169.58232 663.53833 28.765625
175.05284 663.53833 28.765625
180.52318 663.53833 28.765625
187.72247 649.07117 54.12915
193.24364 649.07117 54.12915
196.93433 663.53833 28.765625
202.40485 663.53833 28.765625
207.87517 663.53833 28.765625
213.34569 663.53833 28.765625
218.81601 663.53833 28.765625
-157.21788 672.51636 2.1586914
-150.42194 686.52979 -22.311035
-145.04982 686.52979 -22.311035
-139.67758 686.52979 -22.311035
-135.53267 672.51636 2.1586914
-130.11134 672.51636 2.1586914
-124.69002 672.51636 2.1586914
-119.26879 672.51636 2.1586914
-112.81651 686.52979 -22.311035
-107.44427 686.52979 -22.311035
-102.07204 686.52979 -22.311035
-96.699806 686.52979 -22.311035
-91.327667 686.52979 -22.311035
-85.955437 686.52979 -22.311035
-79.8731 700.04272 -45.907227
-74.54821 700.04272 -45.907227
-69.223312 700.04272 -45.907227
-64.466599 686.52979 -22.311035
-59.094368 686.52979 -22.311035
-53.722134 686.52979 -22.311035
-48.79174 672.51636 2.1586914
-43.370415 672.51636 2.1586914
-37.949188 672.51636 2.1586914
-32.527863 672.51636 2.1586914
-27.352001 658.50293 26.628174
-21.881578 658.50293 26.628174
-16.563698 643.98901 51.971924
-11.042537 643.98901 51.971924
-5.5212684 643.98901 51.971924
0 643.98901 51.971924
5.521163 643.98901 51.971924
11.042537 643.98901 51.971924
16.563698 643.98901 51.971924
38.292843 658.50293 26.628174
43.763157 658.50293 26.628174
49.233688 658.50293 26.628174
54.704002 658.50293 26.628174
60.733631 643.98901 51.971924
66.255005 643.98901 51.971924
71.115158 658.50293 26.628174
76.585686 658.50293 26.628174
81.319603 672.51636 2.1586914
86.740829 672.51636 2.1586914
90.522888 700.04272 -45.907227
95.847679 700.04272 -45.907227
102.07214 686.52979 -22.311035
107.44427 686.52979 -22.311035
113.84736 672.51636 2.1586914
119.26879 672.51636 2.1586914
124.69002 672.51636 2.1586914
130.11145 672.51636 2.1586914
135.53267 672.51636 2.1586914
140.9539 672.51636 2.1586914
146.37532 672.51636 2.1586914
153.17117 658.50293 26.628174
158.64169 658.50293 26.628174
164.112 658.50293 26.628174
169.58232 658.50293 26.628174
175.05284 658.50293 26.628174
180.52318 658.50293 26.628174
185.9937 658.50293 26.628174
191.464 658.50293 26.628174
196.93433 658.50293 26.628174
202.40485 658.50293 26.628174
207.87517 658.50293 26.628174
213.34569 658.50293 26.628174
218.81601 658.50293 26.628174
-155.79417 681.58447 -24.4104
-150.42194 681.58447 -24.4104
-145.04982 681.58447 -24.4104
-139.67758 681.58447 -24.4104
-135.53267 667.52588 0.040283203
-128.93311 681.58447 -24.4104
-123.56087 681.58447 -24.4104
-118.18874 681.58447 -24.4104
-112.81651 681.58447 -24.4104
-107.44427 681.58447 -24.4104
-102.07204 681.58447 -24.4104
-96.699806 681.58447 -24.4104
-91.327667 681.58447 -24.4104
-85.955437 681.58447 -24.4104
-79.8731 695.14111 -47.987793
-74.54821 695.14111 -47.987793
-69.223312 695.14111 -47.987793
-64.466599 681.58447 -24.4104
-59.094368 681.58447 -24.4104
-53.722134 681.58447 -24.4104
-48.79174 667.52588 0.040283203
-43.370415 667.52588 0.040283203
-37.949188 667.52588 0.040283203
-32.527863 667.52588 0.040283203
-27.352001 653.46741 24.490723
-21.881578 653.46741 24.490723
-16.563698 638.90649 49.814697
-11.042537 638.90649 49.814697
-5.5212684 638.90649 49.814697
0 638.90649 49.814697
5.521163 638.90649 49.814697
11.042537 638.90649 49.814697
38.292843 653.46741 24.490723
43.763157 653.46741 24.490723
49.233688 653.46741 24.490723
54.704002 653.46741 24.490723
60.174316 653.46741 24.490723
66.255005 638.90649 49.814697
71.115158 653.46741 24.490723
76.585686 653.46741 24.490723
82.056 653.46741 24.490723
86.740829 667.52588 0.040283203
91.327667 681.58447 -24.4104
96.699806 681.58447 -24.4104
103.00491 667.52588 0.040283203
108.42614 667.52588 0.040283203
113.84736 667.52588 0.040283203
119.26879 667.52588 0.040283203
124.69002 667.52588 0.040283203
130.11145 667.52588 0.040283203
135.53267 667.52588 0.040283203
140.9539 667.52588 0.040283203
146.37532 667.52588 0.040283203
153.17117 653.46741 24.490723
158.64169 653.46741 24.490723
164.112 653.46741 24.490723
169.58232 653.46741 24.490723
175.05284 653.46741 24.490723
180.52318 653.46741 24.490723
185.9937 653.46741 24.490723
191.464 653.46741 24.490723
196.93433 653.46741 24.490723
202.40485 653.46741 24.490723
207.87517 653.46741 24.490723
213.34569 653.46741 24.490723
218.81601 653.46741 24.490723
-161.16641 676.6394 -26.509277
-155.79417 676.6394 -26.509277
-150.42194 676.6394 -26.509277
-145.04982 676.6394 -26.509277
-139.67758 676.6394 -26.509277
-135.53267 662.53564 -2.0778809
-128.93311 676.6394 -26.509277
-123.56087 676.6394 -26.509277
-118.18874 676.6394 -26.509277
-112.81651 676.6394 -26.509277
-108.42614 662.53564 -2.0778809
-102.07204 676.6394 -26.509277
-96.699806 676.6394 -26.509277
-91.327667 676.6394 -26.509277
-85.955437 676.6394 -26.509277
-79.8731 690.23962 -50.068359
-74.54821 690.23962 -50.068359
-69.223312 690.23962 -50.068359
-64.466599 676.6394 -26.509277
-59.094368 676.6394 -26.509277
-53.722134 676.6394 -26.509277
-48.79174 662.53564 -2.0778809
-43.370415 662.53564 -2.0778809
-37.949188 662.53564 -2.0778809
-32.527863 662.53564 -2.0778809
-27.352001 648.43188 22.353271
-21.881578 648.43188 22.353271
-16.41116 648.43188 22.353271
-11.042537 633.82422 47.657227
-5.5212684 633.82422 47.657227
0 633.82422 47.657227
5.521163 633.82422 47.657227
11.042537 633.82422 47.657227
43.763157 648.43188 22.353271
49.233688 648.43188 22.353271
54.704002 648.43188 22.353271
60.174316 648.43188 22.353271
66.255005 633.82422 47.657227
71.115158 648.43188 22.353271
76.585686 648.43188 22.353271
82.056 648.43188 22.353271
87.526314 648.43188 22.353271
92.162254 662.53564 -2.0778809
97.583481 662.53564 -2.0778809
103.00491 662.53564 -2.0778809
108.42614 662.53564 -2.0778809
113.84736 662.53564 -2.0778809
120.34885 648.43188 22.353271
125.81916 648.43188 22.353271
130.11145 662.53564 -2.0778809
135.53267 662.53564 -2.0778809
142.23032 648.43188 22.353271
147.70084 648.43188 22.353271
153.17117 648.43188 22.353271
157.21799 662.53564 -2.0778809
162.63921 662.53564 -2.0778809
169.58232 648.43188 22.353271
175.05284 648.43188 22.353271
180.52318 648.43188 22.353271
185.9937 648.43188 22.353271
191.464 648.43188 22.353271
196.93433 648.43188 22.353271
202.40485 648.43188 22.353271
207.87517 648.43188 22.353271
213.34569 648.43188 22.353271
218.81601 648.43188 22.353271
-161.16641 671.69421 -28.608398
-155.79417 671.69421 -28.608398
-150.42194 671.69421 -28.608398
-145.04982 671.69421 -28.608398
-139.67758 671.69421 -28.608398
-135.53267 657.54529 -4.1962891
-130.11134 657.54529 -4.1962891
-124.69002 657.54529 -4.1962891
-118.18874 671.69421 -28.608398
-112.81651 671.69421 -28.608398
-108.42614 657.54529 -4.1962891
-102.07204 671.69421 -28.608398
-96.699806 671.69421 -28.608398
-91.327667 671.69421 -28.608398
-85.955437 671.69421 -28.608398
-80.583206 671.69421 -28.608398
-75.210968 671.69421 -28.608398
-69.838737 671.69421 -28.608398
-64.466599 671.69421 -28.608398
-59.094368 671.69421 -28.608398
-54.21307 657.54529 -4.1962891
-48.79174 657.54529 -4.1962891
-43.370415 657.54529 -4.1962891
-37.949188 657.54529 -4.1962891
-32.527863 657.54529 -4.1962891
-27.352001 643.39624 20.21582
-21.881578 643.39624 20.21582
-16.41116 643.39624 20.21582
-11.042537 628.74194 45.5
-5.5212684 628.74194 45.5
0 628.74194 45.5
5.521163 628.74194 45.5
11.042537 628.74194 45.5
48.791843 657.54529 -4.1962891
54.21307 657.54529 -4.1962891
60.174316 643.39624 20.21582
65.644844 643.39624 20.21582
71.115158 643.39624 20.21582
76.585686 643.39624 20.21582
82.056 643.39624 20.21582
87.526314 643.39624 20.21582
92.996849 643.39624 20.21582
98.467163 643.39624 20.21582
103.93769 643.39624 20.21582
109.408 643.39624 20.21582
114.87832 643.39624 20.21582
120.34885 643.39624 20.21582
124.69002 657.54529 -4.1962891
130.11145 657.54529 -4.1962891
135.53267 657.54529 -4.1962891
142.23032 643.39624 20.21582
147.70084 643.39624 20.21582
153.17117 643.39624 20.21582
157.21799 657.54529 -4.1962891
162.63921 657.54529 -4.1962891
169.58232 643.39624 20.21582
175.05284 643.39624 20.21582
180.52318 643.39624 20.21582
185.9937 643.39624 20.21582
191.464 643.39624 20.21582
196.93433 643.39624 20.21582
202.40485 643.39624 20.21582
207.87517 643.39624 20.21582
213.34569 643.39624 20.21582
218.81601 643.39624 20.21582
-162.63921 652.55505 -6.3144531
-157.21788 652.55505 -6.3144531
-151.79655 652.55505 -6.3144531
-146.37532 652.55505 -6.3144531
-140.95399 652.55505 -6.3144531
-135.53267 652.55505 -6.3144531
-130.11134 652.55505 -6.3144531
-124.69002 652.55505 -6.3144531
-119.26879 652.55505 -6.3144531
-113.84747 652.55505 -6.3144531
-108.42614 652.55505 -6.3144531
-103.00481 652.55505 -6.3144531
-97.583481 652.55505 -6.3144531
-91.327667 666.74915 -30.70752
-85.955437 666.74915 -30.70752
-80.583206 666.74915 -30.70752
-75.210968 666.74915 -30.70752
-69.838737 666.74915 -30.70752
-64.466599 666.74915 -30.70752
-59.094368 666.74915 -30.70752
-54.21307 652.55505 -6.3144531
-48.79174 652.55505 -6.3144531
-43.370415 652.55505 -6.3144531
-37.949188 652.55505 -6.3144531
-32.527863 652.55505 -6.3144531
-27.352001 638.36084 18.078369
-21.881578 638.36084 18.078369
-16.41116 638.36084 18.078369
-11.042537 623.65967 43.342773
-5.5212684 623.65967 43.342773
0 623.65967 43.342773
5.5720086 608.9585 68.606934
11.14423 608.9585 68.606934
48.791843 652.55505 -6.3144531
54.21307 652.55505 -6.3144531
59.634293 652.55505 -6.3144531
65.644844 638.36084 18.078369
71.115158 638.36084 18.078369
76.585686 638.36084 18.078369
82.056 638.36084 18.078369
87.526314 638.36084 18.078369
92.996849 638.36084 18.078369
98.467163 638.36084 18.078369
103.93769 638.36084 18.078369
109.408 638.36084 18.078369
114.87832 638.36084 18.078369
120.34885 638.36084 18.078369
124.69002 652.55505 -6.3144531
130.11145 652.55505 -6.3144531
135.53267 652.55505 -6.3144531
142.23032 638.36084 18.078369
147.70084 638.36084 18.078369
153.17117 638.36084 18.078369
158.64169 638.36084 18.078369
164.112 638.36084 18.078369
169.58232 638.36084 18.078369
175.05284 638.36084 18.078369
180.52318 638.36084 18.078369
185.9937 638.36084 18.078369
191.464 638.36084 18.078369
196.93433 638.36084 18.078369
202.40485 638.36084 18.078369
206.00961 652.55505 -6.3144531
211.43105 652.55505 -6.3144531
216.85228 652.55505 -6.3144531
-168.06053 647.56458 -8.4328613
-162.63921 647.56458 -8.4328613
-157.21788 647.56458 -8.4328613
-151.79655 647.56458 -8.4328613
-146.37532 647.56458 -8.4328613
-140.95399 647.56458 -8.4328613
-135.53267 647.56458 -8.4328613
-130.11134 647.56458 -8.4328613
-124.69002 647.56458 -8.4328613
-119.26879 647.56458 -8.4328613
-113.84747 647.56458 -8.4328613
-108.42614 647.56458 -8.4328613
-103.00481 647.56458 -8.4328613
-97.583481 647.56458 -8.4328613
-92.162254 647.56458 -8.4328613
-86.740929 647.56458 -8.4328613
-80.583206 661.80396 -32.806641
-75.210968 661.80396 -32.806641
-69.838737 661.80396 -32.806641
-65.055725 647.56458 -8.4328613
-59.634396 647.56458 -8.4328613
-54.21307 647.56458 -8.4328613
-48.79174 647.56458 -8.4328613
-43.370415 647.56458 -8.4328613
-37.949188 647.56458 -8.4328613
-32.527863 647.56458 -8.4328613
-27.352001 633.3252 15.940918
-21.881578 633.3252 15.940918
-16.41116 633.3252 15.940918
-11.042537 618.57715 41.185303
-5.5212684 618.57715 41.185303
0 618.57715 41.185303
5.521163 618.57715 41.185303
11.042537 618.57715 41.185303
48.791843 647.56458 -8.4328613
54.21307 647.56458 -8.4328613
59.634293 647.56458 -8.4328613
65.644844 633.3252 15.940918
71.115158 633.3252 15.940918
76.585686 633.3252 15.940918
82.056 633.3252 15.940918
87.526314 633.3252 15.940918
92.996849 633.3252 15.940918
98.467163 633.3252 15.940918
103.93769 633.3252 15.940918
109.408 633.3252 15.940918
114.87832 633.3252 15.940918
120.34885 633.3252 15.940918
125.81916 633.3252 15.940918
131.28969 633.3252 15.940918
135.53267 647.56458 -8.4328613
140.9539 647.56458 -8.4328613
147.70084 633.3252 15.940918
153.17117 633.3252 15.940918
158.64169 633.3252 15.940918
164.112 633.3252 15.940918
169.58232 633.3252 15.940918
175.05284 633.3252 15.940918
180.52318 633.3252 15.940918
185.9937 633.3252 15.940918
191.464 633.3252 15.940918
196.93433 633.3252 15.940918
202.40485 633.3252 15.940918
206.00961 647.56458 -8.4328613
211.43105 647.56458 -8.4328613
216.85228 647.56458 -8.4328613
-168.06053 642.57434 -10.551025
-162.63921 642.57434 -10.551025
-157.21788 642.57434 -10.551025
-151.79655 642.57434 -10.551025
-146.37532 642.57434 -10.551025
-140.95399 642.57434 -10.551025
-135.53267 642.57434 -10.551025
-130.11134 642.57434 -10.551025
-124.69002 642.57434 -10.551025
-118.18874 656.85889 -34.905762
-112.81651 656.85889 -34.905762
-108.42614 642.57434 -10.551025
-103.00481 642.57434 -10.551025
-96.699806 656.85889 -34.905762
