ply
format ascii 1.0
comment PCL generated
element vertex 1572
property float x
property float y
property float z
element camera 0
property float view_px
property float view_py
property float view_pz
property float x_axisx
property float x_axisy
property float x_axisz
property float y_axisx
property float y_axisy
property float y_axisz
property float z_axisx
property float z_axisy
property float z_axisz
property float focal
property float scalex
property float scaley
property float centerx
property float centery
property int viewportx
property int viewporty
property float k1
property float k2
end_header
-42.598946 940.21973 56.041992
-37.605534 928.84204 80.544189
-32.233299 928.84204 80.544189
-26.861067 928.84204 80.544189
-21.488834 928.84204 80.544189
-16.116598 928.84204 80.544189
-10.744469 928.84204 80.544189
-5.3722343 928.84204 80.544189
0 928.84204 80.544189
5.3721313 928.84204 80.544189
10.744469 928.84204 80.544189
16.26388 917.04297 105.9541
21.68531 917.04297 105.9541
27.106535 917.04297 105.9541
32.52776 917.04297 105.9541
37.949188 917.04297 105.9541
43.370415 917.04297 105.9541
48.791843 917.04297 105.9541
54.21307 917.04297 105.9541
59.634293 917.04297 105.9541
64.466599 928.84204 80.544189
69.838737 928.84204 80.544189
75.211067 928.84204 80.544189
79.8731 940.21973 56.041992
85.197891 940.21973 56.041992
90.522888 940.21973 56.041992
95.847679 940.21973 56.041992
101.17268 940.21973 56.041992
106.49747 940.21973 56.041992
111.82227 940.21973 56.041992
117.14725 940.21973 56.041992
122.47205 940.21973 56.041992
127.79705 940.21973 56.041992
131.93834 951.59741 31.539795
137.21579 951.59741 31.539795
143.77162 940.21973 56.041992
149.09642 940.21973 56.041992
154.42142 940.21973 56.041992
159.7462 940.21973 56.041992
165.071 940.21973 56.041992
170.396 940.21973 56.041992
175.72078 940.21973 56.041992
181.04578 940.21973 56.041992
188.02748 928.84204 80.544189
196.93433 905.2439 131.36353
206.16751 880.80286 183.9978
211.73952 880.80286 183.9978
217.31174 880.80286 183.9978
224.98775 868.16101 211.22266
230.61235 868.16101 211.22266
236.23717 868.16101 211.22266
241.86177 868.16101 211.22266
247.4866 868.16101 211.22266
253.11121 868.16101 211.22266
258.73581 868.16101 211.22266
264.36063 868.16101 211.22266
269.98526 868.16101 211.22266
275.61008 868.16101 211.22266
281.23468 868.16101 211.22266
286.85928 868.16101 211.22266
292.4841 868.16101 211.22266
298.10873 868.16101 211.22266
303.73355 868.16101 211.22266
-258.44135 1086.3328 -269.76733
-253.74239 1086.3328 -269.76733
-249.04344 1086.3328 -269.76733
-244.34457 1086.3328 -269.76733
-239.64563 1086.3328 -269.76733
-234.94667 1086.3328 -269.76733
-232.05191 1077.4496 -250.72437
-227.31613 1077.4496 -250.72437
-222.58046 1077.4496 -250.72437
-219.61905 1068.1433 -230.7749
-214.84471 1068.1433 -230.7749
-210.07037 1068.1433 -230.7749
-206.87929 1059.26 -211.73193
-203.76193 1049.5308 -190.87549
-200.49194 1040.2246 -170.92578
-195.60187 1040.2246 -170.92578
-190.71181 1040.2246 -170.92578
-187.35416 1030.4954 -150.06934
-185.4729 1010.6139 -107.44971
-180.46011 1010.6139 -107.44971
-161.16641 923.89673 78.445068
-155.79417 923.89673 78.445068
-150.42194 923.89673 78.445068
-145.04982 923.89673 78.445068
-139.67758 923.89673 78.445068
-134.30534 923.89673 78.445068
-128.93311 923.89673 78.445068
-123.56087 923.89673 78.445068
-118.18874 923.89673 78.445068
-112.81651 923.89673 78.445068
-106.49747 935.31812 53.961426
-101.17258 935.31812 53.961426
-95.847679 935.31812 53.961426
-90.522888 935.31812 53.961426
-85.197998 935.31812 53.961426
-79.163002 946.73938 29.477783
-73.885452 946.73938 29.477783
-68.607895 946.73938 29.477783
-63.898525 935.31812 53.961426
-58.573627 935.31812 53.961426
-53.248734 935.31812 53.961426
-47.92384 935.31812 53.961426
-42.977669 923.89673 78.445068
-37.605534 923.89673 78.445068
-32.233299 923.89673 78.445068
-26.861067 923.89673 78.445068
-21.488834 923.89673 78.445068
-16.116598 923.89673 78.445068
-10.744469 923.89673 78.445068
-5.4213276 912.05249 103.83569
0 912.05249 103.83569
5.4212241 912.05249 103.83569
10.842655 912.05249 103.83569
16.26388 912.05249 103.83569
21.68531 912.05249 103.83569
27.106535 912.05249 103.83569
32.52776 912.05249 103.83569
37.949188 912.05249 103.83569
43.370415 912.05249 103.83569
48.791843 912.05249 103.83569
54.21307 912.05249 103.83569
59.634293 912.05249 103.83569
65.055725 912.05249 103.83569
69.838737 923.89673 78.445068
75.211067 923.89673 78.445068
79.8731 935.31812 53.961426
85.197891 935.31812 53.961426
90.522888 935.31812 53.961426
95.847679 935.31812 53.961426
101.17268 935.31812 53.961426
106.49747 935.31812 53.961426
111.82227 935.31812 53.961426
117.14725 935.31812 53.961426
122.47205 935.31812 53.961426
127.79705 935.31812 53.961426
131.93834 946.73938 29.477783
137.21579 946.73938 29.477783
143.77162 935.31812 53.961426
149.09642 935.31812 53.961426
154.42142 935.31812 53.961426
159.7462 935.31812 53.961426
165.071 935.31812 53.961426
170.396 935.31812 53.961426
175.72078 935.31812 53.961426
181.04578 935.31812 53.961426
188.02748 923.89673 78.445068
196.93433 900.20825 129.22607
204.28618 887.94092 155.52344
209.80733 887.94092 155.52344
217.31174 875.67358 181.82056
222.88374 875.67358 181.82056
230.61235 862.9834 209.0249
236.23717 862.9834 209.0249
241.86177 862.9834 209.0249
247.4866 862.9834 209.0249
253.11121 862.9834 209.0249
258.73581 862.9834 209.0249
264.36063 862.9834 209.0249
269.98526 862.9834 209.0249
275.61008 862.9834 209.0249
281.23468 862.9834 209.0249
286.85928 862.9834 209.0249
292.4841 862.9834 209.0249
298.10873 862.9834 209.0249
303.73355 862.9834 209.0249
312.25116 850.29309 236.22876
-258.44135 1082.0073 -271.60327
-253.74239 1082.0073 -271.60327
-249.04344 1082.0073 -271.60327
-244.34457 1082.0073 -271.60327
-239.64563 1082.0073 -271.60327
-234.94667 1082.0073 -271.60327
-230.24773 1082.0073 -271.60327
-227.31613 1073.0903 -252.57471
-222.58046 1073.0903 -252.57471
-217.84467 1073.0903 -252.57471
-214.84471 1063.7485 -232.64038
-210.07037 1063.7485 -232.64038
-206.87929 1054.8314 -213.61157
-203.76193 1045.0651 -192.77124
-200.49194 1035.7234 -172.83643
-195.60187 1035.7234 -172.83643
-190.71181 1035.7234 -172.83643
-187.35416 1025.957 -151.99561
-182.42386 1025.957 -151.99561
-180.46011 1005.9996 -109.4082
-168.06053 907.06226 101.71753
-162.63921 907.06226 101.71753
-157.21788 907.06226 101.71753
-150.42194 918.95166 76.346191
-145.04982 918.95166 76.346191
-139.67758 918.95166 76.346191
-134.30534 918.95166 76.346191
-128.93311 918.95166 76.346191
-123.56087 918.95166 76.346191
-118.18874 918.95166 76.346191
-112.81651 918.95166 76.346191
-107.44427 918.95166 76.346191
-102.07204 918.95166 76.346191
-96.699806 918.95166 76.346191
-90.522888 930.41663 51.880859
-85.197998 930.41663 51.880859
-79.8731 930.41663 51.880859
-73.885452 941.88147 27.415771
-68.607895 941.88147 27.415771
-63.898525 930.41663 51.880859
-58.573627 930.41663 51.880859
-53.248734 930.41663 51.880859
-47.92384 930.41663 51.880859
-42.977669 918.95166 76.346191
-37.605534 918.95166 76.346191
-32.233299 918.95166 76.346191
-26.861067 918.95166 76.346191
-21.488834 918.95166 76.346191
-16.26388 907.06226 101.71753
-10.842655 907.06226 101.71753
-5.4213276 907.06226 101.71753
0 907.06226 101.71753
5.4212241 907.06226 101.71753
10.842655 907.06226 101.71753
16.26388 907.06226 101.71753
21.68531 907.06226 101.71753
27.106535 907.06226 101.71753
32.52776 907.06226 101.71753
37.949188 907.06226 101.71753
43.763157 895.17285 127.08862
48.791843 907.06226 101.71753
54.21307 907.06226 101.71753
59.634293 907.06226 101.71753
65.055725 907.06226 101.71753
70.476952 907.06226 101.71753
75.211067 918.95166 76.346191
80.583206 918.95166 76.346191
85.197891 930.41663 51.880859
90.522888 930.41663 51.880859
95.847679 930.41663 51.880859
101.17268 930.41663 51.880859
106.49747 930.41663 51.880859
111.82227 930.41663 51.880859
117.14725 930.41663 51.880859
122.47205 930.41663 51.880859
127.79705 930.41663 51.880859
133.12184 930.41663 51.880859
138.44662 930.41663 51.880859
143.77162 930.41663 51.880859
149.09642 930.41663 51.880859
154.42142 930.41663 51.880859
159.7462 930.41663 51.880859
165.071 930.41663 51.880859
168.8811 941.88147 27.415771
174.15857 941.88147 27.415771
181.04578 930.41663 51.880859
189.74574 907.06226 101.71753
196.93433 895.17285 127.08862
204.28618 882.85864 153.36621
209.80733 882.85864 153.36621
215.3287 882.85864 153.36621
220.84987 882.85864 153.36621
230.61235 857.80591 206.82715
236.23717 857.80591 206.82715
241.86177 857.80591 206.82715
247.4866 857.80591 206.82715
253.11121 857.80591 206.82715
258.73581 857.80591 206.82715
264.36063 857.80591 206.82715
269.98526 857.80591 206.82715
275.61008 857.80591 206.82715
283.86469 845.06714 234.0105
286.85928 857.80591 206.82715
292.4841 857.80591 206.82715
298.10873 857.80591 206.82715
303.73355 857.80591 206.82715
312.25116 845.06714 234.0105
317.92834 845.06714 234.0105
326.70392 831.90381 262.1001
-256.41623 1086.6329 -292.45337
-251.7541 1086.6329 -292.45337
-247.09198 1086.6329 -292.45337
-242.42993 1086.6329 -292.45337
-237.76781 1086.6329 -292.45337
-233.10568 1086.6329 -292.45337
-230.24773 1077.6819 -273.43921
-225.54877 1077.6819 -273.43921
-222.58046 1068.731 -254.42529
-217.84467 1068.731 -254.42529
-214.84471 1059.3538 -234.50586
-210.07037 1059.3538 -234.50586
-206.87929 1050.4027 -215.49146
-202.06819 1050.4027 -215.49146
-198.91043 1040.5991 -194.66675
-195.60187 1031.2219 -174.74707
-190.71181 1031.2219 -174.74707
-187.35416 1021.4185 -153.92212
-182.42386 1021.4185 -153.92212
-168.06053 902.0719 99.599121
-162.63921 902.0719 99.599121
-157.21788 902.0719 99.599121
-150.42194 914.00647 74.24707
-145.04982 914.00647 74.24707
-139.67758 914.00647 74.24707
-134.30534 914.00647 74.24707
-128.93311 914.00647 74.24707
-123.56087 914.00647 74.24707
-118.18874 914.00647 74.24707
-112.81651 914.00647 74.24707
-107.44427 914.00647 74.24707
-102.07204 914.00647 74.24707
-96.699806 914.00647 74.24707
-91.327667 914.00647 74.24707
-85.197998 925.51501 49.800049
-79.8731 925.51501 49.800049
-74.54821 925.51501 49.800049
-69.223312 925.51501 49.800049
-63.898525 925.51501 49.800049
-59.094368 914.00647 74.24707
-53.722134 914.00647 74.24707
-48.349903 914.00647 74.24707
-42.977669 914.00647 74.24707
-37.605534 914.00647 74.24707
-32.233299 914.00647 74.24707
-26.861067 914.00647 74.24707
-21.488834 914.00647 74.24707
-16.26388 902.0719 99.599121
-10.842655 902.0719 99.599121
-5.4213276 902.0719 99.599121
0 902.0719 99.599121
5.4212241 902.0719 99.599121
10.842655 902.0719 99.599121
16.26388 902.0719 99.599121
21.68531 902.0719 99.599121
27.106535 902.0719 99.599121
32.52776 902.0719 99.599121
37.949188 902.0719 99.599121
43.763157 890.13721 124.95117
48.791843 902.0719 99.599121
54.21307 902.0719 99.599121
59.634293 902.0719 99.599121
65.055725 902.0719 99.599121
70.476952 902.0719 99.599121
75.211067 914.00647 74.24707
80.583206 914.00647 74.24707
85.955338 914.00647 74.24707
91.327667 914.00647 74.24707
96.699806 914.00647 74.24707
101.17268 925.51501 49.800049
106.49747 925.51501 49.800049
111.82227 925.51501 49.800049
117.14725 925.51501 49.800049
122.47205 925.51501 49.800049
127.79705 925.51501 49.800049
133.12184 925.51501 49.800049
138.44662 925.51501 49.800049
143.77162 925.51501 49.800049
149.09642 925.51501 49.800049
154.42142 925.51501 49.800049
159.7462 925.51501 49.800049
163.60345 937.02332 25.353516
168.8811 937.02332 25.353516
174.15857 937.02332 25.353516
179.43622 937.02332 25.353516
184.71367 937.02332 25.353516
189.99112 937.02332 25.353516
206.16751 865.41541 177.46631
211.73952 865.41541 177.46631
215.3287 877.77625 151.20874
220.84987 877.77625 151.20874
230.61235 852.62817 204.62939
236.23717 852.62817 204.62939
241.86177 852.62817 204.62939
247.4866 852.62817 204.62939
253.11121 852.62817 204.62939
258.73581 852.62817 204.62939
264.36063 852.62817 204.62939
272.51004 839.84106 231.79224
278.18747 839.84106 231.79224
283.86469 839.84106 231.79224
289.54187 839.84106 231.79224
295.2193 839.84106 231.79224
300.89655 839.84106 231.79224
306.57394 839.84106 231.79224
312.25116 839.84106 231.79224
317.92834 839.84106 231.79224
326.70392 826.62769 259.8606
-261.07837 1082.3414 -294.2749
-256.41623 1082.3414 -294.2749
-251.7541 1082.3414 -294.2749
-247.09198 1082.3414 -294.2749
-242.42993 1082.3414 -294.2749
-237.76781 1082.3414 -294.2749
-233.10568 1082.3414 -294.2749
-228.44354 1082.3414 -294.2749
-225.54877 1073.3566 -275.27539
-220.84991 1073.3566 -275.27539
-217.84467 1064.3717 -256.27563
-213.1089 1064.3717 -256.27563
-210.07037 1054.959 -236.37134
-205.29601 1054.959 -236.37134
-202.06819 1045.974 -217.37134
-198.91043 1036.1334 -196.5625
-195.60187 1026.7207 -176.65796
-190.71181 1026.7207 -176.65796
-187.35416 1016.8801 -155.84863
-182.42386 1016.8801 -155.84863
-162.63921 897.08167 97.480957
-157.21788 897.08167 97.480957
-150.42194 909.0614 72.147949
-145.04982 909.0614 72.147949
-139.67758 909.0614 72.147949
-134.30534 909.0614 72.147949
-128.93311 909.0614 72.147949
-123.56087 909.0614 72.147949
-118.18874 909.0614 72.147949
-112.81651 909.0614 72.147949
-107.44427 909.0614 72.147949
-102.07204 909.0614 72.147949
-96.699806 909.0614 72.147949
-91.327667 909.0614 72.147949
-85.955437 909.0614 72.147949
-80.583206 909.0614 72.147949
-74.54821 920.61353 47.719482
-69.223312 920.61353 47.719482
-64.466599 909.0614 72.147949
-59.094368 909.0614 72.147949
-53.722134 909.0614 72.147949
-48.349903 909.0614 72.147949
-42.977669 909.0614 72.147949
-37.605534 909.0614 72.147949
-32.233299 909.0614 72.147949
-26.861067 909.0614 72.147949
-21.488834 909.0614 72.147949
-16.26388 897.08167 97.480957
-10.842655 897.08167 97.480957
-5.4213276 897.08167 97.480957
0 897.08167 97.480957
5.4212241 897.08167 97.480957
10.842655 897.08167 97.480957
16.26388 897.08167 97.480957
21.68531 897.08167 97.480957
27.106535 897.08167 97.480957
32.52776 897.08167 97.480957
37.949188 897.08167 97.480957
43.763157 885.10181 122.81372
49.233688 885.10181 122.81372
54.704002 885.10181 122.81372
59.634293 897.08167 97.480957
65.055725 897.08167 97.480957
70.476952 897.08167 97.480957
75.211067 909.0614 72.147949
80.583206 909.0614 72.147949
85.955338 909.0614 72.147949
91.327667 909.0614 72.147949
96.699806 909.0614 72.147949
101.17268 920.61353 47.719482
106.49747 920.61353 47.719482
111.82227 920.61353 47.719482
117.14725 920.61353 47.719482
122.47205 920.61353 47.719482
127.79705 920.61353 47.719482
133.12184 920.61353 47.719482
138.44662 920.61353 47.719482
143.77162 920.61353 47.719482
149.09642 920.61353 47.719482
154.42142 920.61353 47.719482
159.7462 920.61353 47.719482
163.60345 932.16541 23.291504
168.8811 932.16541 23.291504
174.15857 932.16541 23.291504
179.43622 932.16541 23.291504
184.71367 932.16541 23.291504
206.16751 860.28638 175.28906
211.73952 860.28638 175.28906
215.3287 872.69397 149.05151
220.84987 872.69397 149.05151
228.45575 860.28638 175.28906
236.23717 847.45081 202.43164
241.86177 847.45081 202.43164
247.4866 847.45081 202.43164
253.11121 847.45081 202.43164
258.73581 847.45081 202.43164
266.83286 834.61523 229.57397
272.51004 834.61523 229.57397
278.18747 834.61523 229.57397
283.86469 834.61523 229.57397
289.54187 834.61523 229.57397
295.2193 834.61523 229.57397
300.89655 834.61523 229.57397
306.57394 834.61523 229.57397
312.25116 834.61523 229.57397
317.92834 834.61523 229.57397
323.60577 834.61523 229.57397
-261.07837 1078.0499 -296.09668
-256.41623 1078.0499 -296.09668
-251.7541 1078.0499 -296.09668
-247.09198 1078.0499 -296.09668
-242.42993 1078.0499 -296.09668
-237.76781 1078.0499 -296.09668
-233.10568 1078.0499 -296.09668
-228.44354 1078.0499 -296.09668
-225.54877 1069.0311 -277.11133
-220.84991 1069.0311 -277.11133
-217.84467 1060.0125 -258.12598
-213.1089 1060.0125 -258.12598
-210.07037 1050.5642 -238.23682
-205.29601 1050.5642 -238.23682
-202.06819 1041.5453 -219.25122
-198.91043 1031.6676 -198.45801
-195.60187 1022.2194 -178.5686
-190.71181 1022.2194 -178.5686
-185.82175 1022.2194 -178.5686
-168.06053 892.09119 95.362549
-162.63921 892.09119 95.362549
-157.21788 892.09119 95.362549
-151.79655 892.09119 95.362549
-145.04982 904.11621 70.048828
-139.67758 904.11621 70.048828
-134.30534 904.11621 70.048828
-128.93311 904.11621 70.048828
-123.56087 904.11621 70.048828
-118.18874 904.11621 70.048828
-111.82236 915.71191 45.638916
-106.49747 915.71191 45.638916
-101.17258 915.71191 45.638916
-96.699806 904.11621 70.048828
-91.327667 904.11621 70.048828
-85.955437 904.11621 70.048828
-80.583206 904.11621 70.048828
-74.54821 915.71191 45.638916
-69.223312 915.71191 45.638916
-64.466599 904.11621 70.048828
-59.094368 904.11621 70.048828
-53.722134 904.11621 70.048828
-48.349903 904.11621 70.048828
-43.370415 892.09119 95.362549
-37.949188 892.09119 95.362549
-32.527863 892.09119 95.362549
-26.861067 904.11621 70.048828
-21.488834 904.11621 70.048828
-16.26388 892.09119 95.362549
-10.940842 880.06616 120.67627
-5.4704208 880.06616 120.67627
0 880.06616 120.67627
5.4212241 892.09119 95.362549
10.842655 892.09119 95.362549
16.41116 880.06616 120.67627
21.881683 880.06616 120.67627
27.352001 880.06616 120.67627
32.52776 892.09119 95.362549
37.949188 892.09119 95.362549
43.763157 880.06616 120.67627
49.233688 880.06616 120.67627
54.704002 880.06616 120.67627
59.634293 892.09119 95.362549
65.055725 892.09119 95.362549
70.476952 892.09119 95.362549
75.211067 904.11621 70.048828
80.583206 904.11621 70.048828
85.955338 904.11621 70.048828
91.327667 904.11621 70.048828
96.699806 904.11621 70.048828
101.17268 915.71191 45.638916
106.49747 915.71191 45.638916
111.82227 915.71191 45.638916
117.14725 915.71191 45.638916
122.47205 915.71191 45.638916
127.79705 915.71191 45.638916
133.12184 915.71191 45.638916
138.44662 915.71191 45.638916
143.77162 915.71191 45.638916
149.09642 915.71191 45.638916
154.42142 915.71191 45.638916
159.7462 915.71191 45.638916
165.071 915.71191 45.638916
170.396 915.71191 45.638916
175.72078 915.71191 45.638916
181.04578 915.71191 45.638916
186.37057 915.71191 45.638916
202.40485 880.06616 120.67627
207.87517 880.06616 120.67627
213.34569 880.06616 120.67627
218.81601 880.06616 120.67627
228.45575 855.1571 173.11182
236.23717 842.27319 200.23389
241.86177 842.27319 200.23389
247.4866 842.27319 200.23389
253.11121 842.27319 200.23389
261.15543 829.38916 227.35571
266.83286 829.38916 227.35571
272.51004 829.38916 227.35571
278.18747 829.38916 227.35571
283.86469 829.38916 227.35571
289.54187 829.38916 227.35571
295.2193 829.38916 227.35571
300.89655 829.38916 227.35571
306.57394 829.38916 227.35571
312.25116 829.38916 227.35571
317.92834 829.38916 227.35571
323.60577 829.38916 227.35571
-265.74051 1073.7585 -297.91821
-261.07837 1073.7585 -297.91821
-256.41623 1073.7585 -297.91821
-251.7541 1073.7585 -297.91821
-247.09198 1073.7585 -297.91821
-242.42993 1073.7585 -297.91821
-237.76781 1073.7585 -297.91821
-231.35234 1082.3801 -315.98584
-226.72527 1082.3801 -315.98584
-223.78142 1073.7585 -297.91821
-220.84991 1064.7058 -278.94727
-216.15096 1064.7058 -278.94727
-213.1089 1055.6532 -259.97656
-210.07037 1046.1694 -240.10229
-205.29601 1046.1694 -240.10229
-200.52177 1046.1694 -240.10229
-198.91043 1027.2019 -200.35376
-195.60187 1017.7181 -180.47925
-190.71181 1017.7181 -180.47925
-185.82175 1017.7181 -180.47925
-173.48186 887.10095 93.244385
-168.06053 887.10095 93.244385
-162.63921 887.10095 93.244385
-157.21788 887.10095 93.244385
-151.79655 887.10095 93.244385
-145.04982 899.17114 67.949707
-139.67758 899.17114 67.949707
-134.30534 899.17114 67.949707
-128.93311 899.17114 67.949707
-123.56087 899.17114 67.949707
-118.18874 899.17114 67.949707
-111.82236 910.8103 43.55835
-106.49747 910.8103 43.55835
-101.17258 910.8103 43.55835
-96.699806 899.17114 67.949707
-91.327667 899.17114 67.949707
-85.955437 899.17114 67.949707
-80.583206 899.17114 67.949707
-75.210968 899.17114 67.949707
-69.838737 899.17114 67.949707
-64.466599 899.17114 67.949707
-59.094368 899.17114 67.949707
-54.21307 887.10095 93.244385
-48.79174 887.10095 93.244385
-43.370415 887.10095 93.244385
-37.949188 887.10095 93.244385
-32.527863 887.10095 93.244385
-27.106535 887.10095 93.244385
-21.685207 887.10095 93.244385
-16.41116 875.03076 118.53882
-10.940842 875.03076 118.53882
-5.4704208 875.03076 118.53882
0 875.03076 118.53882
5.4703169 875.03076 118.53882
10.940842 875.03076 118.53882
16.41116 875.03076 118.53882
21.881683 875.03076 118.53882
27.352001 875.03076 118.53882
32.52776 887.10095 93.244385
37.949188 887.10095 93.244385
43.763157 875.03076 118.53882
49.233688 875.03076 118.53882
54.704002 875.03076 118.53882
59.634293 887.10095 93.244385
65.055725 887.10095 93.244385
70.476952 887.10095 93.244385
75.898376 887.10095 93.244385
80.583206 899.17114 67.949707
85.955338 899.17114 67.949707
91.327667 899.17114 67.949707
96.699806 899.17114 67.949707
101.17268 910.8103 43.55835
106.49747 910.8103 43.55835
111.82227 910.8103 43.55835
118.18874 899.17114 67.949707
123.56087 899.17114 67.949707
128.9332 899.17114 67.949707
134.30534 899.17114 67.949707
138.44662 910.8103 43.55835
143.77162 910.8103 43.55835
149.09642 910.8103 43.55835
154.42142 910.8103 43.55835
159.7462 910.8103 43.55835
165.071 910.8103 43.55835
170.396 910.8103 43.55835
175.72078 910.8103 43.55835
181.04578 910.8103 43.55835
207.87517 875.03076 118.53882
213.34569 875.03076 118.53882
218.81601 875.03076 118.53882
224.28632 875.03076 118.53882
236.23717 837.0957 198.03613
241.86177 837.0957 198.03613
247.4866 837.0957 198.03613
253.11121 837.0957 198.03613
261.15543 824.16333 225.13745
266.83286 824.16333 225.13745
272.51004 824.16333 225.13745
275.61008 837.0957 198.03613
281.23468 837.0957 198.03613
286.85928 837.0957 198.03613
295.2193 824.16333 225.13745
300.89655 824.16333 225.13745
306.57394 824.16333 225.13745
312.25116 824.16333 225.13745
317.92834 824.16333 225.13745
323.60577 824.16333 225.13745
-267.83923 1060.3804 -280.78345
-263.14029 1060.3804 -280.78345
-256.41623 1069.4669 -299.73999
-251.7541 1069.4669 -299.73999
-247.09198 1069.4669 -299.73999
-242.42993 1069.4669 -299.73999
-237.76781 1069.4669 -299.73999
-231.35234 1078.1208 -317.7937
-226.72527 1078.1208 -317.7937
-223.78142 1069.4669 -299.73999
-220.84991 1060.3804 -280.78345
-216.15096 1060.3804 -280.78345
-213.1089 1051.2938 -261.8269
-210.07037 1041.7747 -241.96777
-205.29601 1041.7747 -241.96777
-200.52177 1041.7747 -241.96777
-195.74742 1041.7747 -241.96777
-195.60187 1013.2167 -182.38989
-190.71181 1013.2167 -182.38989
-185.82175 1013.2167 -182.38989
-173.48186 882.1106 91.125977
-168.06053 882.1106 91.125977
-162.63921 882.1106 91.125977
-157.21788 882.1106 91.125977
-151.79655 882.1106 91.125977
-146.37532 882.1106 91.125977
-140.95399 882.1106 91.125977
-134.30534 894.22595 65.850586
-128.93311 894.22595 65.850586
-123.56087 894.22595 65.850586
-118.18874 894.22595 65.850586
-112.81651 894.22595 65.850586
-107.44427 894.22595 65.850586
-101.17258 905.90869 41.477783
-95.847679 905.90869 41.477783
-91.327667 894.22595 65.850586
-85.955437 894.22595 65.850586
-80.583206 894.22595 65.850586
-75.210968 894.22595 65.850586
-69.838737 894.22595 65.850586
-65.055725 882.1106 91.125977
-59.634396 882.1106 91.125977
-54.21307 882.1106 91.125977
-48.79174 882.1106 91.125977
-43.370415 882.1106 91.125977
-37.949188 882.1106 91.125977
-32.527863 882.1106 91.125977
-27.106535 882.1106 91.125977
-21.685207 882.1106 91.125977
-16.41116 869.99512 116.40137
-10.940842 869.99512 116.40137
-5.4704208 869.99512 116.40137
0 869.99512 116.40137
5.4703169 869.99512 116.40137
10.940842 869.99512 116.40137
16.41116 869.99512 116.40137
21.881683 869.99512 116.40137
27.352001 869.99512 116.40137
32.52776 882.1106 91.125977
37.949188 882.1106 91.125977
43.763157 869.99512 116.40137
49.233688 869.99512 116.40137
54.704002 869.99512 116.40137
59.634293 882.1106 91.125977
65.055725 882.1106 91.125977
70.476952 882.1106 91.125977
75.898376 882.1106 91.125977
80.583206 894.22595 65.850586
85.955338 894.22595 65.850586
91.327667 894.22595 65.850586
96.699806 894.22595 65.850586
102.07214 894.22595 65.850586
107.44427 894.22595 65.850586
112.81641 894.22595 65.850586
119.26879 882.1106 91.125977
124.69002 882.1106 91.125977
130.11145 882.1106 91.125977
135.53267 882.1106 91.125977
140.9539 882.1106 91.125977
145.04982 894.22595 65.850586
150.42194 894.22595 65.850586
155.79427 894.22595 65.850586
161.16641 894.22595 65.850586
166.53854 894.22595 65.850586
171.91087 894.22595 65.850586
177.283 894.22595 65.850586
218.81601 869.99512 116.40137
224.28632 869.99512 116.40137
236.23717 831.91797 195.83838
241.86177 831.91797 195.83838
247.4866 831.91797 195.83838
255.47821 818.93726 222.91895
261.15543 818.93726 222.91895
266.83286 818.93726 222.91895
269.98526 831.91797 195.83838
275.61008 831.91797 195.83838
281.23468 831.91797 195.83838
286.85928 831.91797 195.83838
295.2193 818.93726 222.91895
300.89655 818.93726 222.91895
306.57394 818.93726 222.91895
312.25116 818.93726 222.91895
317.92834 818.93726 222.91895
326.70392 805.52368 250.90259
-267.83923 1056.0551 -282.61938
-263.14029 1056.0551 -282.61938
-256.41623 1065.1755 -301.56152
-251.7541 1065.1755 -301.56152
-247.09198 1065.1755 -301.56152
-242.42993 1065.1755 -301.56152
-237.76781 1065.1755 -301.56152
-234.94667 1056.0551 -282.61938
-228.44354 1065.1755 -301.56152
-223.78142 1065.1755 -301.56152
-220.84991 1056.0551 -282.61938
-217.84467 1046.9347 -263.67725
-213.1089 1046.9347 -263.67725
-210.07037 1037.3799 -243.83325
-205.29601 1037.3799 -243.83325
-200.52177 1037.3799 -243.83325
-190.71181 1008.7155 -184.30054
-185.82175 1008.7155 -184.30054
-173.48186 877.12024 89.007812
-168.06053 877.12024 89.007812
-162.63921 877.12024 89.007812
-157.21788 877.12024 89.007812
-151.79655 877.12024 89.007812
-146.37532 877.12024 89.007812
-140.95399 877.12024 89.007812
-135.53267 877.12024 89.007812
-130.11134 877.12024 89.007812
-124.69002 877.12024 89.007812
-118.18874 889.28088 63.751465
-112.81651 889.28088 63.751465
-106.49747 901.0072 39.397217
-101.17258 901.0072 39.397217
-95.847679 901.0072 39.397217
-90.522888 901.0072 39.397217
-85.955437 889.28088 63.751465
-80.583206 889.28088 63.751465
-75.210968 889.28088 63.751465
-69.838737 889.28088 63.751465
-65.055725 877.12024 89.007812
-59.634396 877.12024 89.007812
-54.21307 877.12024 89.007812
-48.79174 877.12024 89.007812
-43.370415 877.12024 89.007812
-37.949188 877.12024 89.007812
-32.527863 877.12024 89.007812
-27.106535 877.12024 89.007812
-21.685207 877.12024 89.007812
-16.41116 864.95972 114.26392
-10.940842 864.95972 114.26392
-5.4704208 864.95972 114.26392
0 864.95972 114.26392
5.4703169 864.95972 114.26392
10.940842 864.95972 114.26392
16.41116 864.95972 114.26392
21.881683 864.95972 114.26392
27.352001 864.95972 114.26392
32.822319 864.95972 114.26392
38.292843 864.95972 114.26392
43.763157 864.95972 114.26392
49.233688 864.95972 114.26392
54.704002 864.95972 114.26392
59.634293 877.12024 89.007812
65.055725 877.12024 89.007812
70.476952 877.12024 89.007812
75.898376 877.12024 89.007812
81.319603 877.12024 89.007812
86.740829 877.12024 89.007812
92.162254 877.12024 89.007812
97.583481 877.12024 89.007812
103.00491 877.12024 89.007812
108.42614 877.12024 89.007812
113.84736 877.12024 89.007812
119.26879 877.12024 89.007812
124.69002 877.12024 89.007812
130.11145 877.12024 89.007812
135.53267 877.12024 89.007812
140.9539 877.12024 89.007812
146.37532 877.12024 89.007812
151.79655 877.12024 89.007812
157.21799 877.12024 89.007812
162.63921 877.12024 89.007812
168.06042 877.12024 89.007812
173.48186 877.12024 89.007812
180.52318 864.95972 114.26392
236.23717 826.7406 193.64062
241.86177 826.7406 193.64062
247.4866 826.7406 193.64062
255.47821 813.7113 220.70068
258.73581 826.7406 193.64062
264.36063 826.7406 193.64062
269.98526 826.7406 193.64062
273.03268 839.76978 166.58032
278.60468 839.76978 166.58032
286.85928 826.7406 193.64062
292.4841 826.7406 193.64062
300.89655 813.7113 220.70068
306.57394 813.7113 220.70068
312.25116 813.7113 220.70068
317.92834 813.7113 220.70068
326.70392 800.2478 248.66309
-267.83923 1051.7296 -284.45532
-263.14029 1051.7296 -284.45532
-258.44135 1051.7296 -284.45532
-251.7541 1060.8839 -303.38306
-247.09198 1060.8839 -303.38306
-242.42993 1060.8839 -303.38306
-237.76781 1060.8839 -303.38306
-234.94667 1051.7296 -284.45532
-228.44354 1060.8839 -303.38306
-223.78142 1060.8839 -303.38306
-220.84991 1051.7296 -284.45532
-217.84467 1042.5753 -265.52759
-213.1089 1042.5753 -265.52759
-210.07037 1032.985 -245.69873
-205.29601 1032.985 -245.69873
-173.48186 872.12988 86.889404
-168.06053 872.12988 86.889404
-162.63921 872.12988 86.889404
-157.21788 872.12988 86.889404
-151.79655 872.12988 86.889404
-146.37532 872.12988 86.889404
-140.95399 872.12988 86.889404
-135.53267 872.12988 86.889404
-130.11134 872.12988 86.889404
-124.69002 872.12988 86.889404
-118.18874 884.33557 61.652344
-112.81651 884.33557 61.652344
-106.49747 896.10559 37.31665
-101.17258 896.10559 37.31665
-95.847679 896.10559 37.31665
-90.522888 896.10559 37.31665
-85.955437 884.33557 61.652344
-80.583206 884.33557 61.652344
-75.210968 884.33557 61.652344
-69.838737 884.33557 61.652344
-65.055725 872.12988 86.889404
-59.634396 872.12988 86.889404
-54.21307 872.12988 86.889404
-48.79174 872.12988 86.889404
-43.370415 872.12988 86.889404
-37.949188 872.12988 86.889404
-32.527863 872.12988 86.889404
-27.106535 872.12988 86.889404
-21.685207 872.12988 86.889404
-16.41116 859.92407 112.12622
-10.940842 859.92407 112.12622
-5.4704208 859.92407 112.12622
0 859.92407 112.12622
5.4703169 859.92407 112.12622
10.940842 859.92407 112.12622
16.41116 859.92407 112.12622
21.881683 859.92407 112.12622
27.352001 859.92407 112.12622
32.822319 859.92407 112.12622
38.292843 859.92407 112.12622
43.763157 859.92407 112.12622
49.233688 859.92407 112.12622
54.704002 859.92407 112.12622
60.174316 859.92407 112.12622
65.644844 859.92407 112.12622
70.476952 872.12988 86.889404
75.898376 872.12988 86.889404
81.319603 872.12988 86.889404
86.740829 872.12988 86.889404
92.162254 872.12988 86.889404
97.583481 872.12988 86.889404
103.00491 872.12988 86.889404
108.42614 872.12988 86.889404
113.84736 872.12988 86.889404
119.26879 872.12988 86.889404
125.81916 859.92407 112.12622
130.11145 872.12988 86.889404
135.53267 872.12988 86.889404
140.9539 872.12988 86.889404
146.37532 872.12988 86.889404
151.79655 872.12988 86.889404
157.21799 872.12988 86.889404
162.63921 872.12988 86.889404
168.06042 872.12988 86.889404
173.48186 872.12988 86.889404
182.2011 847.28223 138.26489
236.23717 821.56299 191.44287
241.86177 821.56299 191.44287
247.4866 821.56299 191.44287
255.47821 808.48535 218.48242
258.73581 821.56299 191.44287
264.36063 821.56299 191.44287
269.98526 821.56299 191.44287
273.03268 834.64062 164.40308
278.60468 834.64062 164.40308
286.85928 821.56299 191.44287
292.4841 821.56299 191.44287
300.89655 808.48535 218.48242
306.57394 808.48535 218.48242
312.25116 808.48535 218.48242
317.92834 808.48535 218.48242
323.60577 808.48535 218.48242
-263.14029 1047.4043 -286.2915
-258.44135 1047.4043 -286.2915
-253.74239 1047.4043 -286.2915
-249.04344 1047.4043 -286.2915
-244.34457 1047.4043 -286.2915
-239.64563 1047.4043 -286.2915
-234.94667 1047.4043 -286.2915
-230.24773 1047.4043 -286.2915
-225.54877 1047.4043 -286.2915
-220.84991 1047.4043 -286.2915
-217.84467 1038.2161 -267.37817
-213.1089 1038.2161 -267.37817
-210.07037 1028.5903 -247.56421
-205.29601 1028.5903 -247.56421
-173.48186 867.13965 84.77124
-168.06053 867.13965 84.77124
-162.63921 867.13965 84.77124
-157.21788 867.13965 84.77124
-151.79655 867.13965 84.77124
-146.37532 867.13965 84.77124
-140.95399 867.13965 84.77124
-135.53267 867.13965 84.77124
-130.11134 867.13965 84.77124
-124.69002 867.13965 84.77124
-119.26879 867.13965 84.77124
-112.81651 879.39062 59.553467
-106.49747 891.2041 35.236084
-101.17258 891.2041 35.236084
-95.847679 891.2041 35.236084
-90.522888 891.2041 35.236084
-85.955437 879.39062 59.553467
-80.583206 879.39062 59.553467
-75.210968 879.39062 59.553467
-69.838737 879.39062 59.553467
-65.055725 867.13965 84.77124
-59.634396 867.13965 84.77124
-54.21307 867.13965 84.77124
-48.79174 867.13965 84.77124
-43.370415 867.13965 84.77124
-37.949188 867.13965 84.77124
-32.527863 867.13965 84.77124
-27.106535 867.13965 84.77124
-21.685207 867.13965 84.77124
-16.41116 854.88867 109.98901
-10.940842 854.88867 109.98901
-5.4704208 854.88867 109.98901
0 854.88867 109.98901
5.4703169 854.88867 109.98901
10.940842 854.88867 109.98901
16.41116 854.88867 109.98901
21.881683 854.88867 109.98901
27.352001 854.88867 109.98901
32.822319 854.88867 109.98901
38.292843 854.88867 109.98901
43.763157 854.88867 109.98901
49.233688 854.88867 109.98901
54.704002 854.88867 109.98901
60.174316 854.88867 109.98901
65.644844 854.88867 109.98901
70.476952 867.13965 84.77124
75.898376 867.13965 84.77124
81.319603 867.13965 84.77124
86.740829 867.13965 84.77124
92.162254 867.13965 84.77124
97.583481 867.13965 84.77124
103.00491 867.13965 84.77124
108.42614 867.13965 84.77124
113.84736 867.13965 84.77124
120.34885 854.88867 109.98901
125.81916 854.88867 109.98901
130.11145 867.13965 84.77124
135.53267 867.13965 84.77124
142.23032 854.88867 109.98901
147.70084 854.88867 109.98901
151.79655 867.13965 84.77124
157.21799 867.13965 84.77124
164.112 854.88867 109.98901
169.58232 854.88867 109.98901
175.05284 854.88867 109.98901
182.2011 842.19995 136.10767
241.86177 816.3855 189.24512
247.4866 816.3855 189.24512
255.47821 803.2594 216.26416
261.15543 803.2594 216.26416
266.83286 803.2594 216.26416
272.51004 803.2594 216.26416
275.61008 816.3855 189.24512
281.23468 816.3855 189.24512
286.85928 816.3855 189.24512
295.2193 803.2594 216.26416
300.89655 803.2594 216.26416
306.57394 803.2594 216.26416
312.25116 803.2594 216.26416
317.92834 803.2594 216.26416
323.60577 803.2594 216.26416
332.43549 789.6958 244.18384
-260.46643 1033.8567 -269.22852
-253.74239 1043.0789 -288.12744
-249.04344 1043.0789 -288.12744
-244.34457 1043.0789 -288.12744
-239.64563 1043.0789 -288.12744
-236.78767 1033.8567 -269.22852
-230.24773 1043.0789 -288.12744
-225.54877 1043.0789 -288.12744
-220.84991 1043.0789 -288.12744
-217.84467 1033.8567 -269.22852
-213.1089 1033.8567 -269.22852
-173.48186 862.14917 82.653076
-168.06053 862.14917 82.653076
-162.63921 862.14917 82.653076
-157.21788 862.14917 82.653076
-151.79655 862.14917 82.653076
-146.37532 862.14917 82.653076
-140.95399 862.14917 82.653076
-135.53267 862.14917 82.653076
-130.11134 862.14917 82.653076
-124.69002 862.14917 82.653076
-119.26879 862.14917 82.653076
-113.84747 862.14917 82.653076
-107.44427 874.44531 57.454346
-101.17258 886.30249 33.155518
-95.847679 886.30249 33.155518
-90.522888 886.30249 33.155518
-85.955437 874.44531 57.454346
-80.583206 874.44531 57.454346
-75.210968 874.44531 57.454346
-70.476952 862.14917 82.653076
-65.055725 862.14917 82.653076
-59.634396 862.14917 82.653076
-54.21307 862.14917 82.653076
-48.79174 862.14917 82.653076
-43.370415 862.14917 82.653076
-37.949188 862.14917 82.653076
-32.527863 862.14917 82.653076
-27.106535 862.14917 82.653076
-21.685207 862.14917 82.653076
-16.41116 849.85303 107.85132
-10.940842 849.85303 107.85132
-5.4704208 849.85303 107.85132
0 849.85303 107.85132
5.4703169 849.85303 107.85132
10.940842 849.85303 107.85132
16.41116 849.85303 107.85132
21.881683 849.85303 107.85132
27.352001 849.85303 107.85132
32.822319 849.85303 107.85132
38.292843 849.85303 107.85132
43.763157 849.85303 107.85132
49.233688 849.85303 107.85132
54.704002 849.85303 107.85132
60.174316 849.85303 107.85132
65.644844 849.85303 107.85132
70.476952 862.14917 82.653076
75.898376 862.14917 82.653076
81.319603 862.14917 82.653076
86.740829 862.14917 82.653076
92.162254 862.14917 82.653076
97.583481 862.14917 82.653076
103.00491 862.14917 82.653076
108.42614 862.14917 82.653076
113.84736 862.14917 82.653076
120.34885 849.85303 107.85132
125.81916 849.85303 107.85132
131.28969 849.85303 107.85132
136.76001 849.85303 107.85132
142.23032 849.85303 107.85132
147.70084 849.85303 107.85132
153.17117 849.85303 107.85132
158.64169 849.85303 107.85132
164.112 849.85303 107.85132
169.58232 849.85303 107.85132
175.05284 849.85303 107.85132
241.86177 811.20776 187.04736
247.4866 811.20776 187.04736
255.47821 798.03333 214.0459
261.15543 798.03333 214.0459
266.83286 798.03333 214.0459
272.51004 798.03333 214.0459
275.61008 811.20776 187.04736
281.23468 811.20776 187.04736
286.85928 811.20776 187.04736
295.2193 798.03333 214.0459
298.10873 811.20776 187.04736
303.73355 811.20776 187.04736
312.25116 798.03333 214.0459
317.92834 798.03333 214.0459
323.60577 798.03333 214.0459
332.43549 784.41968 241.94434
338.16727 784.41968 241.94434
-250.9949 1029.4974 -271.07886
-246.25922 1029.4974 -271.07886
-241.52344 1029.4974 -271.07886
-236.78767 1029.4974 -271.07886
-232.05191 1029.4974 -271.07886
-225.54877 1038.7534 -289.96362
-220.84991 1038.7534 -289.96362
-173.48186 857.15881 80.534668
-168.06053 857.15881 80.534668
-162.63921 857.15881 80.534668
-157.21788 857.15881 80.534668
-151.79655 857.15881 80.534668
-146.37532 857.15881 80.534668
-140.95399 857.15881 80.534668
-135.53267 857.15881 80.534668
-130.11134 857.15881 80.534668
-124.69002 857.15881 80.534668
-119.26879 857.15881 80.534668
-113.84747 857.15881 80.534668
-107.44427 869.50012 55.355225
-102.07204 869.50012 55.355225
-96.699806 869.50012 55.355225
-91.327667 869.50012 55.355225
-85.955437 869.50012 55.355225
-80.583206 869.50012 55.355225
-75.210968 869.50012 55.355225
-69.838737 869.50012 55.355225
-65.055725 857.15881 80.534668
-59.634396 857.15881 80.534668
-54.21307 857.15881 80.534668
-48.79174 857.15881 80.534668
-43.370415 857.15881 80.534668
-37.949188 857.15881 80.534668
-32.527863 857.15881 80.534668
-27.106535 857.15881 80.534668
-21.685207 857.15881 80.534668
-16.41116 844.8175 105.71387
-10.940842 844.8175 105.71387
-5.4704208 844.8175 105.71387
0 844.8175 105.71387
5.4703169 844.8175 105.71387
10.940842 844.8175 105.71387
16.41116 844.8175 105.71387
21.881683 844.8175 105.71387
27.352001 844.8175 105.71387
32.822319 844.8175 105.71387
38.292843 844.8175 105.71387
43.763157 844.8175 105.71387
49.233688 844.8175 105.71387
54.704002 844.8175 105.71387
60.174316 844.8175 105.71387
65.644844 844.8175 105.71387
71.115158 844.8175 105.71387
75.898376 857.15881 80.534668
81.319603 857.15881 80.534668
86.740829 857.15881 80.534668
92.162254 857.15881 80.534668
97.583481 857.15881 80.534668
103.00491 857.15881 80.534668
108.42614 857.15881 80.534668
113.84736 857.15881 80.534668
120.34885 844.8175 105.71387
125.81916 844.8175 105.71387
131.28969 844.8175 105.71387
136.76001 844.8175 105.71387
142.23032 844.8175 105.71387
147.70084 844.8175 105.71387
153.17117 844.8175 105.71387
158.64169 844.8175 105.71387
164.112 844.8175 105.71387
171.15857 832.03516 131.79297
176.67995 832.03516 131.79297
244.12358 792.80725 211.82764
249.80101 792.80725 211.82764
255.47821 792.80725 211.82764
261.15543 792.80725 211.82764
264.36063 806.03015 184.84961
269.98526 806.03015 184.84961
275.61008 806.03015 184.84961
281.23468 806.03015 184.84961
286.85928 806.03015 184.84961
292.4841 806.03015 184.84961
298.10873 806.03015 184.84961
303.73355 806.03015 184.84961
312.25116 792.80725 211.82764
317.92834 792.80725 211.82764
323.60577 792.80725 211.82764
329.28299 792.80725 211.82764
338.16727 779.14355 239.70483
343.8988 779.14355 239.70483
-246.25922 1025.1382 -272.9292
-239.64563 1034.4281 -291.79956
-234.94667 1034.4281 -291.79956
-232.05191 1025.1382 -272.9292
-227.31613 1025.1382 -272.9292
-175.05284 839.78198 103.57642
-168.06053 852.16858 78.416504
-162.63921 852.16858 78.416504
-157.21788 852.16858 78.416504
-151.79655 852.16858 78.416504
-146.37532 852.16858 78.416504
-140.95399 852.16858 78.416504
-135.53267 852.16858 78.416504
-130.11134 852.16858 78.416504
-124.69002 852.16858 78.416504
-119.26879 852.16858 78.416504
-113.84747 852.16858 78.416504
-107.44427 864.55505 53.256104
-102.07204 864.55505 53.256104
-96.699806 864.55505 53.256104
-91.327667 864.55505 53.256104
-85.955437 864.55505 53.256104
-80.583206 864.55505 53.256104
-75.210968 864.55505 53.256104
-69.838737 864.55505 53.256104
-65.055725 852.16858 78.416504
-59.634396 852.16858 78.416504
-54.21307 852.16858 78.416504
-48.79174 852.16858 78.416504
-43.370415 852.16858 78.416504
-37.949188 852.16858 78.416504
-32.527863 852.16858 78.416504
-27.106535 852.16858 78.416504
-21.685207 852.16858 78.416504
-16.41116 839.78198 103.57642
-10.940842 839.78198 103.57642
-5.4704208 839.78198 103.57642
0 839.78198 103.57642
5.4703169 839.78198 103.57642
10.940842 839.78198 103.57642
16.41116 839.78198 103.57642
21.881683 839.78198 103.57642
27.352001 839.78198 103.57642
32.822319 839.78198 103.57642
38.292843 839.78198 103.57642
43.763157 839.78198 103.57642
49.233688 839.78198 103.57642
54.704002 839.78198 103.57642
60.174316 839.78198 103.57642
65.644844 839.78198 103.57642
71.115158 839.78198 103.57642
76.585686 839.78198 103.57642
81.319603 852.16858 78.416504
86.740829 852.16858 78.416504
92.162254 852.16858 78.416504
97.583481 852.16858 78.416504
103.00491 852.16858 78.416504
108.42614 852.16858 78.416504
113.84736 852.16858 78.416504
120.34885 839.78198 103.57642
125.81916 839.78198 103.57642
131.28969 839.78198 103.57642
136.76001 839.78198 103.57642
142.23032 839.78198 103.57642
149.07372 826.953 129.6355
154.59486 826.953 129.6355
160.11624 826.953 129.6355
165.63741 826.953 129.6355
171.15857 826.953 129.6355
176.67995 826.953 129.6355
244.12358 787.58142 209.60938
249.80101 787.58142 209.60938
255.47821 787.58142 209.60938
261.15543 787.58142 209.60938
264.36063 800.85278 182.65186
269.98526 800.85278 182.65186
275.61008 800.85278 182.65186
281.23468 800.85278 182.65186
286.85928 800.85278 182.65186
292.4841 800.85278 182.65186
298.10873 800.85278 182.65186
306.57394 787.58142 209.60938
312.25116 787.58142 209.60938
317.92834 787.58142 209.60938
323.60577 787.58142 209.60938
329.28299 787.58142 209.60938
334.96042 787.58142 209.60938
340.6376 787.58142 209.60938
-239.64563 1030.1027 -293.6355
-234.94667 1030.1027 -293.6355
-175.05284 834.74634 101.43896
-169.58243 834.74634 101.43896
-164.112 834.74634 101.43896
-157.21788 847.1781 76.298096
-151.79655 847.1781 76.298096
-146.37532 847.1781 76.298096
-140.95399 847.1781 76.298096
-135.53267 847.1781 76.298096
-130.11134 847.1781 76.298096
-124.69002 847.1781 76.298096
-119.26879 847.1781 76.298096
-113.84747 847.1781 76.298096
-107.44427 859.60986 51.156982
-102.07204 859.60986 51.156982
-96.699806 859.60986 51.156982
-91.327667 859.60986 51.156982
-85.955437 859.60986 51.156982
-80.583206 859.60986 51.156982
-75.210968 859.60986 51.156982
-69.838737 859.60986 51.156982
-65.055725 847.1781 76.298096
-59.634396 847.1781 76.298096
-54.21307 847.1781 76.298096
-48.79174 847.1781 76.298096
-43.370415 847.1781 76.298096
-37.949188 847.1781 76.298096
-32.527863 847.1781 76.298096
-27.106535 847.1781 76.298096
-21.685207 847.1781 76.298096
-16.41116 834.74634 101.43896
-10.940842 834.74634 101.43896
-5.4704208 834.74634 101.43896
0 834.74634 101.43896
5.4703169 834.74634 101.43896
10.940842 834.74634 101.43896
16.41116 834.74634 101.43896
21.881683 834.74634 101.43896
27.352001 834.74634 101.43896
32.822319 834.74634 101.43896
38.292843 834.74634 101.43896
43.763157 834.74634 101.43896
49.233688 834.74634 101.43896
54.704002 834.74634 101.43896
60.174316 834.74634 101.43896
65.644844 834.74634 101.43896
71.115158 834.74634 101.43896
76.585686 834.74634 101.43896
82.056 834.74634 101.43896
87.526314 834.74634 101.43896
92.162254 847.1781 76.298096
97.583481 847.1781 76.298096
103.00491 847.1781 76.298096
108.42614 847.1781 76.298096
113.84736 847.1781 76.298096
120.34885 834.74634 101.43896
125.81916 834.74634 101.43896
131.28969 834.74634 101.43896
138.03117 821.87061 127.47827
143.55234 821.87061 127.47827
149.07372 821.87061 127.47827
154.59486 821.87061 127.47827
160.11624 821.87061 127.47827
165.63741 821.87061 127.47827
171.15857 821.87061 127.47827
249.80101 782.35535 207.39087
255.47821 782.35535 207.39087
261.15543 782.35535 207.39087
264.36063 795.67505 180.4541
269.98526 795.67505 180.4541
275.61008 795.67505 180.4541
281.23468 795.67505 180.4541
286.85928 795.67505 180.4541
292.4841 795.67505 180.4541
300.89655 782.35535 207.39087
306.57394 782.35535 207.39087
312.25116 782.35535 207.39087
317.92834 782.35535 207.39087
323.60577 782.35535 207.39087
329.28299 782.35535 207.39087
334.96042 782.35535 207.39087
337.4816 795.67505 180.4541
343.10623 795.67505 180.4541
-175.05284 829.71094 99.301514
-169.58243 829.71094 99.301514
-164.112 829.71094 99.301514
-157.21788 842.18787 74.179932
-151.79655 842.18787 74.179932
-146.37532 842.18787 74.179932
-140.95399 842.18787 74.179932
-135.53267 842.18787 74.179932
-130.11134 842.18787 74.179932
-124.69002 842.18787 74.179932
-119.26879 842.18787 74.179932
-113.84747 842.18787 74.179932
-107.44427 854.66479 49.057861
-102.07204 854.66479 49.057861
-96.699806 854.66479 49.057861
-91.327667 854.66479 49.057861
-85.955437 854.66479 49.057861
-80.583206 854.66479 49.057861
-75.210968 854.66479 49.057861
-69.838737 854.66479 49.057861
-65.055725 842.18787 74.179932
-59.634396 842.18787 74.179932
-54.21307 842.18787 74.179932
-48.79174 842.18787 74.179932
-43.370415 842.18787 74.179932
-37.949188 842.18787 74.179932
-32.527863 842.18787 74.179932
-27.106535 842.18787 74.179932
-21.685207 842.18787 74.179932
-16.41116 829.71094 99.301514
-10.940842 829.71094 99.301514
-5.4704208 829.71094 99.301514
0 829.71094 99.301514
5.4703169 829.71094 99.301514
10.940842 829.71094 99.301514
16.41116 829.71094 99.301514
21.881683 829.71094 99.301514
27.352001 829.71094 99.301514
32.822319 829.71094 99.301514
38.292843 829.71094 99.301514
43.763157 829.71094 99.301514
49.233688 829.71094 99.301514
54.704002 829.71094 99.301514
60.174316 829.71094 99.301514
65.644844 829.71094 99.301514
71.115158 829.71094 99.301514
76.585686 829.71094 99.301514
82.056 829.71094 99.301514
87.526314 829.71094 99.301514
92.162254 842.18787 74.179932
97.583481 842.18787 74.179932
103.93769 829.71094 99.301514
109.408 829.71094 99.301514
114.87832 829.71094 99.301514
120.34885 829.71094 99.301514
125.81916 829.71094 99.301514
131.28969 829.71094 99.301514
138.03117 816.78833 125.32104
143.55234 816.78833 125.32104
149.07372 816.78833 125.32104
154.59486 816.78833 125.32104
160.11624 816.78833 125.32104
165.63741 816.78833 125.32104
172.73482 803.86572 151.34009
249.80101 777.12939 205.17261
255.47821 777.12939 205.17261
261.15543 777.12939 205.17261
264.36063 790.49756 178.25659
269.98526 790.49756 178.25659
275.61008 790.49756 178.25659
281.23468 790.49756 178.25659
289.54187 777.12939 205.17261
295.2193 777.12939 205.17261
298.10873 790.49756 178.25659
303.73355 790.49756 178.25659
309.35815 790.49756 178.25659
314.98276 790.49756 178.25659
320.60754 790.49756 178.25659
329.28299 777.12939 205.17261
334.96042 777.12939 205.17261
337.4816 790.49756 178.25659
343.10623 790.49756 178.25659
348.73102 790.49756 178.25659
-175.05284 824.67529 97.164062
-169.58243 824.67529 97.164062
-164.112 824.67529 97.164062
-157.21788 837.19751 72.061523
-151.79655 837.19751 72.061523
-146.37532 837.19751 72.061523
-140.95399 837.19751 72.061523
-135.53267 837.19751 72.061523
-130.11134 837.19751 72.061523
-124.69002 837.19751 72.061523
-119.26879 837.19751 72.061523
-113.84747 837.19751 72.061523
-108.42614 837.19751 72.061523
-102.07204 849.71948 46.95874
-96.699806 849.71948 46.95874
-92.162254 837.19751 72.061523
-86.740929 837.19751 72.061523
-81.319603 837.19751 72.061523
-75.898277 837.19751 72.061523
-70.476952 837.19751 72.061523
-65.055725 837.19751 72.061523
-59.634396 837.19751 72.061523
-54.21307 837.19751 72.061523
-48.79174 837.19751 72.061523
-43.370415 837.19751 72.061523
-37.949188 837.19751 72.061523
-32.527863 837.19751 72.061523
-27.106535 837.19751 72.061523
-21.685207 837.19751 72.061523
-16.41116 824.67529 97.164062
