ply
format ascii 1.0
comment PCL generated
element vertex 1581
property float x
property float y
property float z
element camera 0
property float view_px
property float view_py
property float view_pz
property float x_axisx
property float x_axisy
property float x_axisz
property float y_axisx
property float y_axisy
property float y_axisz
property float z_axisx
property float z_axisy
property float z_axisz
property float focal
property float scalex
property float scaley
property float centerx
property float centery
property int viewportx
property int viewporty
property float k1
property float k2
end_header
240.69769 1111.7006 218.99902
246.16801 1111.7006 218.99902
253.97728 1101.3989 246.1311
259.49866 1101.3989 246.1311
265.01981 1101.3989 246.1311
270.54117 1101.3989 246.1311
-220.50452 1007.1072 477.69653
-214.54491 1007.1072 477.69653
-208.58531 1007.1072 477.69653
-200.59886 1019.2397 445.91016
-194.69885 1019.2397 445.91016
-188.799 1019.2397 445.91016
-182.89899 1019.2397 445.91016
-176.99901 1019.2397 445.91016
-171.09903 1019.2397 445.91016
-165.19902 1019.2397 445.91016
-159.29916 1019.2397 445.91016
-153.39915 1019.2397 445.91016
-147.49918 1019.2397 445.91016
-141.59918 1019.2397 445.91016
-131.82784 1053.4961 356.16064
-123.7433 1075.2632 299.13232
-117.01398 1085.9684 271.08545
-110.42493 1096.3167 243.97363
-104.90366 1096.3167 243.97363
-99.382401 1096.3167 243.97363
-93.861237 1096.3167 243.97363
-88.339973 1096.3167 243.97363
-82.818703 1096.3167 243.97363
-76.585587 1106.665 216.86157
-71.115158 1106.665 216.86157
-65.644844 1106.665 216.86157
-60.174423 1106.665 216.86157
-54.704002 1106.665 216.86157
-49.233582 1106.665 216.86157
-43.763157 1106.665 216.86157
-38.292843 1106.665 216.86157
-32.822422 1106.665 216.86157
-27.352001 1106.665 216.86157
-21.685207 1116.6565 190.68481
-16.26388 1116.6565 190.68481
-10.842655 1116.6565 190.68481
-5.4213276 1116.6565 190.68481
0 1116.6565 190.68481
5.4212241 1116.6565 190.68481
10.842655 1116.6565 190.68481
16.26388 1116.6565 190.68481
21.68531 1116.6565 190.68481
27.106535 1116.6565 190.68481
32.52776 1116.6565 190.68481
37.949188 1116.6565 190.68481
43.370415 1116.6565 190.68481
48.791843 1116.6565 190.68481
54.21307 1116.6565 190.68481
59.634293 1116.6565 190.68481
65.055725 1116.6565 190.68481
70.476952 1116.6565 190.68481
75.898376 1116.6565 190.68481
81.319603 1116.6565 190.68481
87.526314 1106.665 216.86157
92.996849 1106.665 216.86157
98.467163 1106.665 216.86157
103.93769 1106.665 216.86157
109.408 1106.665 216.86157
114.87832 1106.665 216.86157
120.34885 1106.665 216.86157
125.81916 1106.665 216.86157
131.28969 1106.665 216.86157
136.76001 1106.665 216.86157
142.23032 1106.665 216.86157
147.70084 1106.665 216.86157
153.17117 1106.665 216.86157
158.64169 1106.665 216.86157
165.63741 1096.3167 243.97363
171.15857 1096.3167 243.97363
176.67995 1096.3167 243.97363
182.2011 1096.3167 243.97363
185.9937 1106.665 216.86157
191.464 1106.665 216.86157
196.93433 1106.665 216.86157
202.40485 1106.665 216.86157
207.87517 1106.665 216.86157
213.34569 1106.665 216.86157
218.81601 1106.665 216.86157
224.28632 1106.665 216.86157
229.75684 1106.665 216.86157
235.22717 1106.665 216.86157
240.69769 1106.665 216.86157
246.16801 1106.665 216.86157
251.63832 1106.665 216.86157
259.49866 1096.3167 243.97363
265.01981 1096.3167 243.97363
270.54117 1096.3167 243.97363
-226.464 1001.6213 475.36792
-220.50452 1001.6213 475.36792
-214.54491 1001.6213 475.36792
-208.58531 1001.6213 475.36792
-200.59886 1013.8087 443.60474
-194.69885 1013.8087 443.60474
-188.799 1013.8087 443.60474
-182.89899 1013.8087 443.60474
-176.99901 1013.8087 443.60474
-171.09903 1013.8087 443.60474
-165.19902 1013.8087 443.60474
-159.29916 1013.8087 443.60474
-153.39915 1013.8087 443.60474
-147.49918 1013.8087 443.60474
-141.59918 1013.8087 443.60474
-131.82784 1048.2201 353.9209
-124.90051 1059.3322 324.96069
-117.01398 1080.8392 268.9082
-111.44187 1080.8392 268.9082
-104.90366 1091.2343 241.81641
-99.382401 1091.2343 241.81641
-93.861237 1091.2343 241.81641
-88.339973 1091.2343 241.81641
-82.818703 1091.2343 241.81641
-76.585587 1101.6295 214.72412
-71.115158 1101.6295 214.72412
-65.644844 1101.6295 214.72412
-60.174423 1101.6295 214.72412
-54.704002 1101.6295 214.72412
-49.233582 1101.6295 214.72412
-43.763157 1101.6295 214.72412
-38.292843 1101.6295 214.72412
-32.822422 1101.6295 214.72412
-27.352001 1101.6295 214.72412
-21.685207 1111.6661 188.56665
-16.26388 1111.6661 188.56665
-10.842655 1111.6661 188.56665
-5.4213276 1111.6661 188.56665
0 1111.6661 188.56665
5.4212241 1111.6661 188.56665
10.842655 1111.6661 188.56665
16.26388 1111.6661 188.56665
21.68531 1111.6661 188.56665
27.106535 1111.6661 188.56665
32.52776 1111.6661 188.56665
37.949188 1111.6661 188.56665
43.370415 1111.6661 188.56665
48.791843 1111.6661 188.56665
54.21307 1111.6661 188.56665
59.634293 1111.6661 188.56665
65.055725 1111.6661 188.56665
70.476952 1111.6661 188.56665
75.898376 1111.6661 188.56665
81.319603 1111.6661 188.56665
86.740829 1111.6661 188.56665
92.996849 1101.6295 214.72412
98.467163 1101.6295 214.72412
103.93769 1101.6295 214.72412
109.408 1101.6295 214.72412
114.87832 1101.6295 214.72412
120.34885 1101.6295 214.72412
125.81916 1101.6295 214.72412
131.28969 1101.6295 214.72412
136.76001 1101.6295 214.72412
142.23032 1101.6295 214.72412
147.70084 1101.6295 214.72412
153.17117 1101.6295 214.72412
160.11624 1091.2343 241.81641
165.63741 1091.2343 241.81641
171.15857 1091.2343 241.81641
176.67995 1091.2343 241.81641
182.2011 1091.2343 241.81641
185.9937 1101.6295 214.72412
191.464 1101.6295 214.72412
196.93433 1101.6295 214.72412
202.40485 1101.6295 214.72412
207.87517 1101.6295 214.72412
213.34569 1101.6295 214.72412
216.85228 1111.6661 188.56665
222.2735 1111.6661 188.56665
229.75684 1101.6295 214.72412
235.22717 1101.6295 214.72412
240.69769 1101.6295 214.72412
246.16801 1101.6295 214.72412
251.63832 1101.6295 214.72412
259.49866 1091.2343 241.81641
265.01981 1091.2343 241.81641
270.54117 1091.2343 241.81641
-226.464 996.1355 473.03931
-220.50452 996.1355 473.03931
-214.54491 996.1355 473.03931
-208.58531 996.1355 473.03931
-200.59886 1008.3778 441.29956
-194.69885 1008.3778 441.29956
-188.799 1008.3778 441.29956
-182.89899 1008.3778 441.29956
-176.99901 1008.3778 441.29956
-171.09903 1008.3778 441.29956
-165.19902 1008.3778 441.29956
-160.90871 996.1355 473.03931
-154.94911 996.1355 473.03931
-147.49918 1008.3778 441.29956
-141.59918 1008.3778 441.29956
-131.82784 1042.9441 351.6814
-124.90051 1054.1062 322.74243
-118.11858 1064.9081 294.73682
-111.44187 1075.7101 266.7312
-104.90366 1086.152 239.65894
-99.382401 1086.152 239.65894
-93.861237 1086.152 239.65894
-88.339973 1086.152 239.65894
-82.818703 1086.152 239.65894
-76.585587 1096.594 212.58667
-71.115158 1096.594 212.58667
-65.644844 1096.594 212.58667
-60.174423 1096.594 212.58667
-54.704002 1096.594 212.58667
-49.233582 1096.594 212.58667
-43.763157 1096.594 212.58667
-38.292843 1096.594 212.58667
-32.822422 1096.594 212.58667
-27.352001 1096.594 212.58667
-21.685207 1106.6758 186.44824
-16.26388 1106.6758 186.44824
-10.842655 1106.6758 186.44824
-5.4213276 1106.6758 186.44824
0 1116.7576 160.30981
5.3721313 1116.7576 160.30981
10.842655 1106.6758 186.44824
16.26388 1106.6758 186.44824
21.68531 1106.6758 186.44824
27.106535 1106.6758 186.44824
32.52776 1106.6758 186.44824
37.949188 1106.6758 186.44824
43.370415 1106.6758 186.44824
48.791843 1106.6758 186.44824
54.21307 1106.6758 186.44824
59.634293 1106.6758 186.44824
65.055725 1106.6758 186.44824
70.476952 1106.6758 186.44824
75.898376 1106.6758 186.44824
81.319603 1106.6758 186.44824
86.740829 1106.6758 186.44824
92.996849 1096.594 212.58667
98.467163 1096.594 212.58667
103.93769 1096.594 212.58667
109.408 1096.594 212.58667
114.87832 1096.594 212.58667
120.34885 1096.594 212.58667
125.81916 1096.594 212.58667
131.28969 1096.594 212.58667
136.76001 1096.594 212.58667
142.23032 1096.594 212.58667
147.70084 1096.594 212.58667
153.17117 1096.594 212.58667
160.11624 1086.152 239.65894
165.63741 1086.152 239.65894
171.15857 1086.152 239.65894
176.67995 1086.152 239.65894
182.2011 1086.152 239.65894
187.72247 1086.152 239.65894
191.464 1096.594 212.58667
196.93433 1096.594 212.58667
202.40485 1096.594 212.58667
207.87517 1096.594 212.58667
213.34569 1096.594 212.58667
216.85228 1106.6758 186.44824
222.2735 1106.6758 186.44824
229.75684 1096.594 212.58667
235.22717 1096.594 212.58667
240.69769 1096.594 212.58667
246.16801 1096.594 212.58667
253.97728 1086.152 239.65894
259.49866 1086.152 239.65894
265.01981 1086.152 239.65894
270.54117 1086.152 239.65894
-232.4236 990.64966 470.71094
-226.464 990.64966 470.71094
-220.50452 990.64966 470.71094
-214.54491 990.64966 470.71094
-208.58531 990.64966 470.71094
-200.59886 1002.9469 438.99414
-194.69885 1002.9469 438.99414
-188.799 1002.9469 438.99414
-182.89899 1002.9469 438.99414
-176.99901 1002.9469 438.99414
-171.09903 1002.9469 438.99414
-165.19902 1002.9469 438.99414
-160.90871 990.64966 470.71094
-154.94911 990.64966 470.71094
-147.49918 1002.9469 438.99414
-141.59918 1002.9469 438.99414
-133.07796 1026.4561 378.35986
-126.09628 1037.6681 349.44189
-118.11858 1059.7306 292.53906
-111.44187 1070.5809 264.55396
-105.86976 1070.5809 264.55396
-99.382401 1081.0697 237.50171
-93.861237 1081.0697 237.50171
-88.339973 1081.0697 237.50171
-82.056 1091.5585 210.44922
-76.585587 1091.5585 210.44922
-71.115158 1091.5585 210.44922
-65.644844 1091.5585 210.44922
-60.174423 1091.5585 210.44922
-54.704002 1091.5585 210.44922
-49.233582 1091.5585 210.44922
-43.763157 1091.5585 210.44922
-38.292843 1091.5585 210.44922
-32.822422 1091.5585 210.44922
-27.352001 1091.5585 210.44922
-21.685207 1101.6854 184.33008
-16.26388 1101.6854 184.33008
-10.842655 1101.6854 184.33008
-5.4213276 1101.6854 184.33008
0 1111.8125 158.21069
5.3721313 1111.8125 158.21069
10.842655 1101.6854 184.33008
16.26388 1101.6854 184.33008
21.68531 1101.6854 184.33008
27.106535 1101.6854 184.33008
32.52776 1101.6854 184.33008
37.949188 1101.6854 184.33008
43.370415 1101.6854 184.33008
48.791843 1101.6854 184.33008
54.21307 1101.6854 184.33008
59.634293 1101.6854 184.33008
65.055725 1101.6854 184.33008
70.476952 1101.6854 184.33008
75.898376 1101.6854 184.33008
81.319603 1101.6854 184.33008
86.740829 1101.6854 184.33008
92.996849 1091.5585 210.44922
98.467163 1091.5585 210.44922
103.93769 1091.5585 210.44922
109.408 1091.5585 210.44922
114.87832 1091.5585 210.44922
120.34885 1091.5585 210.44922
125.81916 1091.5585 210.44922
131.28969 1091.5585 210.44922
136.76001 1091.5585 210.44922
142.23032 1091.5585 210.44922
147.70084 1091.5585 210.44922
153.17117 1091.5585 210.44922
160.11624 1081.0697 237.50171
165.63741 1081.0697 237.50171
171.15857 1081.0697 237.50171
178.30704 1070.5809 264.55396
182.2011 1081.0697 237.50171
187.72247 1081.0697 237.50171
191.464 1091.5585 210.44922
196.93433 1091.5585 210.44922
202.40485 1091.5585 210.44922
207.87517 1091.5585 210.44922
213.34569 1091.5585 210.44922
218.81601 1091.5585 210.44922
224.28632 1091.5585 210.44922
229.75684 1091.5585 210.44922
235.22717 1091.5585 210.44922
240.69769 1091.5585 210.44922
246.16801 1091.5585 210.44922
253.97728 1081.0697 237.50171
259.49866 1081.0697 237.50171
265.01981 1081.0697 237.50171
273.03268 1070.5809 264.55396
-230.09869 997.51587 436.68896
-224.19868 997.51587 436.68896
-220.50452 985.16382 468.38232
-214.54491 985.16382 468.38232
-208.58531 985.16382 468.38232
-202.6257 985.16382 468.38232
-194.69885 997.51587 436.68896
-188.799 997.51587 436.68896
-182.89899 997.51587 436.68896
-176.99901 997.51587 436.68896
-172.8278 985.16382 468.38232
-166.86819 985.16382 468.38232
-160.90871 985.16382 468.38232
-154.94911 985.16382 468.38232
-147.49918 997.51587 436.68896
-141.59918 997.51587 436.68896
-133.07796 1021.13 376.09912
-126.09628 1032.3921 347.20239
-118.11858 1054.553 290.34131
-111.44187 1065.4518 262.37671
-105.86976 1065.4518 262.37671
-99.382401 1075.9873 235.34448
-93.861237 1075.9873 235.34448
-88.339973 1075.9873 235.34448
-82.056 1086.5229 208.31177
-76.585587 1086.5229 208.31177
-71.115158 1086.5229 208.31177
-65.644844 1086.5229 208.31177
-60.174423 1086.5229 208.31177
-54.704002 1086.5229 208.31177
-49.233582 1086.5229 208.31177
-43.763157 1086.5229 208.31177
-38.292843 1086.5229 208.31177
-32.822422 1086.5229 208.31177
-27.352001 1086.5229 208.31177
-21.685207 1096.6952 182.21191
-16.26388 1096.6952 182.21191
-10.842655 1096.6952 182.21191
-5.4213276 1096.6952 182.21191
0 1096.6952 182.21191
5.4212241 1096.6952 182.21191
10.842655 1096.6952 182.21191
16.26388 1096.6952 182.21191
21.68531 1096.6952 182.21191
27.106535 1096.6952 182.21191
32.52776 1096.6952 182.21191
37.949188 1096.6952 182.21191
43.370415 1096.6952 182.21191
48.791843 1096.6952 182.21191
54.21307 1096.6952 182.21191
59.634293 1096.6952 182.21191
65.055725 1096.6952 182.21191
70.476952 1096.6952 182.21191
75.898376 1096.6952 182.21191
81.319603 1096.6952 182.21191
87.526314 1086.5229 208.31177
92.996849 1086.5229 208.31177
98.467163 1086.5229 208.31177
104.90378 1075.9873 235.34448
110.42493 1075.9873 235.34448
115.9461 1075.9873 235.34448
120.34885 1086.5229 208.31177
125.81916 1086.5229 208.31177
131.28969 1086.5229 208.31177
136.76001 1086.5229 208.31177
142.23032 1086.5229 208.31177
147.70084 1086.5229 208.31177
153.17117 1086.5229 208.31177
160.11624 1075.9873 235.34448
167.16281 1065.4518 262.37671
172.73482 1065.4518 262.37671
178.30704 1065.4518 262.37671
182.2011 1075.9873 235.34448
187.72247 1075.9873 235.34448
191.464 1086.5229 208.31177
196.93433 1086.5229 208.31177
202.40485 1086.5229 208.31177
207.87517 1086.5229 208.31177
213.34569 1086.5229 208.31177
218.81601 1086.5229 208.31177
224.28632 1086.5229 208.31177
229.75684 1086.5229 208.31177
235.22717 1086.5229 208.31177
240.69769 1086.5229 208.31177
248.45612 1075.9873 235.34448
253.97728 1075.9873 235.34448
259.49866 1075.9873 235.34448
265.01981 1075.9873 235.34448
270.54117 1075.9873 235.34448
278.60468 1065.4518 262.37671
-230.09869 992.08496 434.38354
-224.19868 992.08496 434.38354
-220.50452 979.6781 466.05371
-214.54491 979.6781 466.05371
-208.58531 979.6781 466.05371
-202.6257 979.6781 466.05371
-196.66609 979.6781 466.05371
-190.70662 979.6781 466.05371
-184.74701 979.6781 466.05371
-178.7874 979.6781 466.05371
-172.8278 979.6781 466.05371
-166.86819 979.6781 466.05371
-160.90871 979.6781 466.05371
-154.94911 979.6781 466.05371
-147.49918 992.08496 434.38354
-141.59918 992.08496 434.38354
-133.07796 1015.804 373.83838
-126.09628 1027.1161 344.96289
-119.22319 1038.4282 316.0874
-112.49387 1049.3755 288.14355
-105.86976 1060.3228 260.19946
-99.382401 1070.905 233.18701
-93.861237 1070.905 233.18701
-88.339973 1070.905 233.18701
-82.818703 1070.905 233.18701
-77.297432 1070.905 233.18701
-71.776169 1070.905 233.18701
-65.644844 1081.4874 206.17432
-60.174423 1081.4874 206.17432
-54.704002 1081.4874 206.17432
-49.233582 1081.4874 206.17432
-43.763157 1081.4874 206.17432
-38.292843 1081.4874 206.17432
-32.822422 1081.4874 206.17432
-27.352001 1081.4874 206.17432
-21.685207 1091.7048 180.09351
-16.26388 1091.7048 180.09351
-10.842655 1091.7048 180.09351
-5.4213276 1091.7048 180.09351
0 1091.7048 180.09351
5.4212241 1091.7048 180.09351
10.842655 1091.7048 180.09351
16.26388 1091.7048 180.09351
21.68531 1091.7048 180.09351
27.106535 1091.7048 180.09351
32.52776 1091.7048 180.09351
37.949188 1091.7048 180.09351
43.370415 1091.7048 180.09351
48.791843 1091.7048 180.09351
54.21307 1091.7048 180.09351
59.634293 1091.7048 180.09351
65.055725 1091.7048 180.09351
70.476952 1091.7048 180.09351
75.898376 1091.7048 180.09351
81.319603 1091.7048 180.09351
87.526314 1081.4874 206.17432
92.996849 1081.4874 206.17432
98.467163 1081.4874 206.17432
104.90378 1070.905 233.18701
110.42493 1070.905 233.18701
115.9461 1070.905 233.18701
121.46747 1070.905 233.18701
126.98864 1070.905 233.18701
132.51001 1070.905 233.18701
138.03117 1070.905 233.18701
143.55234 1070.905 233.18701
149.07372 1070.905 233.18701
154.59486 1070.905 233.18701
161.59081 1060.3228 260.19946
167.16281 1060.3228 260.19946
172.73482 1060.3228 260.19946
178.30704 1060.3228 260.19946
183.87904 1060.3228 260.19946
187.72247 1070.905 233.18701
193.24364 1070.905 233.18701
196.93433 1081.4874 206.17432
202.40485 1081.4874 206.17432
207.87517 1081.4874 206.17432
213.34569 1081.4874 206.17432
218.81601 1081.4874 206.17432
224.28632 1081.4874 206.17432
229.75684 1081.4874 206.17432
235.22717 1081.4874 206.17432
240.69769 1081.4874 206.17432
246.16801 1081.4874 206.17432
251.63832 1081.4874 206.17432
259.49866 1070.905 233.18701
265.01981 1070.905 233.18701
270.54117 1070.905 233.18701
271.06534 1091.7048 180.09351
276.48657 1091.7048 180.09351
-226.464 974.19226 463.7251
-220.50452 974.19226 463.7251
-214.54491 974.19226 463.7251
-208.58531 974.19226 463.7251
-202.6257 974.19226 463.7251
-196.66609 974.19226 463.7251
-190.70662 974.19226 463.7251
-184.74701 974.19226 463.7251
-178.7874 974.19226 463.7251
-172.8278 974.19226 463.7251
-166.86819 974.19226 463.7251
-160.90871 974.19226 463.7251
-154.94911 974.19226 463.7251
-147.49918 986.65405 432.07837
-141.59918 986.65405 432.07837
-133.07796 1010.4779 371.57764
-126.09628 1021.8401 342.72339
-119.22319 1033.2023 313.86914
-112.49387 1044.1979 285.9458
-105.86976 1055.1936 258.02246
-99.382401 1065.8226 231.02979
-93.861237 1065.8226 231.02979
-88.339973 1065.8226 231.02979
-82.818703 1065.8226 231.02979
-77.297432 1065.8226 231.02979
-71.776169 1065.8226 231.02979
-66.255005 1065.8226 231.02979
-60.174423 1076.4519 204.03687
-54.704002 1076.4519 204.03687
-49.233582 1076.4519 204.03687
-43.763157 1076.4519 204.03687
-38.292843 1076.4519 204.03687
-32.822422 1076.4519 204.03687
-27.352001 1076.4519 204.03687
-21.685207 1086.7145 177.97534
-16.26388 1086.7145 177.97534
-10.842655 1086.7145 177.97534
-5.4213276 1086.7145 177.97534
0 1086.7145 177.97534
5.4212241 1086.7145 177.97534
10.940842 1076.4519 204.03687
16.41116 1076.4519 204.03687
21.68531 1086.7145 177.97534
27.106535 1086.7145 177.97534
32.52776 1086.7145 177.97534
37.949188 1086.7145 177.97534
43.370415 1086.7145 177.97534
48.791843 1086.7145 177.97534
54.21307 1086.7145 177.97534
59.634293 1086.7145 177.97534
65.055725 1086.7145 177.97534
70.476952 1086.7145 177.97534
75.898376 1086.7145 177.97534
82.056 1076.4519 204.03687
87.526314 1076.4519 204.03687
92.996849 1076.4519 204.03687
98.467163 1076.4519 204.03687
103.93769 1076.4519 204.03687
109.408 1076.4519 204.03687
115.9461 1065.8226 231.02979
121.46747 1065.8226 231.02979
126.98864 1065.8226 231.02979
132.51001 1065.8226 231.02979
138.03117 1065.8226 231.02979
143.55234 1065.8226 231.02979
149.07372 1065.8226 231.02979
156.01857 1055.1936 258.02246
163.1162 1044.1979 285.9458
168.7408 1044.1979 285.9458
172.73482 1055.1936 258.02246
178.30704 1055.1936 258.02246
183.87904 1055.1936 258.02246
189.45126 1055.1936 258.02246
193.24364 1065.8226 231.02979
198.7648 1065.8226 231.02979
202.40485 1076.4519 204.03687
207.87517 1076.4519 204.03687
213.34569 1076.4519 204.03687
218.81601 1076.4519 204.03687
224.28632 1076.4519 204.03687
229.75684 1076.4519 204.03687
235.22717 1076.4519 204.03687
240.69769 1076.4519 204.03687
246.16801 1076.4519 204.03687
251.63832 1076.4519 204.03687
257.10886 1076.4519 204.03687
265.01981 1065.8226 231.02979
268.04968 1076.4519 204.03687
271.06534 1086.7145 177.97534
276.48657 1086.7145 177.97534
-226.464 968.70642 461.39648
-220.50452 968.70642 461.39648
-214.54491 968.70642 461.39648
-208.58531 968.70642 461.39648
-202.6257 968.70642 461.39648
-196.66609 968.70642 461.39648
-190.70662 968.70642 461.39648
-184.74701 968.70642 461.39648
-178.7874 968.70642 461.39648
-172.8278 968.70642 461.39648
-166.86819 968.70642 461.39648
-160.90871 968.70642 461.39648
-154.94911 968.70642 461.39648
-147.49918 981.22314 429.77295
-141.59918 981.22314 429.77295
-133.07796 1005.1519 369.31689
-126.09628 1016.5641 340.48389
-119.22319 1027.9763 311.65088
-112.49387 1039.0204 283.74805
-105.86976 1050.0645 255.84521
-99.382401 1060.7404 228.87256
-93.861237 1060.7404 228.87256
-88.339973 1060.7404 228.87256
-82.818703 1060.7404 228.87256
-77.297432 1060.7404 228.87256
-71.776169 1060.7404 228.87256
-66.255005 1060.7404 228.87256
-60.733734 1060.7404 228.87256
-54.704002 1071.4164 201.89941
-49.233582 1071.4164 201.89941
-43.763157 1071.4164 201.89941
-38.292843 1071.4164 201.89941
-32.822422 1071.4164 201.89941
-27.352001 1071.4164 201.89941
-21.685207 1081.7241 175.85693
-16.26388 1081.7241 175.85693
-10.940842 1071.4164 201.89941
-5.4704208 1071.4164 201.89941
0 1071.4164 201.89941
5.4703169 1071.4164 201.89941
10.940842 1071.4164 201.89941
16.41116 1071.4164 201.89941
21.68531 1081.7241 175.85693
27.106535 1081.7241 175.85693
32.52776 1081.7241 175.85693
37.949188 1081.7241 175.85693
43.370415 1081.7241 175.85693
48.791843 1081.7241 175.85693
54.21307 1081.7241 175.85693
59.634293 1081.7241 175.85693
65.055725 1081.7241 175.85693
70.476952 1081.7241 175.85693
75.898376 1081.7241 175.85693
82.056 1071.4164 201.89941
87.526314 1071.4164 201.89941
92.996849 1071.4164 201.89941
98.467163 1071.4164 201.89941
103.93769 1071.4164 201.89941
109.408 1071.4164 201.89941
115.9461 1060.7404 228.87256
121.46747 1060.7404 228.87256
126.98864 1060.7404 228.87256
132.51001 1060.7404 228.87256
138.03117 1060.7404 228.87256
143.55234 1060.7404 228.87256
150.44656 1050.0645 255.84521
156.01857 1050.0645 255.84521
163.1162 1039.0204 283.74805
168.7408 1039.0204 283.74805
174.36542 1039.0204 283.74805
179.99023 1039.0204 283.74805
183.87904 1050.0645 255.84521
189.45126 1050.0645 255.84521
193.24364 1060.7404 228.87256
196.93433 1071.4164 201.89941
202.40485 1071.4164 201.89941
207.87517 1071.4164 201.89941
213.34569 1071.4164 201.89941
218.81601 1071.4164 201.89941
224.28632 1071.4164 201.89941
229.75684 1071.4164 201.89941
235.22717 1071.4164 201.89941
240.69769 1071.4164 201.89941
246.16801 1071.4164 201.89941
251.63832 1071.4164 201.89941
257.10886 1071.4164 201.89941
265.01981 1060.7404 228.87256
268.04968 1071.4164 201.89941
273.52002 1071.4164 201.89941
284.17667 1050.0645 255.84521
289.7489 1050.0645 255.84521
-220.50452 963.22058 459.06787
-214.54491 963.22058 459.06787
-208.58531 963.22058 459.06787
-202.6257 963.22058 459.06787
-196.66609 963.22058 459.06787
-190.70662 963.22058 459.06787
-184.74701 963.22058 459.06787
-178.7874 963.22058 459.06787
-172.8278 963.22058 459.06787
-166.86819 963.22058 459.06787
-160.90871 963.22058 459.06787
-154.94911 963.22058 459.06787
-147.49918 975.79211 427.46777
-140.25262 987.62402 397.72656
-133.07796 999.82581 367.05615
-126.09628 1011.2881 338.24438
-119.22319 1022.7504 309.43262
-112.49387 1033.8428 281.55029
-105.86976 1044.9353 253.66797
-99.382401 1055.658 226.71509
-93.861237 1055.658 226.71509
-88.339973 1055.658 226.71509
-82.818703 1055.658 226.71509
-77.297432 1055.658 226.71509
-71.776169 1055.658 226.71509
-66.255005 1055.658 226.71509
-60.733734 1055.658 226.71509
-55.212467 1055.658 226.71509
-49.6912 1055.658 226.71509
-43.763157 1066.3809 199.76196
-38.292843 1066.3809 199.76196
-32.822422 1066.3809 199.76196
-27.352001 1066.3809 199.76196
-21.685207 1076.7338 173.73877
-16.26388 1076.7338 173.73877
-10.842655 1076.7338 173.73877
-5.4704208 1066.3809 199.76196
0 1066.3809 199.76196
5.4703169 1066.3809 199.76196
10.940842 1066.3809 199.76196
16.41116 1066.3809 199.76196
21.68531 1076.7338 173.73877
27.106535 1076.7338 173.73877
32.52776 1076.7338 173.73877
37.949188 1076.7338 173.73877
43.370415 1076.7338 173.73877
48.791843 1076.7338 173.73877
54.21307 1076.7338 173.73877
59.634293 1076.7338 173.73877
65.055725 1076.7338 173.73877
70.476952 1076.7338 173.73877
75.898376 1076.7338 173.73877
82.056 1066.3809 199.76196
87.526314 1066.3809 199.76196
92.996849 1066.3809 199.76196
98.467163 1066.3809 199.76196
103.93769 1066.3809 199.76196
110.42493 1055.658 226.71509
115.9461 1055.658 226.71509
121.46747 1055.658 226.71509
126.98864 1055.658 226.71509
132.51001 1055.658 226.71509
138.03117 1055.658 226.71509
143.55234 1055.658 226.71509
150.44656 1044.9353 253.66797
156.01857 1044.9353 253.66797
163.1162 1033.8428 281.55029
168.7408 1033.8428 281.55029
172.73482 1044.9353 253.66797
178.30704 1044.9353 253.66797
183.87904 1044.9353 253.66797
189.45126 1044.9353 253.66797
193.24364 1055.658 226.71509
196.93433 1066.3809 199.76196
202.40485 1066.3809 199.76196
207.87517 1066.3809 199.76196
213.34569 1066.3809 199.76196
218.81601 1066.3809 199.76196
224.28632 1066.3809 199.76196
229.75684 1066.3809 199.76196
235.22717 1066.3809 199.76196
240.69769 1066.3809 199.76196
246.16801 1066.3809 199.76196
251.63832 1066.3809 199.76196
257.10886 1066.3809 199.76196
262.57916 1066.3809 199.76196
268.04968 1066.3809 199.76196
273.52002 1066.3809 199.76196
284.17667 1044.9353 253.66797
289.7489 1044.9353 253.66797
-220.50452 957.73474 456.73926
-214.54491 957.73474 456.73926
-208.58531 957.73474 456.73926
-202.6257 957.73474 456.73926
-196.66609 957.73474 456.73926
-190.70662 957.73474 456.73926
-184.74701 957.73474 456.73926
-178.7874 957.73474 456.73926
-172.8278 957.73474 456.73926
-166.86819 957.73474 456.73926
-160.90871 957.73474 456.73926
-154.94911 957.73474 456.73926
-147.49918 970.36121 425.16235
-140.25262 982.24475 395.44336
-133.07796 994.49976 364.79517
-126.09628 1006.0121 336.00488
-119.22319 1017.5243 307.21436
-112.49387 1028.6653 279.35254
-105.86976 1039.8062 251.49072
-99.382401 1050.5757 224.55786
-93.861237 1050.5757 224.55786
-88.339973 1050.5757 224.55786
-82.818703 1050.5757 224.55786
-77.297432 1050.5757 224.55786
-71.776169 1050.5757 224.55786
-66.255005 1050.5757 224.55786
-60.733734 1050.5757 224.55786
-55.212467 1050.5757 224.55786
-49.6912 1050.5757 224.55786
-43.763157 1061.3453 197.62451
-38.292843 1061.3453 197.62451
-32.822422 1061.3453 197.62451
-27.352001 1061.3453 197.62451
-21.685207 1071.7434 171.62036
-16.26388 1071.7434 171.62036
-10.842655 1071.7434 171.62036
-5.4704208 1061.3453 197.62451
0 1061.3453 197.62451
5.4703169 1061.3453 197.62451
10.940842 1061.3453 197.62451
16.41116 1061.3453 197.62451
21.68531 1071.7434 171.62036
27.106535 1071.7434 171.62036
32.52776 1071.7434 171.62036
37.949188 1071.7434 171.62036
43.370415 1071.7434 171.62036
48.791843 1071.7434 171.62036
54.21307 1071.7434 171.62036
59.634293 1071.7434 171.62036
65.055725 1071.7434 171.62036
70.476952 1071.7434 171.62036
75.898376 1071.7434 171.62036
82.056 1061.3453 197.62451
87.526314 1061.3453 197.62451
92.996849 1061.3453 197.62451
98.467163 1061.3453 197.62451
103.93769 1061.3453 197.62451
109.408 1061.3453 197.62451
114.87832 1061.3453 197.62451
121.46747 1050.5757 224.55786
126.98864 1050.5757 224.55786
132.51001 1050.5757 224.55786
138.03117 1050.5757 224.55786
143.55234 1050.5757 224.55786
150.44656 1039.8062 251.49072
156.01857 1039.8062 251.49072
161.59081 1039.8062 251.49072
168.7408 1028.6653 279.35254
172.73482 1039.8062 251.49072
178.30704 1039.8062 251.49072
183.87904 1039.8062 251.49072
189.45126 1039.8062 251.49072
193.24364 1050.5757 224.55786
198.7648 1050.5757 224.55786
202.40485 1061.3453 197.62451
207.87517 1061.3453 197.62451
213.34569 1061.3453 197.62451
218.81601 1061.3453 197.62451
224.28632 1061.3453 197.62451
229.75684 1061.3453 197.62451
235.22717 1061.3453 197.62451
240.69769 1061.3453 197.62451
246.16801 1061.3453 197.62451
251.63832 1061.3453 197.62451
257.10886 1061.3453 197.62451
262.57916 1061.3453 197.62451
268.04968 1061.3453 197.62451
276.06235 1050.5757 224.55786
281.58353 1050.5757 224.55786
289.7489 1039.8062 251.49072
-220.50452 952.24902 454.41064
-214.54491 952.24902 454.41064
-208.58531 952.24902 454.41064
-202.6257 952.24902 454.41064
-196.66609 952.24902 454.41064
-190.70662 952.24902 454.41064
-184.74701 952.24902 454.41064
-178.7874 952.24902 454.41064
-172.8278 952.24902 454.41064
-166.86819 952.24902 454.41064
-160.90871 952.24902 454.41064
-154.94911 952.24902 454.41064
-147.49918 964.9303 422.85718
-141.59918 964.9303 422.85718
-134.40874 976.86548 393.15991
-126.09628 1000.7361 333.76514
-119.22319 1012.2983 304.99609
-112.49387 1023.4877 277.15503
-105.86976 1034.677 249.31372
-99.382401 1045.4934 222.40039
-93.861237 1045.4934 222.40039
-88.339973 1045.4934 222.40039
-82.818703 1045.4934 222.40039
-77.297432 1045.4934 222.40039
-71.776169 1045.4934 222.40039
-66.255005 1045.4934 222.40039
-60.733734 1045.4934 222.40039
-55.212467 1045.4934 222.40039
-49.6912 1045.4934 222.40039
-43.763157 1056.3098 195.48706
-38.292843 1056.3098 195.48706
-32.822422 1056.3098 195.48706
-27.352001 1056.3098 195.48706
-21.685207 1066.7532 169.5022
-16.26388 1066.7532 169.5022
-10.940842 1056.3098 195.48706
-5.4704208 1056.3098 195.48706
0 1056.3098 195.48706
5.4703169 1056.3098 195.48706
10.940842 1056.3098 195.48706
16.41116 1056.3098 195.48706
21.881683 1056.3098 195.48706
27.352001 1056.3098 195.48706
32.52776 1066.7532 169.5022
37.949188 1066.7532 169.5022
43.370415 1066.7532 169.5022
48.791843 1066.7532 169.5022
54.21307 1066.7532 169.5022
59.634293 1066.7532 169.5022
65.055725 1066.7532 169.5022
71.115158 1056.3098 195.48706
76.585686 1056.3098 195.48706
82.056 1056.3098 195.48706
87.526314 1056.3098 195.48706
92.996849 1056.3098 195.48706
98.467163 1056.3098 195.48706
103.93769 1056.3098 195.48706
109.408 1056.3098 195.48706
114.87832 1056.3098 195.48706
121.46747 1045.4934 222.40039
126.98864 1045.4934 222.40039
132.51001 1045.4934 222.40039
138.03117 1045.4934 222.40039
143.55234 1045.4934 222.40039
150.44656 1034.677 249.31372
156.01857 1034.677 249.31372
161.59081 1034.677 249.31372
167.16281 1034.677 249.31372
172.73482 1034.677 249.31372
178.30704 1034.677 249.31372
183.87904 1034.677 249.31372
189.45126 1034.677 249.31372
193.24364 1045.4934 222.40039
198.7648 1045.4934 222.40039
202.40485 1056.3098 195.48706
207.87517 1056.3098 195.48706
213.34569 1056.3098 195.48706
218.81601 1056.3098 195.48706
224.28632 1056.3098 195.48706
229.75684 1056.3098 195.48706
235.22717 1056.3098 195.48706
240.69769 1056.3098 195.48706
246.16801 1056.3098 195.48706
251.63832 1056.3098 195.48706
257.10886 1056.3098 195.48706
262.57916 1056.3098 195.48706
268.04968 1056.3098 195.48706
276.06235 1045.4934 222.40039
281.58353 1045.4934 222.40039
289.7489 1034.677 249.31372
298.10873 1023.4877 277.15503
303.73355 1023.4877 277.15503
-216.69099 934.02698 483.61206
-208.58531 946.76318 452.08203
-202.6257 946.76318 452.08203
-196.66609 946.76318 452.08203
-190.70662 946.76318 452.08203
-184.74701 946.76318 452.08203
-178.7874 946.76318 452.08203
-172.8278 946.76318 452.08203
-166.86819 946.76318 452.08203
-160.90871 946.76318 452.08203
-154.94911 946.76318 452.08203
-147.49918 959.49927 420.55176
-141.59918 959.49927 420.55176
-134.40874 971.48621 390.87646
-127.29205 983.84766 360.27368
-120.36461 995.46008 331.52563
-112.49387 1018.3102 274.95728
-105.86976 1029.5479 247.13647
-100.29764 1029.5479 247.13647
-93.861237 1040.411 220.24316
-88.339973 1040.411 220.24316
-82.818703 1040.411 220.24316
-77.297432 1040.411 220.24316
-71.776169 1040.411 220.24316
-66.255005 1040.411 220.24316
-60.733734 1040.411 220.24316
-55.212467 1040.411 220.24316
-49.6912 1040.411 220.24316
-43.763157 1051.2743 193.34961
-38.292843 1051.2743 193.34961
-32.822422 1051.2743 193.34961
-27.352001 1051.2743 193.34961
-21.685207 1061.7628 167.38403
-16.26388 1061.7628 167.38403
-10.940842 1051.2743 193.34961
-5.4704208 1051.2743 193.34961
0 1051.2743 193.34961
5.4703169 1051.2743 193.34961
10.940842 1051.2743 193.34961
16.41116 1051.2743 193.34961
21.881683 1051.2743 193.34961
27.106535 1061.7628 167.38403
32.52776 1061.7628 167.38403
37.949188 1061.7628 167.38403
43.370415 1061.7628 167.38403
48.791843 1061.7628 167.38403
54.21307 1061.7628 167.38403
60.174316 1051.2743 193.34961
65.644844 1051.2743 193.34961
71.115158 1051.2743 193.34961
76.585686 1051.2743 193.34961
82.056 1051.2743 193.34961
87.526314 1051.2743 193.34961
92.996849 1051.2743 193.34961
98.467163 1051.2743 193.34961
103.93769 1051.2743 193.34961
109.408 1051.2743 193.34961
114.87832 1051.2743 193.34961
121.46747 1040.411 220.24316
126.98864 1040.411 220.24316
132.51001 1040.411 220.24316
138.03117 1040.411 220.24316
144.87434 1029.5479 247.13647
150.44656 1029.5479 247.13647
156.01857 1029.5479 247.13647
161.59081 1029.5479 247.13647
167.16281 1029.5479 247.13647
172.73482 1029.5479 247.13647
178.30704 1029.5479 247.13647
183.87904 1029.5479 247.13647
189.45126 1029.5479 247.13647
193.24364 1040.411 220.24316
198.7648 1040.411 220.24316
202.40485 1051.2743 193.34961
207.87517 1051.2743 193.34961
213.34569 1051.2743 193.34961
220.84987 1040.411 220.24316
224.28632 1051.2743 193.34961
229.75684 1051.2743 193.34961
235.22717 1051.2743 193.34961
240.69769 1051.2743 193.34961
246.16801 1051.2743 193.34961
251.63832 1051.2743 193.34961
257.10886 1051.2743 193.34961
262.57916 1051.2743 193.34961
268.04968 1051.2743 193.34961
276.06235 1040.411 220.24316
281.58353 1040.411 220.24316
289.7489 1029.5479 247.13647
295.32092 1029.5479 247.13647
303.73355 1018.3102 274.95728
-214.54491 941.27734 449.75342
-208.58531 941.27734 449.75342
-202.6257 941.27734 449.75342
-196.66609 941.27734 449.75342
-190.70662 941.27734 449.75342
-184.74701 941.27734 449.75342
-178.7874 941.27734 449.75342
-172.8278 941.27734 449.75342
-166.86819 941.27734 449.75342
-160.90871 941.27734 449.75342
-154.94911 941.27734 449.75342
-147.49918 954.06836 418.24658
-141.59918 954.06836 418.24658
-134.40874 966.10681 388.59326
-127.29205 978.52173 358.01294
-120.36461 990.18408 329.28613
-113.54587 1001.8464 300.55933
-106.86916 1013.1326 272.75952
-99.382401 1035.3287 218.08594
-93.861237 1035.3287 218.08594
-88.339973 1035.3287 218.08594
-82.818703 1035.3287 218.08594
-77.297432 1035.3287 218.08594
-71.776169 1035.3287 218.08594
-66.255005 1035.3287 218.08594
-60.733734 1035.3287 218.08594
-55.212467 1035.3287 218.08594
-49.6912 1035.3287 218.08594
-43.763157 1046.2388 191.21216
-38.292843 1046.2388 191.21216
-32.822422 1046.2388 191.21216
-27.352001 1046.2388 191.21216
-21.685207 1056.7725 165.26562
-16.26388 1056.7725 165.26562
-10.940842 1046.2388 191.21216
-5.4704208 1046.2388 191.21216
0 1046.2388 191.21216
5.4703169 1046.2388 191.21216
10.940842 1046.2388 191.21216
16.41116 1046.2388 191.21216
21.881683 1046.2388 191.21216
27.106535 1056.7725 165.26562
32.52776 1056.7725 165.26562
37.949188 1056.7725 165.26562
43.370415 1056.7725 165.26562
48.791843 1056.7725 165.26562
54.704002 1046.2388 191.21216
60.174316 1046.2388 191.21216
65.644844 1046.2388 191.21216
71.115158 1046.2388 191.21216
76.585686 1046.2388 191.21216
82.056 1046.2388 191.21216
87.526314 1046.2388 191.21216
92.996849 1046.2388 191.21216
98.467163 1046.2388 191.21216
103.93769 1046.2388 191.21216
109.408 1046.2388 191.21216
114.87832 1046.2388 191.21216
121.46747 1035.3287 218.08594
126.98864 1035.3287 218.08594
132.51001 1035.3287 218.08594
138.03117 1035.3287 218.08594
143.55234 1035.3287 218.08594
150.44656 1024.4187 244.95923
156.01857 1024.4187 244.95923
161.59081 1024.4187 244.95923
167.16281 1024.4187 244.95923
172.73482 1024.4187 244.95923
178.30704 1024.4187 244.95923
183.87904 1024.4187 244.95923
187.72247 1035.3287 218.08594
193.24364 1035.3287 218.08594
198.7648 1035.3287 218.08594
202.40485 1046.2388 191.21216
207.87517 1046.2388 191.21216
213.34569 1046.2388 191.21216
218.81601 1046.2388 191.21216
224.28632 1046.2388 191.21216
229.75684 1046.2388 191.21216
235.22717 1046.2388 191.21216
240.69769 1046.2388 191.21216
246.16801 1046.2388 191.21216
251.63832 1046.2388 191.21216
257.10886 1046.2388 191.21216
262.57916 1046.2388 191.21216
268.04968 1046.2388 191.21216
276.06235 1035.3287 218.08594
281.58353 1035.3287 218.08594
289.7489 1024.4187 244.95923
295.32092 1024.4187 244.95923
300.89313 1024.4187 244.95923
-214.54491 935.7915 447.4248
-208.58531 935.7915 447.4248
-202.6257 935.7915 447.4248
-196.66609 935.7915 447.4248
-190.70662 935.7915 447.4248
-184.74701 935.7915 447.4248
-178.7874 935.7915 447.4248
-172.8278 935.7915 447.4248
-166.86819 935.7915 447.4248
-160.90871 935.7915 447.4248
-154.94911 935.7915 447.4248
-147.49918 948.63745 415.94116
-140.25262 960.72754 386.30981
-134.40874 960.72754 386.30981
-127.29205 973.19568 355.7522
-120.36461 984.90808 327.04663
-113.54587 996.62048 298.34106
-106.86916 1007.9551 270.56177
-99.382401 1030.2463 215.92847
-93.861237 1030.2463 215.92847
-88.339973 1030.2463 215.92847
-82.818703 1030.2463 215.92847
-77.297432 1030.2463 215.92847
-71.776169 1030.2463 215.92847
-66.255005 1030.2463 215.92847
-60.733734 1030.2463 215.92847
-55.212467 1030.2463 215.92847
-49.6912 1030.2463 215.92847
-44.16993 1030.2463 215.92847
-38.292843 1041.2032 189.07471
-32.822422 1041.2032 189.07471
-27.352001 1041.2032 189.07471
-21.685207 1051.7821 163.14746
-16.26388 1051.7821 163.14746
-10.940842 1041.2032 189.07471
-5.4704208 1041.2032 189.07471
0 1041.2032 189.07471
5.4703169 1041.2032 189.07471
10.940842 1041.2032 189.07471
16.41116 1041.2032 189.07471
21.881683 1041.2032 189.07471
27.352001 1041.2032 189.07471
32.822319 1041.2032 189.07471
38.292843 1041.2032 189.07471
43.370415 1051.7821 163.14746
48.791843 1051.7821 163.14746
54.704002 1041.2032 189.07471
60.174316 1041.2032 189.07471
65.644844 1041.2032 189.07471
71.115158 1041.2032 189.07471
76.585686 1041.2032 189.07471
82.056 1041.2032 189.07471
87.526314 1041.2032 189.07471
92.996849 1041.2032 189.07471
98.467163 1041.2032 189.07471
103.93769 1041.2032 189.07471
109.408 1041.2032 189.07471
114.87832 1041.2032 189.07471
120.34885 1041.2032 189.07471
126.98864 1030.2463 215.92847
132.51001 1030.2463 215.92847
138.03117 1030.2463 215.92847
143.55234 1030.2463 215.92847
150.44656 1019.2897 242.78198
156.01857 1019.2897 242.78198
161.59081 1019.2897 242.78198
167.16281 1019.2897 242.78198
172.73482 1019.2897 242.78198
178.30704 1019.2897 242.78198
183.87904 1019.2897 242.78198
187.72247 1030.2463 215.92847
193.24364 1030.2463 215.92847
198.7648 1030.2463 215.92847
202.40485 1041.2032 189.07471
207.87517 1041.2032 189.07471
215.3287 1030.2463 215.92847
218.81601 1041.2032 189.07471
224.28632 1041.2032 189.07471
229.75684 1041.2032 189.07471
235.22717 1041.2032 189.07471
240.69769 1041.2032 189.07471
246.16801 1041.2032 189.07471
251.63832 1041.2032 189.07471
257.10886 1041.2032 189.07471
262.57916 1041.2032 189.07471
268.04968 1041.2032 189.07471
273.52002 1041.2032 189.07471
281.58353 1030.2463 215.92847
287.10489 1030.2463 215.92847
292.62604 1030.2463 215.92847
300.89313 1019.2897 242.78198
-214.54491 930.30566 445.09619
-208.58531 930.30566 445.09619
-202.6257 930.30566 445.09619
-196.66609 930.30566 445.09619
-190.70662 930.30566 445.09619
-184.74701 930.30566 445.09619
-178.7874 930.30566 445.09619
-172.8278 930.30566 445.09619
-166.86819 930.30566 445.09619
-160.90871 930.30566 445.09619
-154.94911 930.30566 445.09619
-147.49918 943.20642 413.63599
-140.25262 955.34814 384.02637
-133.07796 967.86951 353.49146
-127.29205 967.86951 353.49146
-120.36461 979.63196 324.80713
-113.54587 991.39441 296.1228
-105.86976 1014.1604 240.60474
-100.29764 1014.1604 240.60474
-93.861237 1025.1639 213.77124
-88.339973 1025.1639 213.77124
-82.818703 1025.1639 213.77124
-77.297432 1025.1639 213.77124
-71.776169 1025.1639 213.77124
-66.255005 1025.1639 213.77124
-60.733734 1025.1639 213.77124
-55.212467 1025.1639 213.77124
-49.6912 1025.1639 213.77124
-44.16993 1025.1639 213.77124
-38.648773 1025.1639 213.77124
-32.822422 1036.1676 186.93726
-27.352001 1036.1676 186.93726
-21.685207 1046.7917 161.02905
-16.26388 1046.7917 161.02905
-10.940842 1036.1676 186.93726
-5.4704208 1036.1676 186.93726
0 1036.1676 186.93726
5.4703169 1036.1676 186.93726
10.940842 1036.1676 186.93726
16.41116 1036.1676 186.93726
21.881683 1036.1676 186.93726
27.352001 1036.1676 186.93726
32.822319 1036.1676 186.93726
38.292843 1036.1676 186.93726
43.370415 1046.7917 161.02905
48.791843 1046.7917 161.02905
54.704002 1036.1676 186.93726
60.174316 1036.1676 186.93726
65.644844 1036.1676 186.93726
71.115158 1036.1676 186.93726
76.585686 1036.1676 186.93726
82.056 1036.1676 186.93726
87.526314 1036.1676 186.93726
92.996849 1036.1676 186.93726
98.467163 1036.1676 186.93726
103.93769 1036.1676 186.93726
109.408 1036.1676 186.93726
114.87832 1036.1676 186.93726
120.34885 1036.1676 186.93726
126.98864 1025.1639 213.77124
132.51001 1025.1639 213.77124
138.03117 1025.1639 213.77124
143.55234 1025.1639 213.77124
150.44656 1014.1604 240.60474
156.01857 1014.1604 240.60474
161.59081 1014.1604 240.60474
167.16281 1014.1604 240.60474
172.73482 1014.1604 240.60474
178.30704 1014.1604 240.60474
183.87904 1014.1604 240.60474
187.72247 1025.1639 213.77124
193.24364 1025.1639 213.77124
198.7648 1025.1639 213.77124
204.28618 1025.1639 213.77124
207.87517 1036.1676 186.93726
213.34569 1036.1676 186.93726
218.81601 1036.1676 186.93726
224.28632 1036.1676 186.93726
229.75684 1036.1676 186.93726
235.22717 1036.1676 186.93726
240.69769 1036.1676 186.93726
246.16801 1036.1676 186.93726
251.63832 1036.1676 186.93726
257.10886 1036.1676 186.93726
262.57916 1036.1676 186.93726
268.04968 1036.1676 186.93726
273.52002 1036.1676 186.93726
278.99033 1036.1676 186.93726
287.10489 1025.1639 213.77124
292.62604 1025.1639 213.77124
300.89313 1014.1604 240.60474
-214.54491 924.81982 442.76758
-208.58531 924.81982 442.76758
-202.6257 924.81982 442.76758
-196.66609 924.81982 442.76758
-190.70662 924.81982 442.76758
-184.74701 924.81982 442.76758
-178.7874 924.81982 442.76758
-172.8278 924.81982 442.76758
-166.86819 924.81982 442.76758
-160.90871 924.81982 442.76758
-154.94911 924.81982 442.76758
-147.49918 937.77551 411.33057
-140.25262 949.96887 381.74292
-133.07796 962.54346 351.23071
-127.29205 962.54346 351.23071
-120.36461 974.35596 322.56763
-113.54587 986.16846 293.90454
-105.86976 1009.0312 238.42773
-100.29764 1009.0312 238.42773
-93.861237 1020.0817 211.61377
-88.339973 1020.0817 211.61377
-82.818703 1020.0817 211.61377
-77.297432 1020.0817 211.61377
-71.776169 1020.0817 211.61377
-66.255005 1020.0817 211.61377
-60.733734 1020.0817 211.61377
-55.212467 1020.0817 211.61377
-49.6912 1020.0817 211.61377
-44.16993 1020.0817 211.61377
-38.648773 1020.0817 211.61377
-33.127502 1020.0817 211.61377
-27.606234 1020.0817 211.61377
-21.881578 1031.1321 184.7998
-16.41116 1031.1321 184.7998
-10.940842 1031.1321 184.7998
-5.4704208 1031.1321 184.7998
0 1031.1321 184.7998
5.4703169 1031.1321 184.7998
10.940842 1031.1321 184.7998
16.41116 1031.1321 184.7998
21.881683 1031.1321 184.7998
27.352001 1031.1321 184.7998
32.822319 1031.1321 184.7998
38.292843 1031.1321 184.7998
43.370415 1041.8014 158.91089
48.791843 1041.8014 158.91089
54.704002 1031.1321 184.7998
60.174316 1031.1321 184.7998
65.644844 1031.1321 184.7998
71.115158 1031.1321 184.7998
76.585686 1031.1321 184.7998
82.056 1031.1321 184.7998
87.526314 1031.1321 184.7998
92.996849 1031.1321 184.7998
98.467163 1031.1321 184.7998
103.93769 1031.1321 184.7998
109.408 1031.1321 184.7998
114.87832 1031.1321 184.7998
120.34885 1031.1321 184.7998
125.81916 1031.1321 184.7998
132.51001 1020.0817 211.61377
138.03117 1020.0817 211.61377
143.55234 1020.0817 211.61377
150.44656 1009.0312 238.42773
156.01857 1009.0312 238.42773
161.59081 1009.0312 238.42773
167.16281 1009.0312 238.42773
172.73482 1009.0312 238.42773
178.30704 1009.0312 238.42773
183.87904 1009.0312 238.42773
189.45126 1009.0312 238.42773
193.24364 1020.0817 211.61377
198.7648 1020.0817 211.61377
204.28618 1020.0817 211.61377
207.87517 1031.1321 184.7998
213.34569 1031.1321 184.7998
218.81601 1031.1321 184.7998
224.28632 1031.1321 184.7998
229.75684 1031.1321 184.7998
235.22717 1031.1321 184.7998
240.69769 1031.1321 184.7998
246.16801 1031.1321 184.7998
251.63832 1031.1321 184.7998
257.10886 1031.1321 184.7998
262.57916 1031.1321 184.7998
268.04968 1031.1321 184.7998
273.52002 1031.1321 184.7998
278.99033 1031.1321 184.7998
284.46085 1031.1321 184.7998
292.62604 1020.0817 211.61377
300.89313 1009.0312 238.42773
306.46515 1009.0312 238.42773
-218.29883 932.34448 409.02539
-212.39882 932.34448 409.02539
-208.58531 919.33398 440.43921
-202.6257 919.33398 440.43921
-196.66609 919.33398 440.43921
-190.70662 919.33398 440.43921
-184.74701 919.33398 440.43921
-178.7874 919.33398 440.43921
-172.8278 919.33398 440.43921
-166.86819 919.33398 440.43921
-160.90871 919.33398 440.43921
-154.94911 919.33398 440.43921
-147.49918 932.34448 409.02539
-140.25262 944.5896 379.45972
-133.07796 957.21741 348.96997
-127.29205 957.21741 348.96997
-120.36461 969.07996 320.32812
-113.54587 980.9425 291.68628
-106.86916 992.42236 263.96851
-100.29764 1003.9021 236.25049
-93.861237 1014.9993 209.45654
-88.339973 1014.9993 209.45654
-82.818703 1014.9993 209.45654
-77.297432 1014.9993 209.45654
-71.776169 1014.9993 209.45654
-66.255005 1014.9993 209.45654
-60.733734 1014.9993 209.45654
-55.212467 1014.9993 209.45654
-49.6912 1014.9993 209.45654
-44.16993 1014.9993 209.45654
-38.648773 1014.9993 209.45654
-33.127502 1014.9993 209.45654
-27.606234 1014.9993 209.45654
-21.881578 1026.0966 182.66235
-16.41116 1026.0966 182.66235
-10.940842 1026.0966 182.66235
-5.4704208 1026.0966 182.66235
0 1026.0966 182.66235
5.4703169 1026.0966 182.66235
10.940842 1026.0966 182.66235
16.41116 1026.0966 182.66235
21.881683 1026.0966 182.66235
27.352001 1026.0966 182.66235
32.822319 1026.0966 182.66235
38.292843 1026.0966 182.66235
43.763157 1026.0966 182.66235
49.233688 1026.0966 182.66235
54.704002 1026.0966 182.66235
60.174316 1026.0966 182.66235
65.644844 1026.0966 182.66235
71.115158 1026.0966 182.66235
76.585686 1026.0966 182.66235
82.056 1026.0966 182.66235
87.526314 1026.0966 182.66235
92.996849 1026.0966 182.66235
98.467163 1026.0966 182.66235
103.93769 1026.0966 182.66235
109.408 1026.0966 182.66235
114.87832 1026.0966 182.66235
120.34885 1026.0966 182.66235
125.81916 1026.0966 182.66235
132.51001 1014.9993 209.45654
138.03117 1014.9993 209.45654
143.55234 1014.9993 209.45654
150.44656 1003.9021 236.25049
156.01857 1003.9021 236.25049
161.59081 1003.9021 236.25049
167.16281 1003.9021 236.25049
174.36542 992.42236 263.96851
179.99023 992.42236 263.96851
183.87904 1003.9021 236.25049
189.45126 1003.9021 236.25049
195.02327 1003.9021 236.25049
198.7648 1014.9993 209.45654
204.28618 1014.9993 209.45654
207.87517 1026.0966 182.66235
213.34569 1026.0966 182.66235
218.81601 1026.0966 182.66235
224.28632 1026.0966 182.66235
229.75684 1026.0966 182.66235
235.22717 1026.0966 182.66235
240.69769 1026.0966 182.66235
246.16801 1026.0966 182.66235
251.63832 1026.0966 182.66235
257.10886 1026.0966 182.66235
262.57916 1026.0966 182.66235
268.04968 1026.0966 182.66235
273.52002 1026.0966 182.66235
278.99033 1026.0966 182.66235
284.46085 1026.0966 182.66235
289.93118 1026.0966 182.66235
295.40167 1026.0966 182.66235
298.17188 1036.811 156.79248
303.59311 1036.811 156.79248
-218.29883 926.91357 406.71997
-212.39882 926.91357 406.71997
-208.58531 913.84814 438.1106
-202.6257 913.84814 438.1106
-196.66609 913.84814 438.1106
-190.70662 913.84814 438.1106
-184.74701 913.84814 438.1106
-178.7874 913.84814 438.1106
-172.8278 913.84814 438.1106
-166.86819 913.84814 438.1106
-160.90871 913.84814 438.1106
-154.94911 913.84814 438.1106
-147.49918 926.91357 406.71997
-138.86398 951.89148 346.70898
-133.07796 951.89148 346.70898
-127.29205 951.89148 346.70898
-120.36461 963.80396 318.08838
-113.54587 975.71655 289.46802
-106.86916 987.24475 261.77075
-101.24444 987.24475 261.77075
-94.725632 998.77295 234.07324
-88.339973 1009.917 207.29932
-82.818703 1009.917 207.29932
-77.297432 1009.917 207.29932
-71.776169 1009.917 207.29932
-66.255005 1009.917 207.29932
-60.733734 1009.917 207.29932
-55.212467 1009.917 207.29932
-49.6912 1009.917 207.29932
-44.16993 1009.917 207.29932
-38.648773 1009.917 207.29932
-33.127502 1009.917 207.29932
-27.606234 1009.917 207.29932
-21.881578 1021.061 180.5249
-16.41116 1021.061 180.5249
-10.940842 1021.061 180.5249
-5.4704208 1021.061 180.5249
0 1021.061 180.5249
5.4703169 1021.061 180.5249
