ply
format ascii 1.0
comment PCL generated
element vertex 1582
property float x
property float y
property float z
element camera 0
property float view_px
property float view_py
property float view_pz
property float x_axisx
property float x_axisy
property float x_axisz
property float y_axisx
property float y_axisy
property float y_axisz
property float z_axisx
property float z_axisy
property float z_axisz
property float focal
property float scalex
property float scaley
property float centerx
property float centery
property int viewportx
property int viewporty
property float k1
property float k2
end_header
56.567715 1334.3403 110.35474
61.710361 1334.3403 110.35474
67.422646 1326.7911 134.30957
73.247337 1318.9402 159.22217
78.479202 1318.9402 159.22217
83.711067 1318.9402 159.22217
88.943138 1318.9402 159.22217
94.99556 1311.0891 184.13501
100.27322 1311.0891 184.13501
105.55067 1311.0891 184.13501
110.82812 1311.0891 184.13501
116.10578 1311.0891 184.13501
122.47205 1302.936 210.00586
127.79705 1302.936 210.00586
133.12184 1302.936 210.00586
138.44662 1302.936 210.00586
143.77162 1302.936 210.00586
149.09642 1302.936 210.00586
154.42142 1302.936 210.00586
-111.82236 1298.0345 207.92529
-105.55067 1306.2311 182.073
-100.27312 1306.2311 182.073
-94.99556 1306.2311 182.073
-89.718109 1306.2311 182.073
-84.440552 1306.2311 182.073
-79.163002 1306.2311 182.073
-73.885452 1306.2311 182.073
-68.607895 1306.2311 182.073
-63.330441 1306.2311 182.073
-57.551434 1314.1241 157.17798
-52.319469 1314.1241 157.17798
-47.087502 1314.1241 157.17798
-41.855534 1314.1241 157.17798
-36.304562 1322.0171 132.28296
-31.118181 1322.0171 132.28296
-25.712635 1329.6066 108.34546
-20.570087 1329.6066 108.34546
-15.296041 1337.196 84.407959
-10.197426 1337.196 84.407959
-5.0987129 1337.196 84.407959
0 1337.196 84.407959
5.0547829 1344.7855 60.470459
10.109758 1344.7855 60.470459
15.164542 1344.7855 60.470459
20.219517 1344.7855 60.470459
25.274302 1344.7855 60.470459
30.329084 1344.7855 60.470459
35.38406 1344.7855 60.470459
40.789509 1337.196 84.407959
45.888317 1337.196 84.407959
50.986935 1337.196 84.407959
56.567715 1329.6066 108.34546
62.236362 1322.0171 132.28296
68.015266 1314.1241 157.17798
73.247337 1314.1241 157.17798
78.479202 1314.1241 157.17798
83.711067 1314.1241 157.17798
88.943138 1314.1241 157.17798
94.99556 1306.2311 182.073
100.27322 1306.2311 182.073
105.55067 1306.2311 182.073
110.82812 1306.2311 182.073
116.10578 1306.2311 182.073
122.47205 1298.0345 207.92529
127.79705 1298.0345 207.92529
133.12184 1298.0345 207.92529
138.44662 1298.0345 207.92529
143.77162 1298.0345 207.92529
150.42194 1289.8379 233.77783
155.79427 1289.8379 233.77783
161.16641 1289.8379 233.77783
-126.66079 1301.373 180.01074
-121.38322 1301.373 180.01074
-116.10578 1301.373 180.01074
-110.82822 1301.373 180.01074
-105.55067 1301.373 180.01074
-100.27312 1301.373 180.01074
-94.99556 1301.373 180.01074
-89.718109 1301.373 180.01074
-84.440552 1301.373 180.01074
-79.163002 1301.373 180.01074
-73.885452 1301.373 180.01074
-68.607895 1301.373 180.01074
-63.330441 1301.373 180.01074
-57.551434 1309.3081 155.13379
-52.319469 1309.3081 155.13379
-47.087502 1309.3081 155.13379
-41.855534 1309.3081 155.13379
-36.304562 1317.243 130.25659
-31.118181 1317.243 130.25659
-25.712635 1324.8728 106.33618
-20.570087 1324.8728 106.33618
-15.427542 1324.8728 106.33618
-10.197426 1332.5027 82.415771
-5.0987129 1332.5027 82.415771
0 1332.5027 82.415771
5.0986156 1332.5027 82.415771
10.109758 1340.1326 58.495361
15.164542 1340.1326 58.495361
20.219517 1340.1326 58.495361
25.274302 1340.1326 58.495361
30.329084 1340.1326 58.495361
35.38406 1340.1326 58.495361
40.789509 1332.5027 82.415771
45.888317 1332.5027 82.415771
50.986935 1332.5027 82.415771
56.567715 1324.8728 106.33618
62.236362 1317.243 130.25659
68.015266 1309.3081 155.13379
73.247337 1309.3081 155.13379
78.479202 1309.3081 155.13379
83.711067 1309.3081 155.13379
89.718109 1301.373 180.01074
94.99556 1301.373 180.01074
100.27322 1301.373 180.01074
105.55067 1301.373 180.01074
110.82812 1301.373 180.01074
116.10578 1301.373 180.01074
122.47205 1293.1329 205.84473
127.79705 1293.1329 205.84473
133.12184 1293.1329 205.84473
138.44662 1293.1329 205.84473
143.77162 1293.1329 205.84473
150.42194 1284.8927 231.67896
155.79427 1284.8927 231.67896
161.16641 1284.8927 231.67896
166.53854 1284.8927 231.67896
171.91087 1284.8927 231.67896
177.283 1284.8927 231.67896
-146.49446 1304.4919 153.08936
-141.2626 1304.4919 153.08936
-136.03064 1304.4919 153.08936
-131.93834 1296.515 177.94873
-126.66079 1296.515 177.94873
-121.38322 1296.515 177.94873
-116.10578 1296.515 177.94873
-110.82822 1296.515 177.94873
-105.55067 1296.515 177.94873
-100.27312 1296.515 177.94873
-94.99556 1296.515 177.94873
-89.718109 1296.515 177.94873
-84.440552 1296.515 177.94873
-79.163002 1296.515 177.94873
-73.885452 1296.515 177.94873
-68.607895 1296.515 177.94873
-63.330441 1296.515 177.94873
-57.551434 1304.4919 153.08936
-52.319469 1304.4919 153.08936
-47.087502 1304.4919 153.08936
-41.855534 1304.4919 153.08936
-36.304562 1312.4689 128.22998
-31.118181 1312.4689 128.22998
-25.712635 1320.139 104.32666
-20.570087 1320.139 104.32666
-15.427542 1320.139 104.32666
-10.285093 1320.139 104.32666
-5.1425467 1320.139 104.32666
0 1327.8092 80.42334
5.0986156 1327.8092 80.42334
10.197426 1327.8092 80.42334
15.296041 1327.8092 80.42334
20.219517 1335.4794 56.520264
25.274302 1335.4794 56.520264
30.329084 1335.4794 56.520264
35.38406 1335.4794 56.520264
40.789509 1327.8092 80.42334
45.888317 1327.8092 80.42334
51.42527 1320.139 104.32666
57.049881 1312.4689 128.22998
62.236362 1312.4689 128.22998
68.015266 1304.4919 153.08936
73.247337 1304.4919 153.08936
78.479202 1304.4919 153.08936
83.711067 1304.4919 153.08936
88.943138 1304.4919 153.08936
94.99556 1296.515 177.94873
100.27322 1296.515 177.94873
105.55067 1296.515 177.94873
110.82812 1296.515 177.94873
116.10578 1296.515 177.94873
121.38322 1296.515 177.94873
127.79705 1288.2313 203.76416
133.12184 1288.2313 203.76416
138.44662 1288.2313 203.76416
143.77162 1288.2313 203.76416
149.09642 1288.2313 203.76416
154.42142 1288.2313 203.76416
159.7462 1288.2313 203.76416
165.071 1288.2313 203.76416
170.396 1288.2313 203.76416
175.72078 1288.2313 203.76416
181.04578 1288.2313 203.76416
184.71367 1296.515 177.94873
189.99112 1296.515 177.94873
-155.59081 1307.6948 126.20361
-150.40443 1307.6948 126.20361
-146.49446 1299.676 151.04517
-141.2626 1299.676 151.04517
-136.03064 1299.676 151.04517
-131.93834 1291.657 175.88672
-126.66079 1291.657 175.88672
-121.38322 1291.657 175.88672
-116.10578 1291.657 175.88672
-110.82822 1291.657 175.88672
-105.55067 1291.657 175.88672
-100.27312 1291.657 175.88672
-94.99556 1291.657 175.88672
-89.718109 1291.657 175.88672
-84.440552 1291.657 175.88672
-79.163002 1291.657 175.88672
-73.885452 1291.657 175.88672
-68.607895 1291.657 175.88672
-63.330441 1291.657 175.88672
-57.551434 1299.676 151.04517
-52.319469 1299.676 151.04517
-47.087502 1299.676 151.04517
-41.490841 1307.6948 126.20361
-36.304562 1307.6948 126.20361
-31.118181 1307.6948 126.20361
-25.712635 1315.4053 102.31738
-20.570087 1315.4053 102.31738
-15.559041 1307.6948 126.20361
-10.37276 1307.6948 126.20361
-5.1863799 1307.6948 126.20361
0 1315.4053 102.31738
5.1424484 1315.4053 102.31738
10.197426 1323.1158 78.431152
15.296041 1323.1158 78.431152
20.394852 1323.1158 78.431152
25.274302 1330.8264 54.545166
30.329084 1330.8264 54.545166
35.690891 1323.1158 78.431152
41.140175 1315.4053 102.31738
46.282822 1315.4053 102.31738
51.863602 1307.6948 126.20361
57.049881 1307.6948 126.20361
62.236362 1307.6948 126.20361
68.015266 1299.676 151.04517
73.247337 1299.676 151.04517
78.479202 1299.676 151.04517
83.711067 1299.676 151.04517
88.943138 1299.676 151.04517
94.99556 1291.657 175.88672
100.27322 1291.657 175.88672
105.55067 1291.657 175.88672
110.82812 1291.657 175.88672
116.10578 1291.657 175.88672
121.38322 1291.657 175.88672
126.66088 1291.657 175.88672
131.93834 1291.657 175.88672
138.44662 1283.3297 201.68359
143.77162 1283.3297 201.68359
149.09642 1283.3297 201.68359
154.42142 1283.3297 201.68359
159.7462 1283.3297 201.68359
165.071 1283.3297 201.68359
170.396 1283.3297 201.68359
175.72078 1283.3297 201.68359
181.04578 1283.3297 201.68359
184.71367 1291.657 175.88672
189.99112 1291.657 175.88672
197.02036 1283.3297 201.68359
218.81601 1257.731 280.98535
224.28632 1257.731 280.98535
-154.2758 1310.6716 100.30811
-149.13327 1310.6716 100.30811
-145.21805 1302.9207 124.177
-141.2626 1294.86 149.00073
-136.03064 1294.86 149.00073
-131.93834 1286.7991 173.82446
-126.66079 1286.7991 173.82446
-121.38322 1286.7991 173.82446
-116.10578 1286.7991 173.82446
-110.82822 1286.7991 173.82446
-105.55067 1286.7991 173.82446
-100.27312 1286.7991 173.82446
-94.99556 1286.7991 173.82446
-89.718109 1286.7991 173.82446
-84.440552 1286.7991 173.82446
-79.163002 1286.7991 173.82446
-73.885452 1286.7991 173.82446
-68.607895 1286.7991 173.82446
-63.330441 1286.7991 173.82446
-57.551434 1294.86 149.00073
-52.319469 1294.86 149.00073
-46.677223 1302.9207 124.177
-41.490841 1302.9207 124.177
-36.304562 1302.9207 124.177
-31.118181 1302.9207 124.177
-25.712635 1310.6716 100.30811
-20.570087 1310.6716 100.30811
-15.559041 1302.9207 124.177
-10.37276 1302.9207 124.177
-5.1863799 1302.9207 124.177
0 1302.9207 124.177
5.1862807 1302.9207 124.177
10.285093 1310.6716 100.30811
15.427542 1310.6716 100.30811
20.570187 1310.6716 100.30811
25.493467 1318.4225 76.438965
30.592083 1318.4225 76.438965
35.997726 1310.6716 100.30811
41.490841 1302.9207 124.177
46.677322 1302.9207 124.177
51.863602 1302.9207 124.177
57.049881 1302.9207 124.177
62.236362 1302.9207 124.177
68.015266 1294.86 149.00073
73.247337 1294.86 149.00073
78.479202 1294.86 149.00073
83.711067 1294.86 149.00073
88.943138 1294.86 149.00073
94.99556 1286.7991 173.82446
100.27322 1286.7991 173.82446
105.55067 1286.7991 173.82446
110.82812 1286.7991 173.82446
116.10578 1286.7991 173.82446
121.38322 1286.7991 173.82446
126.66088 1286.7991 173.82446
131.93834 1286.7991 173.82446
138.44662 1278.4282 199.60303
143.77162 1278.4282 199.60303
149.09642 1278.4282 199.60303
154.42142 1278.4282 199.60303
159.7462 1278.4282 199.60303
165.071 1278.4282 199.60303
170.396 1278.4282 199.60303
175.72078 1278.4282 199.60303
181.04578 1278.4282 199.60303
186.37057 1278.4282 199.60303
191.69536 1278.4282 199.60303
197.02036 1278.4282 199.60303
202.34515 1278.4282 199.60303
211.43105 1261.3763 252.11475
216.85228 1261.3763 252.11475
224.28632 1252.6954 278.8479
229.75684 1252.6954 278.8479
235.22717 1252.6954 278.8479
-169.70334 1305.938 98.298828
-154.2758 1305.938 98.298828
-149.13327 1305.938 98.298828
-145.21805 1298.1467 122.15063
-141.2626 1290.0439 146.95654
-136.03064 1290.0439 146.95654
-131.93834 1281.941 171.76245
-126.66079 1281.941 171.76245
-121.38322 1281.941 171.76245
-116.10578 1281.941 171.76245
-110.82822 1281.941 171.76245
-105.55067 1281.941 171.76245
-100.27312 1281.941 171.76245
-94.99556 1281.941 171.76245
-89.718109 1281.941 171.76245
-84.440552 1281.941 171.76245
-79.163002 1281.941 171.76245
-73.885452 1281.941 171.76245
-68.607895 1281.941 171.76245
-62.783401 1290.0439 146.95654
-57.551434 1290.0439 146.95654
-51.863602 1298.1467 122.15063
-46.677223 1298.1467 122.15063
-41.490841 1298.1467 122.15063
-36.304562 1298.1467 122.15063
-31.118181 1298.1467 122.15063
-25.712635 1305.938 98.298828
-20.570087 1305.938 98.298828
-15.559041 1298.1467 122.15063
-10.37276 1298.1467 122.15063
-5.2319665 1290.0439 146.95654
0 1298.1467 122.15063
5.1862807 1298.1467 122.15063
10.37276 1298.1467 122.15063
15.559041 1298.1467 122.15063
20.74552 1298.1467 122.15063
25.712635 1305.938 98.298828
30.855083 1305.938 98.298828
36.304562 1298.1467 122.15063
41.855534 1290.0439 146.95654
47.087601 1290.0439 146.95654
51.863602 1298.1467 122.15063
57.049881 1298.1467 122.15063
62.236362 1298.1467 122.15063
68.015266 1290.0439 146.95654
73.247337 1290.0439 146.95654
78.479202 1290.0439 146.95654
83.711067 1290.0439 146.95654
88.943138 1290.0439 146.95654
94.99556 1281.941 171.76245
100.27322 1281.941 171.76245
105.55067 1281.941 171.76245
110.82812 1281.941 171.76245
116.10578 1281.941 171.76245
121.38322 1281.941 171.76245
126.66088 1281.941 171.76245
131.93834 1281.941 171.76245
137.21579 1281.941 171.76245
142.49345 1281.941 171.76245
149.09642 1273.5266 197.52246
154.42142 1273.5266 197.52246
159.7462 1273.5266 197.52246
165.071 1273.5266 197.52246
170.396 1273.5266 197.52246
175.72078 1273.5266 197.52246
181.04578 1273.5266 197.52246
186.37057 1273.5266 197.52246
191.69536 1273.5266 197.52246
197.02036 1273.5266 197.52246
202.34515 1273.5266 197.52246
211.43105 1256.386 249.99658
216.85228 1256.386 249.99658
222.2735 1256.386 249.99658
227.69493 1256.386 249.99658
233.11615 1256.386 249.99658
-176.33623 1293.3726 120.12427
-169.70334 1301.2041 96.289307
-164.5609 1301.2041 96.289307
-159.41835 1301.2041 96.289307
-154.2758 1301.2041 96.289307
-150.40443 1293.3726 120.12427
-146.49446 1285.2279 144.91235
-141.2626 1285.2279 144.91235
-137.21588 1277.083 169.70044
-131.93834 1277.083 169.70044
-126.66079 1277.083 169.70044
-121.38322 1277.083 169.70044
-116.10578 1277.083 169.70044
-110.82822 1277.083 169.70044
-105.55067 1277.083 169.70044
-100.27312 1277.083 169.70044
-94.99556 1277.083 169.70044
-89.718109 1277.083 169.70044
-84.440552 1277.083 169.70044
-79.163002 1277.083 169.70044
-73.885452 1277.083 169.70044
-68.607895 1277.083 169.70044
-62.783401 1285.2279 144.91235
-57.551434 1285.2279 144.91235
-51.863602 1293.3726 120.12427
-46.677223 1293.3726 120.12427
-41.490841 1293.3726 120.12427
-36.304562 1293.3726 120.12427
-31.118181 1293.3726 120.12427
-25.712635 1301.2041 96.289307
-20.570087 1301.2041 96.289307
-15.559041 1293.3726 120.12427
-10.463933 1285.2279 144.91235
-5.2319665 1285.2279 144.91235
0 1285.2279 144.91235
5.1862807 1293.3726 120.12427
10.37276 1293.3726 120.12427
15.559041 1293.3726 120.12427
20.74552 1293.3726 120.12427
25.931801 1293.3726 120.12427
31.118082 1293.3726 120.12427
36.304562 1293.3726 120.12427
41.855534 1285.2279 144.91235
47.087601 1285.2279 144.91235
51.863602 1293.3726 120.12427
57.049881 1293.3726 120.12427
62.236362 1293.3726 120.12427
68.015266 1285.2279 144.91235
73.247337 1285.2279 144.91235
78.479202 1285.2279 144.91235
83.711067 1285.2279 144.91235
88.943138 1285.2279 144.91235
94.99556 1277.083 169.70044
100.27322 1277.083 169.70044
105.55067 1277.083 169.70044
110.82812 1277.083 169.70044
116.10578 1277.083 169.70044
121.38322 1277.083 169.70044
126.66088 1277.083 169.70044
131.93834 1277.083 169.70044
137.21579 1277.083 169.70044
142.49345 1277.083 169.70044
147.7709 1277.083 169.70044
153.04855 1277.083 169.70044
158.326 1277.083 169.70044
165.071 1268.625 195.44165
170.396 1268.625 195.44165
175.72078 1268.625 195.44165
181.04578 1268.625 195.44165
186.37057 1268.625 195.44165
191.69536 1268.625 195.44165
197.02036 1268.625 195.44165
202.34515 1268.625 195.44165
209.5164 1260.167 221.18335
214.88853 1260.167 221.18335
220.26068 1260.167 221.18335
227.69493 1251.3956 247.87817
233.11615 1251.3956 247.87817
-188.35011 1280.4119 142.86792
-183.11813 1280.4119 142.86792
-176.33623 1288.5986 118.09766
-171.14984 1288.5986 118.09766
-165.96358 1288.5986 118.09766
-160.77718 1288.5986 118.09766
-156.9584 1280.4119 142.86792
-151.72644 1280.4119 142.86792
-146.49446 1280.4119 142.86792
-141.2626 1280.4119 142.86792
-137.21588 1272.2251 167.63818
-131.93834 1272.2251 167.63818
-126.66079 1272.2251 167.63818
-121.38322 1272.2251 167.63818
-116.10578 1272.2251 167.63818
-110.82822 1272.2251 167.63818
-105.55067 1272.2251 167.63818
-100.27312 1272.2251 167.63818
-94.99556 1272.2251 167.63818
-89.718109 1272.2251 167.63818
-84.440552 1272.2251 167.63818
-79.163002 1272.2251 167.63818
-73.885452 1272.2251 167.63818
-68.607895 1272.2251 167.63818
-63.330441 1272.2251 167.63818
-57.551434 1280.4119 142.86792
-51.863602 1288.5986 118.09766
-46.677223 1288.5986 118.09766
-41.490841 1288.5986 118.09766
-36.304562 1288.5986 118.09766
-31.118181 1288.5986 118.09766
-25.712635 1296.4705 94.280029
-20.570087 1296.4705 94.280029
-15.559041 1288.5986 118.09766
-10.463933 1280.4119 142.86792
-5.2319665 1280.4119 142.86792
0 1280.4119 142.86792
5.2318668 1280.4119 142.86792
10.463933 1280.4119 142.86792
15.695801 1280.4119 142.86792
20.927866 1280.4119 142.86792
25.931801 1288.5986 118.09766
31.118082 1288.5986 118.09766
36.623669 1280.4119 142.86792
41.855534 1280.4119 142.86792
47.087601 1280.4119 142.86792
52.319469 1280.4119 142.86792
57.049881 1288.5986 118.09766
62.236362 1288.5986 118.09766
68.015266 1280.4119 142.86792
73.247337 1280.4119 142.86792
78.479202 1280.4119 142.86792
83.711067 1280.4119 142.86792
88.943138 1280.4119 142.86792
94.99556 1272.2251 167.63818
100.27322 1272.2251 167.63818
105.55067 1272.2251 167.63818
110.82812 1272.2251 167.63818
116.10578 1272.2251 167.63818
121.38322 1272.2251 167.63818
126.66088 1272.2251 167.63818
131.93834 1272.2251 167.63818
137.21579 1272.2251 167.63818
142.49345 1272.2251 167.63818
147.7709 1272.2251 167.63818
153.04855 1272.2251 167.63818
158.326 1272.2251 167.63818
163.60345 1272.2251 167.63818
170.396 1263.7234 193.36108
175.72078 1263.7234 193.36108
181.04578 1263.7234 193.36108
186.37057 1263.7234 193.36108
191.69536 1263.7234 193.36108
197.02036 1263.7234 193.36108
202.34515 1263.7234 193.36108
209.5164 1255.2218 219.08423
214.88853 1255.2218 219.08423
220.26068 1255.2218 219.08423
227.69493 1246.4053 245.76001
233.11615 1246.4053 245.76001
238.53758 1246.4053 245.76001
-188.35011 1275.5958 140.82373
-183.11813 1275.5958 140.82373
-176.33623 1283.8245 116.07129
-171.14984 1283.8245 116.07129
-167.42235 1275.5958 140.82373
-162.19038 1275.5958 140.82373
-156.9584 1275.5958 140.82373
-151.72644 1275.5958 140.82373
-146.49446 1275.5958 140.82373
-141.2626 1275.5958 140.82373
-137.21588 1267.3671 165.57617
-131.93834 1267.3671 165.57617
-126.66079 1267.3671 165.57617
-121.38322 1267.3671 165.57617
-116.10578 1267.3671 165.57617
-110.82822 1267.3671 165.57617
-105.55067 1267.3671 165.57617
-100.27312 1267.3671 165.57617
-94.99556 1267.3671 165.57617
-89.718109 1267.3671 165.57617
-84.440552 1267.3671 165.57617
-79.163002 1267.3671 165.57617
-73.247231 1275.5958 140.82373
-68.015266 1275.5958 140.82373
-62.783401 1275.5958 140.82373
-57.551434 1275.5958 140.82373
-52.319469 1275.5958 140.82373
-46.677223 1283.8245 116.07129
-41.490841 1283.8245 116.07129
-36.304562 1283.8245 116.07129
-31.118181 1283.8245 116.07129
-25.712635 1291.7368 92.270752
-20.570087 1291.7368 92.270752
-15.559041 1283.8245 116.07129
-10.37276 1283.8245 116.07129
-5.2319665 1275.5958 140.82373
0 1275.5958 140.82373
5.2318668 1275.5958 140.82373
10.463933 1275.5958 140.82373
15.695801 1275.5958 140.82373
20.927866 1275.5958 140.82373
26.159735 1275.5958 140.82373
31.391602 1275.5958 140.82373
36.623669 1275.5958 140.82373
41.855534 1275.5958 140.82373
47.087601 1275.5958 140.82373
52.319469 1275.5958 140.82373
57.049881 1283.8245 116.07129
62.236362 1283.8245 116.07129
68.015266 1275.5958 140.82373
73.247337 1275.5958 140.82373
78.479202 1275.5958 140.82373
83.711067 1275.5958 140.82373
88.943138 1275.5958 140.82373
94.99556 1267.3671 165.57617
100.27322 1267.3671 165.57617
105.55067 1267.3671 165.57617
110.82812 1267.3671 165.57617
116.10578 1267.3671 165.57617
121.38322 1267.3671 165.57617
126.66088 1267.3671 165.57617
131.93834 1267.3671 165.57617
137.21579 1267.3671 165.57617
142.49345 1267.3671 165.57617
147.7709 1267.3671 165.57617
153.04855 1267.3671 165.57617
158.326 1267.3671 165.57617
163.60345 1267.3671 165.57617
168.8811 1267.3671 165.57617
174.15857 1267.3671 165.57617
179.43622 1267.3671 165.57617
184.71367 1267.3671 165.57617
189.99112 1267.3671 165.57617
197.02036 1258.8219 191.28052
202.34515 1258.8219 191.28052
209.5164 1250.2766 216.98511
214.88853 1250.2766 216.98511
220.26068 1250.2766 216.98511
227.69493 1241.415 243.64185
233.11615 1241.415 243.64185
238.53758 1241.415 243.64185
243.9588 1241.415 243.64185
-193.58208 1270.7798 138.7793
-188.35011 1270.7798 138.7793
-183.11813 1270.7798 138.7793
-177.88617 1270.7798 138.7793
-172.65421 1270.7798 138.7793
-167.42235 1270.7798 138.7793
-162.19038 1270.7798 138.7793
-156.9584 1270.7798 138.7793
-151.72644 1270.7798 138.7793
-146.49446 1270.7798 138.7793
-141.2626 1270.7798 138.7793
-137.21588 1262.509 163.51416
-131.93834 1262.509 163.51416
-126.66079 1262.509 163.51416
-121.38322 1262.509 163.51416
-116.10578 1262.509 163.51416
-110.82822 1262.509 163.51416
-105.55067 1262.509 163.51416
-100.27312 1262.509 163.51416
-94.99556 1262.509 163.51416
-89.718109 1262.509 163.51416
-84.440552 1262.509 163.51416
-79.163002 1262.509 163.51416
-73.247231 1270.7798 138.7793
-68.015266 1270.7798 138.7793
-62.783401 1270.7798 138.7793
-57.551434 1270.7798 138.7793
-52.319469 1270.7798 138.7793
-46.677223 1279.0504 114.04468
-41.490841 1279.0504 114.04468
-36.304562 1279.0504 114.04468
-31.118181 1279.0504 114.04468
-25.712635 1287.0031 90.26123
-20.570087 1287.0031 90.26123
-15.559041 1279.0504 114.04468
-10.37276 1279.0504 114.04468
-5.1863799 1279.0504 114.04468
0 1279.0504 114.04468
5.2318668 1270.7798 138.7793
10.463933 1270.7798 138.7793
15.695801 1270.7798 138.7793
20.927866 1270.7798 138.7793
26.159735 1270.7798 138.7793
31.391602 1270.7798 138.7793
36.623669 1270.7798 138.7793
41.855534 1270.7798 138.7793
47.087601 1270.7798 138.7793
51.863602 1279.0504 114.04468
57.049881 1279.0504 114.04468
62.236362 1279.0504 114.04468
67.422646 1279.0504 114.04468
73.247337 1270.7798 138.7793
78.479202 1270.7798 138.7793
83.711067 1270.7798 138.7793
88.943138 1270.7798 138.7793
94.99556 1262.509 163.51416
100.27322 1262.509 163.51416
105.55067 1262.509 163.51416
110.82812 1262.509 163.51416
116.10578 1262.509 163.51416
121.38322 1262.509 163.51416
126.66088 1262.509 163.51416
131.93834 1262.509 163.51416
137.21579 1262.509 163.51416
142.49345 1262.509 163.51416
147.7709 1262.509 163.51416
153.04855 1262.509 163.51416
158.326 1262.509 163.51416
163.60345 1262.509 163.51416
168.8811 1262.509 163.51416
174.15857 1262.509 163.51416
179.43622 1262.509 163.51416
184.71367 1262.509 163.51416
189.99112 1262.509 163.51416
197.02036 1253.9204 189.19995
202.34515 1253.9204 189.19995
209.5164 1245.3315 214.88599
214.88853 1245.3315 214.88599
222.2735 1236.4246 241.52344
227.69493 1236.4246 241.52344
233.11615 1236.4246 241.52344
238.53758 1236.4246 241.52344
243.9588 1236.4246 241.52344
-198.81393 1265.9637 136.73511
-193.58208 1265.9637 136.73511
-188.35011 1265.9637 136.73511
-183.11813 1265.9637 136.73511
-177.88617 1265.9637 136.73511
-172.65421 1265.9637 136.73511
-167.42235 1265.9637 136.73511
-162.19038 1265.9637 136.73511
-156.9584 1265.9637 136.73511
-151.72644 1265.9637 136.73511
-146.49446 1265.9637 136.73511
-141.2626 1265.9637 136.73511
-136.03064 1265.9637 136.73511
-131.93834 1257.6511 161.4519
-126.66079 1257.6511 161.4519
-121.38322 1257.6511 161.4519
-116.10578 1257.6511 161.4519
-110.82822 1257.6511 161.4519
-105.55067 1257.6511 161.4519
-100.27312 1257.6511 161.4519
-94.175003 1265.9637 136.73511
-88.943138 1265.9637 136.73511
-83.711174 1265.9637 136.73511
-78.479202 1265.9637 136.73511
-73.247231 1265.9637 136.73511
-68.015266 1265.9637 136.73511
-62.783401 1265.9637 136.73511
-57.04998 1274.2764 112.01831
-51.863602 1274.2764 112.01831
-46.677223 1274.2764 112.01831
-41.490841 1274.2764 112.01831
-36.304562 1274.2764 112.01831
-31.118181 1274.2764 112.01831
-25.712635 1282.2693 88.251953
-20.570087 1282.2693 88.251953
-15.559041 1274.2764 112.01831
-10.37276 1274.2764 112.01831
-5.1863799 1274.2764 112.01831
0 1274.2764 112.01831
5.2318668 1265.9637 136.73511
10.463933 1265.9637 136.73511
15.695801 1265.9637 136.73511
20.927866 1265.9637 136.73511
26.159735 1265.9637 136.73511
31.391602 1265.9637 136.73511
36.623669 1265.9637 136.73511
41.855534 1265.9637 136.73511
46.677322 1274.2764 112.01831
51.863602 1274.2764 112.01831
57.049881 1274.2764 112.01831
62.236362 1274.2764 112.01831
67.422646 1274.2764 112.01831
73.247337 1265.9637 136.73511
78.479202 1265.9637 136.73511
83.711067 1265.9637 136.73511
88.943138 1265.9637 136.73511
94.99556 1257.6511 161.4519
100.27322 1257.6511 161.4519
105.55067 1257.6511 161.4519
110.82812 1257.6511 161.4519
116.10578 1257.6511 161.4519
121.38322 1257.6511 161.4519
126.66088 1257.6511 161.4519
131.93834 1257.6511 161.4519
137.21579 1257.6511 161.4519
142.49345 1257.6511 161.4519
147.7709 1257.6511 161.4519
153.04855 1257.6511 161.4519
158.326 1257.6511 161.4519
163.60345 1257.6511 161.4519
168.8811 1257.6511 161.4519
174.15857 1257.6511 161.4519
179.43622 1257.6511 161.4519
186.37057 1249.0188 187.11938
191.69536 1249.0188 187.11938
197.02036 1249.0188 187.11938
202.34515 1249.0188 187.11938
209.5164 1240.3864 212.78711
214.88853 1240.3864 212.78711
220.26068 1240.3864 212.78711
227.69493 1231.4343 239.40527
233.11615 1231.4343 239.40527
238.53758 1231.4343 239.40527
243.9588 1231.4343 239.40527
249.38004 1231.4343 239.40527
-198.81393 1261.1477 134.69092
-193.58208 1261.1477 134.69092
-188.35011 1261.1477 134.69092
-183.11813 1261.1477 134.69092
-177.88617 1261.1477 134.69092
-172.65421 1261.1477 134.69092
-167.42235 1261.1477 134.69092
-162.19038 1261.1477 134.69092
-156.9584 1261.1477 134.69092
-151.72644 1261.1477 134.69092
-146.49446 1261.1477 134.69092
-141.2626 1261.1477 134.69092
-136.03064 1261.1477 134.69092
-131.93834 1252.7931 159.38989
-126.66079 1252.7931 159.38989
-121.38322 1252.7931 159.38989
-116.10578 1252.7931 159.38989
-110.82822 1252.7931 159.38989
-105.55067 1252.7931 159.38989
-100.27312 1252.7931 159.38989
-94.175003 1261.1477 134.69092
-88.943138 1261.1477 134.69092
-83.711174 1261.1477 134.69092
-78.479202 1261.1477 134.69092
-73.247231 1261.1477 134.69092
-68.015266 1261.1477 134.69092
-62.783401 1261.1477 134.69092
-57.04998 1269.5023 109.99194
-51.863602 1269.5023 109.99194
-46.677223 1269.5023 109.99194
-41.490841 1269.5023 109.99194
-36.304562 1269.5023 109.99194
-31.118181 1269.5023 109.99194
-25.712635 1277.5356 86.242676
-20.570087 1277.5356 86.242676
-15.559041 1269.5023 109.99194
-10.37276 1269.5023 109.99194
-5.1863799 1269.5023 109.99194
0 1269.5023 109.99194
5.2318668 1261.1477 134.69092
10.463933 1261.1477 134.69092
15.695801 1261.1477 134.69092
20.927866 1261.1477 134.69092
26.159735 1261.1477 134.69092
31.391602 1261.1477 134.69092
36.623669 1261.1477 134.69092
41.855534 1261.1477 134.69092
46.677322 1269.5023 109.99194
51.863602 1269.5023 109.99194
57.049881 1269.5023 109.99194
62.236362 1269.5023 109.99194
67.422646 1269.5023 109.99194
73.247337 1261.1477 134.69092
78.479202 1261.1477 134.69092
83.711067 1261.1477 134.69092
88.943138 1261.1477 134.69092
94.99556 1252.7931 159.38989
100.27322 1252.7931 159.38989
105.55067 1252.7931 159.38989
110.82812 1252.7931 159.38989
116.10578 1252.7931 159.38989
121.38322 1252.7931 159.38989
126.66088 1252.7931 159.38989
131.93834 1252.7931 159.38989
137.21579 1252.7931 159.38989
142.49345 1252.7931 159.38989
147.7709 1252.7931 159.38989
153.04855 1252.7931 159.38989
158.326 1252.7931 159.38989
163.60345 1252.7931 159.38989
168.8811 1252.7931 159.38989
174.15857 1252.7931 159.38989
181.04578 1244.1172 185.03882
186.37057 1244.1172 185.03882
191.69536 1244.1172 185.03882
197.02036 1244.1172 185.03882
202.34515 1244.1172 185.03882
209.5164 1235.4412 210.68799
214.88853 1235.4412 210.68799
220.26068 1235.4412 210.68799
227.69493 1226.444 237.28687
233.11615 1226.444 237.28687
238.53758 1226.444 237.28687
243.9588 1226.444 237.28687
249.38004 1226.444 237.28687
-198.81393 1256.3318 132.64648
-193.58208 1256.3318 132.64648
-188.35011 1256.3318 132.64648
-183.11813 1256.3318 132.64648
-177.88617 1256.3318 132.64648
-172.65421 1256.3318 132.64648
-167.42235 1256.3318 132.64648
-162.19038 1256.3318 132.64648
-156.9584 1256.3318 132.64648
-151.72644 1256.3318 132.64648
-146.49446 1256.3318 132.64648
-141.2626 1256.3318 132.64648
-136.03064 1256.3318 132.64648
-131.93834 1247.9351 157.32788
-126.66079 1247.9351 157.32788
-121.38322 1247.9351 157.32788
-116.10578 1247.9351 157.32788
-110.82822 1247.9351 157.32788
-105.55067 1247.9351 157.32788
-100.27312 1247.9351 157.32788
-94.175003 1256.3318 132.64648
-88.943138 1256.3318 132.64648
-83.711174 1256.3318 132.64648
-78.479202 1256.3318 132.64648
-73.247231 1256.3318 132.64648
-68.015266 1256.3318 132.64648
-62.783401 1256.3318 132.64648
-57.04998 1264.7283 107.96533
-51.863602 1264.7283 107.96533
-46.677223 1264.7283 107.96533
-41.490841 1264.7283 107.96533
-36.304562 1264.7283 107.96533
-31.118181 1264.7283 107.96533
-25.712635 1272.8019 84.233398
-20.570087 1272.8019 84.233398
-15.559041 1264.7283 107.96533
-10.37276 1264.7283 107.96533
-5.1863799 1264.7283 107.96533
0 1264.7283 107.96533
5.1862807 1264.7283 107.96533
10.463933 1256.3318 132.64648
15.695801 1256.3318 132.64648
20.927866 1256.3318 132.64648
26.159735 1256.3318 132.64648
31.391602 1256.3318 132.64648
36.623669 1256.3318 132.64648
41.855534 1256.3318 132.64648
46.677322 1264.7283 107.96533
51.863602 1264.7283 107.96533
57.049881 1264.7283 107.96533
62.236362 1264.7283 107.96533
67.422646 1264.7283 107.96533
73.247337 1256.3318 132.64648
78.479202 1256.3318 132.64648
83.711067 1256.3318 132.64648
88.943138 1256.3318 132.64648
94.99556 1247.9351 157.32788
100.27322 1247.9351 157.32788
105.55067 1247.9351 157.32788
110.82812 1247.9351 157.32788
116.10578 1247.9351 157.32788
121.38322 1247.9351 157.32788
126.66088 1247.9351 157.32788
131.93834 1247.9351 157.32788
137.21579 1247.9351 157.32788
142.49345 1247.9351 157.32788
147.7709 1247.9351 157.32788
153.04855 1247.9351 157.32788
158.326 1247.9351 157.32788
163.60345 1247.9351 157.32788
168.8811 1247.9351 157.32788
174.15857 1247.9351 157.32788
181.04578 1239.2156 182.95825
186.37057 1239.2156 182.95825
191.69536 1239.2156 182.95825
197.02036 1239.2156 182.95825
202.34515 1239.2156 182.95825
209.5164 1230.4961 208.58887
214.88853 1230.4961 208.58887
220.26068 1230.4961 208.58887
227.69493 1221.4536 235.1687
233.11615 1221.4536 235.1687
238.53758 1221.4536 235.1687
243.9588 1221.4536 235.1687
249.38004 1221.4536 235.1687
254.80147 1221.4536 235.1687
-197.08165 1259.9541 105.93896
-191.89537 1259.9541 105.93896
-188.35011 1251.5156 130.60229
-183.11813 1251.5156 130.60229
-177.88617 1251.5156 130.60229
-172.65421 1251.5156 130.60229
-167.42235 1251.5156 130.60229
-162.19038 1251.5156 130.60229
-156.9584 1251.5156 130.60229
-151.72644 1251.5156 130.60229
-146.49446 1251.5156 130.60229
-141.2626 1251.5156 130.60229
-136.03064 1251.5156 130.60229
-131.93834 1243.0771 155.26562
-126.66079 1243.0771 155.26562
-121.38322 1243.0771 155.26562
-116.10578 1243.0771 155.26562
-109.87091 1251.5156 130.60229
-104.63894 1251.5156 130.60229
-99.406967 1251.5156 130.60229
-94.175003 1251.5156 130.60229
-88.943138 1251.5156 130.60229
-83.711174 1251.5156 130.60229
-78.479202 1251.5156 130.60229
-73.247231 1251.5156 130.60229
-68.015266 1251.5156 130.60229
-62.783401 1251.5156 130.60229
-57.551434 1251.5156 130.60229
-52.319469 1251.5156 130.60229
-47.087502 1251.5156 130.60229
-41.855534 1251.5156 130.60229
-36.304562 1259.9541 105.93896
-31.118181 1259.9541 105.93896
-25.931801 1259.9541 105.93896
-20.74542 1259.9541 105.93896
-15.559041 1259.9541 105.93896
-10.37276 1259.9541 105.93896
-5.1863799 1259.9541 105.93896
0 1259.9541 105.93896
5.1862807 1259.9541 105.93896
10.463933 1251.5156 130.60229
15.695801 1251.5156 130.60229
20.927866 1251.5156 130.60229
26.159735 1251.5156 130.60229
31.391602 1251.5156 130.60229
36.623669 1251.5156 130.60229
41.855534 1251.5156 130.60229
47.087601 1251.5156 130.60229
52.319469 1251.5156 130.60229
57.551338 1251.5156 130.60229
62.783401 1251.5156 130.60229
68.015266 1251.5156 130.60229
73.247337 1251.5156 130.60229
78.479202 1251.5156 130.60229
83.711067 1251.5156 130.60229
88.943138 1251.5156 130.60229
94.99556 1243.0771 155.26562
100.27322 1243.0771 155.26562
105.55067 1243.0771 155.26562
110.82812 1243.0771 155.26562
116.10578 1243.0771 155.26562
121.38322 1243.0771 155.26562
126.66088 1243.0771 155.26562
131.93834 1243.0771 155.26562
137.21579 1243.0771 155.26562
142.49345 1243.0771 155.26562
147.7709 1243.0771 155.26562
153.04855 1243.0771 155.26562
158.326 1243.0771 155.26562
163.60345 1243.0771 155.26562
168.8811 1243.0771 155.26562
174.15857 1243.0771 155.26562
179.43622 1243.0771 155.26562
184.71367 1243.0771 155.26562
189.99112 1243.0771 155.26562
197.02036 1234.3141 180.87769
202.34515 1234.3141 180.87769
209.5164 1225.5509 206.48975
214.88853 1225.5509 206.48975
220.26068 1225.5509 206.48975
227.69493 1216.4634 233.05029
233.11615 1216.4634 233.05029
238.53758 1216.4634 233.05029
243.9588 1216.4634 233.05029
249.38004 1216.4634 233.05029
254.80147 1216.4634 233.05029
-197.08165 1255.1801 103.91235
-191.89537 1255.1801 103.91235
-188.35011 1246.6997 128.55811
-183.11813 1246.6997 128.55811
-177.88617 1246.6997 128.55811
-172.65421 1246.6997 128.55811
-167.42235 1246.6997 128.55811
-162.19038 1246.6997 128.55811
-156.9584 1246.6997 128.55811
-151.72644 1246.6997 128.55811
-146.49446 1246.6997 128.55811
-141.2626 1246.6997 128.55811
-136.03064 1246.6997 128.55811
-131.93834 1238.2191 153.20361
-126.66079 1238.2191 153.20361
-120.33474 1246.6997 128.55811
-115.10287 1246.6997 128.55811
-109.87091 1246.6997 128.55811
-104.63894 1246.6997 128.55811
-99.406967 1246.6997 128.55811
-94.175003 1246.6997 128.55811
-88.943138 1246.6997 128.55811
-83.711174 1246.6997 128.55811
-78.479202 1246.6997 128.55811
-73.247231 1246.6997 128.55811
-68.015266 1246.6997 128.55811
-62.783401 1246.6997 128.55811
-57.551434 1246.6997 128.55811
-52.319469 1246.6997 128.55811
-47.087502 1246.6997 128.55811
-41.855534 1246.6997 128.55811
-36.623669 1246.6997 128.55811
-31.391701 1246.6997 128.55811
-25.931801 1255.1801 103.91235
-20.74542 1255.1801 103.91235
-15.559041 1255.1801 103.91235
-10.37276 1255.1801 103.91235
-5.1863799 1255.1801 103.91235
0 1255.1801 103.91235
5.1862807 1255.1801 103.91235
10.37276 1255.1801 103.91235
15.695801 1246.6997 128.55811
20.927866 1246.6997 128.55811
26.159735 1246.6997 128.55811
31.391602 1246.6997 128.55811
36.304562 1255.1801 103.91235
41.490841 1255.1801 103.91235
47.087601 1246.6997 128.55811
52.319469 1246.6997 128.55811
57.049881 1255.1801 103.91235
62.236362 1255.1801 103.91235
68.015266 1246.6997 128.55811
73.247337 1246.6997 128.55811
78.479202 1246.6997 128.55811
83.711067 1246.6997 128.55811
88.943138 1246.6997 128.55811
94.175003 1246.6997 128.55811
100.27322 1238.2191 153.20361
105.55067 1238.2191 153.20361
110.82812 1238.2191 153.20361
116.10578 1238.2191 153.20361
121.38322 1238.2191 153.20361
126.66088 1238.2191 153.20361
131.93834 1238.2191 153.20361
137.21579 1238.2191 153.20361
142.49345 1238.2191 153.20361
147.7709 1238.2191 153.20361
153.04855 1238.2191 153.20361
158.326 1238.2191 153.20361
163.60345 1238.2191 153.20361
168.8811 1238.2191 153.20361
174.15857 1238.2191 153.20361
179.43622 1238.2191 153.20361
184.71367 1238.2191 153.20361
189.99112 1238.2191 153.20361
197.02036 1229.4125 178.79688
202.34515 1229.4125 178.79688
209.5164 1220.6057 204.39062
214.88853 1220.6057 204.39062
220.26068 1220.6057 204.39062
225.63301 1220.6057 204.39062
233.11615 1211.4729 230.93213
238.53758 1211.4729 230.93213
243.9588 1211.4729 230.93213
249.38004 1211.4729 230.93213
254.80147 1211.4729 230.93213
-204.0459 1241.8837 126.51367
-197.08165 1250.406 101.88599
-191.89537 1250.406 101.88599
-188.35011 1241.8837 126.51367
-183.11813 1241.8837 126.51367
-177.88617 1241.8837 126.51367
-172.65421 1241.8837 126.51367
-167.42235 1241.8837 126.51367
-162.19038 1241.8837 126.51367
-156.9584 1241.8837 126.51367
-151.72644 1241.8837 126.51367
-146.49446 1241.8837 126.51367
-141.2626 1241.8837 126.51367
-136.03064 1241.8837 126.51367
-131.93834 1233.3611 151.1416
-125.5667 1241.8837 126.51367
-120.33474 1241.8837 126.51367
-115.10287 1241.8837 126.51367
-109.87091 1241.8837 126.51367
-104.63894 1241.8837 126.51367
-99.406967 1241.8837 126.51367
-94.175003 1241.8837 126.51367
-88.943138 1241.8837 126.51367
-83.711174 1241.8837 126.51367
-78.479202 1241.8837 126.51367
-73.247231 1241.8837 126.51367
-68.015266 1241.8837 126.51367
-62.783401 1241.8837 126.51367
-57.551434 1241.8837 126.51367
-52.319469 1241.8837 126.51367
-47.087502 1241.8837 126.51367
-41.855534 1241.8837 126.51367
-36.623669 1241.8837 126.51367
-31.391701 1241.8837 126.51367
-25.931801 1250.406 101.88599
-20.74542 1250.406 101.88599
-15.559041 1250.406 101.88599
-10.37276 1250.406 101.88599
-5.1863799 1250.406 101.88599
0 1250.406 101.88599
5.1862807 1250.406 101.88599
10.37276 1250.406 101.88599
15.695801 1241.8837 126.51367
20.927866 1241.8837 126.51367
26.159735 1241.8837 126.51367
31.391602 1241.8837 126.51367
36.304562 1250.406 101.88599
41.490841 1250.406 101.88599
47.087601 1241.8837 126.51367
52.319469 1241.8837 126.51367
57.049881 1250.406 101.88599
62.236362 1250.406 101.88599
68.015266 1241.8837 126.51367
73.247337 1241.8837 126.51367
78.479202 1241.8837 126.51367
83.711067 1241.8837 126.51367
88.943138 1241.8837 126.51367
94.175003 1241.8837 126.51367
99.407066 1241.8837 126.51367
105.55067 1233.3611 151.1416
110.82812 1233.3611 151.1416
116.10578 1233.3611 151.1416
121.38322 1233.3611 151.1416
126.66088 1233.3611 151.1416
131.93834 1233.3611 151.1416
137.21579 1233.3611 151.1416
142.49345 1233.3611 151.1416
147.7709 1233.3611 151.1416
153.04855 1233.3611 151.1416
158.326 1233.3611 151.1416
163.60345 1233.3611 151.1416
168.8811 1233.3611 151.1416
174.15857 1233.3611 151.1416
179.43622 1233.3611 151.1416
184.71367 1233.3611 151.1416
191.69536 1224.511 176.71631
197.02036 1224.511 176.71631
202.34515 1224.511 176.71631
207.67015 1224.511 176.71631
212.99493 1224.511 176.71631
220.26068 1215.6606 202.2915
225.63301 1215.6606 202.2915
233.11615 1206.4827 228.81372
238.53758 1206.4827 228.81372
243.9588 1206.4827 228.81372
249.38004 1206.4827 228.81372
254.80147 1206.4827 228.81372
-216.37889 1228.5032 149.07935
-209.27788 1237.0676 124.46948
-204.0459 1237.0676 124.46948
-198.81393 1237.0676 124.46948
-193.58208 1237.0676 124.46948
-188.35011 1237.0676 124.46948
-183.11813 1237.0676 124.46948
-177.88617 1237.0676 124.46948
-172.65421 1237.0676 124.46948
-167.42235 1237.0676 124.46948
-162.19038 1237.0676 124.46948
-156.9584 1237.0676 124.46948
-151.72644 1237.0676 124.46948
-146.49446 1237.0676 124.46948
-141.2626 1237.0676 124.46948
-136.03064 1237.0676 124.46948
-130.79868 1237.0676 124.46948
-125.5667 1237.0676 124.46948
-120.33474 1237.0676 124.46948
-115.10287 1237.0676 124.46948
-109.87091 1237.0676 124.46948
-104.63894 1237.0676 124.46948
-99.406967 1237.0676 124.46948
-94.175003 1237.0676 124.46948
-88.943138 1237.0676 124.46948
-83.711174 1237.0676 124.46948
-78.479202 1237.0676 124.46948
-73.247231 1237.0676 124.46948
-68.015266 1237.0676 124.46948
-62.783401 1237.0676 124.46948
-57.551434 1237.0676 124.46948
-52.319469 1237.0676 124.46948
-47.087502 1237.0676 124.46948
-41.855534 1237.0676 124.46948
-36.623669 1237.0676 124.46948
-31.391701 1237.0676 124.46948
-25.931801 1245.632 99.859375
-20.74542 1245.632 99.859375
-15.559041 1245.632 99.859375
-10.37276 1245.632 99.859375
-5.1863799 1245.632 99.859375
0 1245.632 99.859375
5.1862807 1245.632 99.859375
10.463933 1237.0676 124.46948
15.695801 1237.0676 124.46948
20.927866 1237.0676 124.46948
26.159735 1237.0676 124.46948
31.391602 1237.0676 124.46948
36.304562 1245.632 99.859375
41.490841 1245.632 99.859375
46.677322 1245.632 99.859375
51.863602 1245.632 99.859375
57.049881 1245.632 99.859375
62.236362 1245.632 99.859375
68.015266 1237.0676 124.46948
73.247337 1237.0676 124.46948
78.479202 1237.0676 124.46948
83.711067 1237.0676 124.46948
88.943138 1237.0676 124.46948
94.175003 1237.0676 124.46948
99.407066 1237.0676 124.46948
104.63894 1237.0676 124.46948
110.82812 1228.5032 149.07935
116.10578 1228.5032 149.07935
121.38322 1228.5032 149.07935
126.66088 1228.5032 149.07935
131.93834 1228.5032 149.07935
137.21579 1228.5032 149.07935
142.49345 1228.5032 149.07935
147.7709 1228.5032 149.07935
153.04855 1228.5032 149.07935
158.326 1228.5032 149.07935
163.60345 1228.5032 149.07935
168.8811 1228.5032 149.07935
174.15857 1228.5032 149.07935
179.43622 1228.5032 149.07935
184.71367 1228.5032 149.07935
189.99112 1228.5032 149.07935
197.02036 1219.6094 174.63574
202.34515 1219.6094 174.63574
207.67015 1219.6094 174.63574
212.99493 1219.6094 174.63574
220.26068 1210.7155 200.19238
225.63301 1210.7155 200.19238
231.00513 1210.7155 200.19238
236.37747 1210.7155 200.19238
241.7496 1210.7155 200.19238
249.38004 1201.4923 226.69556
254.80147 1201.4923 226.69556
262.57916 1192.2692 253.19849
-216.37889 1223.645 147.01733
-209.27788 1232.2515 122.42505
-204.0459 1232.2515 122.42505
-198.81393 1232.2515 122.42505
-195.26877 1223.645 147.01733
-188.35011 1232.2515 122.42505
-183.11813 1232.2515 122.42505
-177.88617 1232.2515 122.42505
-172.65421 1232.2515 122.42505
-167.42235 1232.2515 122.42505
-162.19038 1232.2515 122.42505
-156.9584 1232.2515 122.42505
-151.72644 1232.2515 122.42505
-146.49446 1232.2515 122.42505
-141.2626 1232.2515 122.42505
-136.03064 1232.2515 122.42505
-130.79868 1232.2515 122.42505
-125.5667 1232.2515 122.42505
-119.28625 1240.8579 97.833008
-114.09996 1240.8579 97.833008
-109.87091 1232.2515 122.42505
-104.63894 1232.2515 122.42505
-99.406967 1232.2515 122.42505
-94.175003 1232.2515 122.42505
-88.943138 1232.2515 122.42505
-83.711174 1232.2515 122.42505
-78.479202 1232.2515 122.42505
-73.247231 1232.2515 122.42505
-68.015266 1232.2515 122.42505
-62.783401 1232.2515 122.42505
-57.551434 1232.2515 122.42505
-52.319469 1232.2515 122.42505
-47.087502 1232.2515 122.42505
-41.855534 1232.2515 122.42505
-36.623669 1232.2515 122.42505
-31.391701 1232.2515 122.42505
-25.931801 1240.8579 97.833008
-20.74542 1240.8579 97.833008
-15.559041 1240.8579 97.833008
-10.37276 1240.8579 97.833008
-5.1863799 1240.8579 97.833008
0 1240.8579 97.833008
5.2318668 1232.2515 122.42505
10.463933 1232.2515 122.42505
15.695801 1232.2515 122.42505
20.927866 1232.2515 122.42505
25.931801 1240.8579 97.833008
31.118082 1240.8579 97.833008
36.304562 1240.8579 97.833008
41.490841 1240.8579 97.833008
46.677322 1240.8579 97.833008
51.863602 1240.8579 97.833008
57.551338 1232.2515 122.42505
62.783401 1232.2515 122.42505
68.015266 1232.2515 122.42505
73.247337 1232.2515 122.42505
78.479202 1232.2515 122.42505
83.711067 1232.2515 122.42505
88.943138 1232.2515 122.42505
94.175003 1232.2515 122.42505
99.407066 1232.2515 122.42505
104.63894 1232.2515 122.42505
110.82812 1223.645 147.01733
116.10578 1223.645 147.01733
121.38322 1223.645 147.01733
126.66088 1223.645 147.01733
131.93834 1223.645 147.01733
137.21579 1223.645 147.01733
142.49345 1223.645 147.01733
147.7709 1223.645 147.01733
153.04855 1223.645 147.01733
158.326 1223.645 147.01733
163.60345 1223.645 147.01733
168.8811 1223.645 147.01733
174.15857 1223.645 147.01733
179.43622 1223.645 147.01733
184.71367 1223.645 147.01733
189.99112 1223.645 147.01733
197.02036 1214.7078 172.55518
202.34515 1214.7078 172.55518
207.67015 1214.7078 172.55518
212.99493 1214.7078 172.55518
218.31973 1214.7078 172.55518
225.63301 1205.7703 198.09326
231.00513 1205.7703 198.09326
236.37747 1205.7703 198.09326
241.7496 1205.7703 198.09326
249.38004 1196.502 224.57715
254.80147 1196.502 224.57715
262.57916 1187.2335 251.06104
-226.93391 1218.7871 144.95508
-221.65645 1218.7871 144.95508
-216.37889 1218.7871 144.95508
-211.10133 1218.7871 144.95508
-204.0459 1227.4355 120.38086
-198.81393 1227.4355 120.38086
-195.26877 1218.7871 144.95508
-188.35011 1227.4355 120.38086
-183.11813 1227.4355 120.38086
-177.88617 1227.4355 120.38086
-172.65421 1227.4355 120.38086
-167.42235 1227.4355 120.38086
-162.19038 1227.4355 120.38086
-156.9584 1227.4355 120.38086
-151.72644 1227.4355 120.38086
-146.49446 1227.4355 120.38086
-141.2626 1227.4355 120.38086
-136.03064 1227.4355 120.38086
-130.79868 1227.4355 120.38086
-125.5667 1227.4355 120.38086
-119.28625 1236.0837 95.806396
-114.09996 1236.0837 95.806396
-109.87091 1227.4355 120.38086
-104.63894 1227.4355 120.38086
-99.406967 1227.4355 120.38086
-94.175003 1227.4355 120.38086
-88.943138 1227.4355 120.38086
-83.711174 1227.4355 120.38086
-78.479202 1227.4355 120.38086
-73.247231 1227.4355 120.38086
-68.015266 1227.4355 120.38086
-62.783401 1227.4355 120.38086
-57.551434 1227.4355 120.38086
-52.319469 1227.4355 120.38086
-47.087502 1227.4355 120.38086
-41.855534 1227.4355 120.38086
-36.623669 1227.4355 120.38086
-31.391701 1227.4355 120.38086
-25.931801 1236.0837 95.806396
-20.74542 1236.0837 95.806396
-15.559041 1236.0837 95.806396
-10.37276 1236.0837 95.806396
-5.2319665 1227.4355 120.38086
0 1227.4355 120.38086
5.2318668 1227.4355 120.38086
10.463933 1227.4355 120.38086
15.695801 1227.4355 120.38086
20.927866 1227.4355 120.38086
25.931801 1236.0837 95.806396
31.118082 1236.0837 95.806396
36.304562 1236.0837 95.806396
41.490841 1236.0837 95.806396
46.677322 1236.0837 95.806396
51.863602 1236.0837 95.806396
57.049881 1236.0837 95.806396
62.236362 1236.0837 95.806396
68.015266 1227.4355 120.38086
73.247337 1227.4355 120.38086
78.479202 1227.4355 120.38086
83.711067 1227.4355 120.38086
88.943138 1227.4355 120.38086
94.175003 1227.4355 120.38086
99.407066 1227.4355 120.38086
105.55067 1218.7871 144.95508
110.82812 1218.7871 144.95508
116.10578 1218.7871 144.95508
121.38322 1218.7871 144.95508
126.66088 1218.7871 144.95508
131.93834 1218.7871 144.95508
137.21579 1218.7871 144.95508
142.49345 1218.7871 144.95508
147.7709 1218.7871 144.95508
153.04855 1218.7871 144.95508
158.326 1218.7871 144.95508
163.60345 1218.7871 144.95508
168.8811 1218.7871 144.95508
174.15857 1218.7871 144.95508
179.43622 1218.7871 144.95508
184.71367 1218.7871 144.95508
189.99112 1218.7871 144.95508
197.02036 1209.8062 170.47461
202.34515 1209.8062 170.47461
207.67015 1209.8062 170.47461
212.99493 1209.8062 170.47461
218.31973 1209.8062 170.47461
223.64473 1209.8062 170.47461
231.00513 1200.8252 195.99414
236.37747 1200.8252 195.99414
241.7496 1200.8252 195.99414
249.38004 1191.5116 222.45898
254.80147 1191.5116 222.45898
262.57916 1182.198 248.92358
263.23856 1200.8252 195.99414
268.61069 1200.8252 195.99414
-232.21146 1213.9291 142.89307
-226.93391 1213.9291 142.89307
-221.65645 1213.9291 142.89307
-216.37889 1213.9291 142.89307
-211.10133 1213.9291 142.89307
-204.0459 1222.6194 118.33667
-198.81393 1222.6194 118.33667
-193.58208 1222.6194 118.33667
-188.35011 1222.6194 118.33667
-183.11813 1222.6194 118.33667
-177.88617 1222.6194 118.33667
-172.65421 1222.6194 118.33667
-167.42235 1222.6194 118.33667
-162.19038 1222.6194 118.33667
-156.9584 1222.6194 118.33667
-151.72644 1222.6194 118.33667
-146.49446 1222.6194 118.33667
-141.2626 1222.6194 118.33667
-136.03064 1222.6194 118.33667
-130.79868 1222.6194 118.33667
-125.5667 1222.6194 118.33667
-119.28625 1231.3097 93.780029
-114.09996 1231.3097 93.780029
-109.87091 1222.6194 118.33667
-104.63894 1222.6194 118.33667
-99.406967 1222.6194 118.33667
-94.175003 1222.6194 118.33667
-88.943138 1222.6194 118.33667
-83.711174 1222.6194 118.33667
-78.479202 1222.6194 118.33667
-73.247231 1222.6194 118.33667
-68.015266 1222.6194 118.33667
-62.783401 1222.6194 118.33667
-57.551434 1222.6194 118.33667
-52.319469 1222.6194 118.33667
-47.087502 1222.6194 118.33667
-41.855534 1222.6194 118.33667
-36.623669 1222.6194 118.33667
-31.391701 1222.6194 118.33667
-25.931801 1231.3097 93.780029
-20.74542 1231.3097 93.780029
-15.559041 1231.3097 93.780029
-10.37276 1231.3097 93.780029
-5.2319665 1222.6194 118.33667
0 1222.6194 118.33667
5.2318668 1222.6194 118.33667
10.463933 1222.6194 118.33667
15.695801 1222.6194 118.33667
20.927866 1222.6194 118.33667
25.931801 1231.3097 93.780029
31.118082 1231.3097 93.780029
36.304562 1231.3097 93.780029
41.490841 1231.3097 93.780029
46.677322 1231.3097 93.780029
51.863602 1231.3097 93.780029
57.049881 1231.3097 93.780029
