ply
format ascii 1.0
comment PCL generated
element vertex 1585
property float x
property float y
property float z
element camera 0
property float view_px
property float view_py
property float view_pz
property float x_axisx
property float x_axisy
property float x_axisz
property float y_axisx
property float y_axisy
property float y_axisz
property float z_axisx
property float z_axisy
property float z_axisz
property float focal
property float scalex
property float scaley
property float centerx
property float centery
property int viewportx
property int viewporty
property float k1
property float k2
end_header
15.164542 1456.458 107.87256
20.219517 1456.458 107.87256
25.274302 1456.458 107.87256
30.329084 1456.458 107.87256
35.089497 1462.8142 84.498047
40.102203 1462.8142 84.498047
45.115097 1462.8142 84.498047
50.1278 1462.8142 84.498047
55.140507 1462.8142 84.498047
60.1534 1462.8142 84.498047
65.1661 1462.8142 84.498047
70.178993 1462.8142 84.498047
75.191704 1462.8142 84.498047
80.204407 1462.8142 84.498047
85.932655 1456.458 107.87256
90.98745 1456.458 107.87256
96.042427 1456.458 107.87256
101.97387 1449.8369 132.22119
107.07249 1449.8369 132.22119
112.1713 1449.8369 132.22119
118.27808 1443.2158 156.56982
123.42072 1443.2158 156.56982
129.65901 1436.5947 180.91846
134.84529 1436.5947 180.91846
140.03175 1436.5947 180.91846
145.21805 1436.5947 180.91846
150.40451 1436.5947 180.91846
156.9584 1429.7089 206.24072
162.19028 1429.7089 206.24072
167.42235 1429.7089 206.24072
174.15857 1422.8229 231.56323
179.43622 1422.8229 231.56323
184.71367 1422.8229 231.56323
189.99112 1422.8229 231.56323
-82.280449 1438.4821 154.5603
-76.4804 1445.1436 130.229
-71.381691 1445.1436 130.229
-66.282974 1445.1436 130.229
-61.184364 1445.1436 130.229
-56.085648 1445.1436 130.229
-50.986935 1445.1436 130.229
-45.888226 1445.1436 130.229
-40.789509 1445.1436 130.229
-35.690891 1445.1436 130.229
-30.592182 1445.1436 130.229
-25.712635 1438.4821 154.5603
-20.570087 1438.4821 154.5603
-15.427542 1438.4821 154.5603
-10.285093 1438.4821 154.5603
-5.1425467 1438.4821 154.5603
0 1431.8206 178.89185
5.1424484 1438.4821 154.5603
10.285093 1438.4821 154.5603
15.296041 1445.1436 130.229
20.394852 1445.1436 130.229
25.493467 1445.1436 130.229
30.592083 1445.1436 130.229
35.38406 1451.8049 105.89746
40.438843 1451.8049 105.89746
45.493816 1451.8049 105.89746
50.548603 1451.8049 105.89746
55.603386 1451.8049 105.89746
60.658363 1451.8049 105.89746
65.1661 1458.1998 82.539307
70.178993 1458.1998 82.539307
75.191704 1458.1998 82.539307
80.877686 1451.8049 105.89746
85.932655 1451.8049 105.89746
91.776451 1445.1436 130.229
96.875259 1445.1436 130.229
101.97387 1445.1436 130.229
107.99298 1438.4821 154.5603
113.13563 1438.4821 154.5603
118.27808 1438.4821 154.5603
124.47272 1431.8206 178.89185
129.65901 1431.8206 178.89185
134.84529 1431.8206 178.89185
140.03175 1431.8206 178.89185
145.21805 1431.8206 178.89185
150.40451 1431.8206 178.89185
156.9584 1424.8928 204.19653
162.19028 1424.8928 204.19653
167.42235 1424.8928 204.19653
174.15857 1417.9648 229.50122
179.43622 1417.9648 229.50122
184.71367 1417.9648 229.50122
189.99112 1417.9648 229.50122
-81.579117 1440.4502 128.23682
-76.4804 1440.4502 128.23682
-71.381691 1440.4502 128.23682
-66.282974 1440.4502 128.23682
-61.184364 1440.4502 128.23682
-56.085648 1440.4502 128.23682
-50.986935 1440.4502 128.23682
-45.888226 1440.4502 128.23682
-40.789509 1440.4502 128.23682
-35.690891 1440.4502 128.23682
-30.592182 1440.4502 128.23682
-25.712635 1433.7484 152.55103
-20.570087 1433.7484 152.55103
-15.427542 1433.7484 152.55103
-10.285093 1433.7484 152.55103
-5.1425467 1433.7484 152.55103
0 1433.7484 152.55103
5.1424484 1433.7484 152.55103
10.285093 1433.7484 152.55103
15.427542 1433.7484 152.55103
20.394852 1440.4502 128.23682
25.493467 1440.4502 128.23682
30.592083 1440.4502 128.23682
35.690891 1440.4502 128.23682
40.438843 1447.152 103.92236
45.493816 1447.152 103.92236
50.548603 1447.152 103.92236
55.603386 1447.152 103.92236
60.658363 1447.152 103.92236
65.713142 1447.152 103.92236
70.76812 1447.152 103.92236
75.822906 1447.152 103.92236
81.579018 1440.4502 128.23682
86.677826 1440.4502 128.23682
91.776451 1440.4502 128.23682
96.875259 1440.4502 128.23682
102.85054 1433.7484 152.55103
107.99298 1433.7484 152.55103
113.13563 1433.7484 152.55103
118.27808 1433.7484 152.55103
124.47272 1427.0466 176.86548
129.65901 1427.0466 176.86548
134.84529 1427.0466 176.86548
140.03175 1427.0466 176.86548
145.21805 1427.0466 176.86548
150.40451 1427.0466 176.86548
156.9584 1420.0768 202.15234
162.19028 1420.0768 202.15234
167.42235 1420.0768 202.15234
174.15857 1413.1069 227.43896
179.43622 1413.1069 227.43896
184.71367 1413.1069 227.43896
189.99112 1413.1069 227.43896
195.26877 1413.1069 227.43896
-86.677826 1435.7568 126.24438
-81.579117 1435.7568 126.24438
-76.4804 1435.7568 126.24438
-71.381691 1435.7568 126.24438
-66.282974 1435.7568 126.24438
-61.184364 1435.7568 126.24438
-56.085648 1435.7568 126.24438
-50.986935 1435.7568 126.24438
-45.888226 1435.7568 126.24438
-40.789509 1435.7568 126.24438
-35.690891 1435.7568 126.24438
-30.592182 1435.7568 126.24438
-25.712635 1429.0146 150.54175
-20.570087 1429.0146 150.54175
-15.427542 1429.0146 150.54175
-10.285093 1429.0146 150.54175
-5.1425467 1429.0146 150.54175
0 1429.0146 150.54175
5.1424484 1429.0146 150.54175
10.285093 1429.0146 150.54175
15.427542 1429.0146 150.54175
20.570187 1429.0146 150.54175
25.493467 1435.7568 126.24438
30.592083 1435.7568 126.24438
35.690891 1435.7568 126.24438
40.438843 1442.499 101.94727
45.493816 1442.499 101.94727
50.548603 1442.499 101.94727
55.603386 1442.499 101.94727
60.658363 1442.499 101.94727
65.713142 1442.499 101.94727
70.76812 1442.499 101.94727
76.4804 1435.7568 126.24438
81.579018 1435.7568 126.24438
86.677826 1435.7568 126.24438
92.565445 1429.0146 150.54175
97.708092 1429.0146 150.54175
102.85054 1429.0146 150.54175
107.99298 1429.0146 150.54175
113.13563 1429.0146 150.54175
118.27808 1429.0146 150.54175
124.47272 1422.2725 174.83887
129.65901 1422.2725 174.83887
134.84529 1422.2725 174.83887
140.03175 1422.2725 174.83887
145.21805 1422.2725 174.83887
150.40451 1422.2725 174.83887
156.9584 1415.2607 200.10791
162.19028 1415.2607 200.10791
167.42235 1415.2607 200.10791
174.15857 1408.2489 225.37695
179.43622 1408.2489 225.37695
184.71367 1408.2489 225.37695
189.99112 1408.2489 225.37695
195.26877 1408.2489 225.37695
200.54623 1408.2489 225.37695
-97.707985 1424.281 148.53247
-92.565445 1424.281 148.53247
-86.677826 1431.0635 124.2522
-81.579117 1431.0635 124.2522
-76.4804 1431.0635 124.2522
-71.381691 1431.0635 124.2522
-66.282974 1431.0635 124.2522
-61.184364 1431.0635 124.2522
-56.085648 1431.0635 124.2522
-50.986935 1431.0635 124.2522
-45.888226 1431.0635 124.2522
-40.789509 1431.0635 124.2522
-35.690891 1431.0635 124.2522
-30.592182 1431.0635 124.2522
-25.712635 1424.281 148.53247
-20.570087 1424.281 148.53247
-15.427542 1424.281 148.53247
-10.285093 1424.281 148.53247
-5.1425467 1424.281 148.53247
0 1424.281 148.53247
5.1424484 1424.281 148.53247
10.285093 1424.281 148.53247
15.427542 1424.281 148.53247
20.394852 1431.0635 124.2522
25.493467 1431.0635 124.2522
30.592083 1431.0635 124.2522
35.690891 1431.0635 124.2522
40.438843 1437.8459 99.972168
45.493816 1437.8459 99.972168
50.548603 1437.8459 99.972168
55.603386 1437.8459 99.972168
61.184364 1431.0635 124.2522
66.282974 1431.0635 124.2522
71.381783 1431.0635 124.2522
76.4804 1431.0635 124.2522
81.579018 1431.0635 124.2522
87.422989 1424.281 148.53247
92.565445 1424.281 148.53247
97.708092 1424.281 148.53247
102.85054 1424.281 148.53247
107.99298 1424.281 148.53247
113.13563 1424.281 148.53247
119.28625 1417.4984 172.8125
124.47272 1417.4984 172.8125
129.65901 1417.4984 172.8125
134.84529 1417.4984 172.8125
140.03175 1417.4984 172.8125
145.21805 1417.4984 172.8125
150.40451 1417.4984 172.8125
156.9584 1410.4447 198.06372
162.19028 1410.4447 198.06372
167.42235 1410.4447 198.06372
172.65421 1410.4447 198.06372
177.88628 1410.4447 198.06372
184.71367 1403.3909 223.31494
189.99112 1403.3909 223.31494
195.26877 1403.3909 223.31494
200.54623 1403.3909 223.31494
207.67015 1396.0659 249.53711
212.99493 1396.0659 249.53711
-103.7272 1412.7244 170.78613
-97.707985 1419.5472 146.52295
-92.565445 1419.5472 146.52295
-86.677826 1426.3701 122.26001
-81.579117 1426.3701 122.26001
-76.4804 1426.3701 122.26001
-71.381691 1426.3701 122.26001
-66.282974 1426.3701 122.26001
-61.184364 1426.3701 122.26001
-56.085648 1426.3701 122.26001
-50.986935 1426.3701 122.26001
-45.888226 1426.3701 122.26001
-40.789509 1426.3701 122.26001
-35.690891 1426.3701 122.26001
-30.592182 1426.3701 122.26001
-25.712635 1419.5472 146.52295
-20.570087 1419.5472 146.52295
-15.427542 1419.5472 146.52295
-10.285093 1419.5472 146.52295
-5.1425467 1419.5472 146.52295
0 1419.5472 146.52295
5.1424484 1419.5472 146.52295
10.285093 1419.5472 146.52295
15.427542 1419.5472 146.52295
20.394852 1426.3701 122.26001
25.493467 1426.3701 122.26001
30.592083 1426.3701 122.26001
35.690891 1426.3701 122.26001
40.789509 1426.3701 122.26001
45.888317 1426.3701 122.26001
50.986935 1426.3701 122.26001
56.085552 1426.3701 122.26001
61.184364 1426.3701 122.26001
66.282974 1426.3701 122.26001
71.381783 1426.3701 122.26001
76.4804 1426.3701 122.26001
82.28035 1419.5472 146.52295
87.422989 1419.5472 146.52295
92.565445 1419.5472 146.52295
97.708092 1419.5472 146.52295
102.85054 1419.5472 146.52295
107.99298 1419.5472 146.52295
114.09996 1412.7244 170.78613
119.28625 1412.7244 170.78613
124.47272 1412.7244 170.78613
129.65901 1412.7244 170.78613
134.84529 1412.7244 170.78613
140.03175 1412.7244 170.78613
145.21805 1412.7244 170.78613
150.40451 1412.7244 170.78613
156.9584 1405.6287 196.01929
162.19028 1405.6287 196.01929
167.42235 1405.6287 196.01929
172.65421 1405.6287 196.01929
177.88628 1405.6287 196.01929
184.71367 1398.533 221.25269
189.99112 1398.533 221.25269
195.26877 1398.533 221.25269
202.34515 1391.1643 247.45654
207.67015 1391.1643 247.45654
212.99493 1391.1643 247.45654
220.26068 1383.7957 273.66064
225.63301 1383.7957 273.66064
231.00513 1383.7957 273.66064
-125.5667 1400.8127 193.9751
-120.33474 1400.8127 193.9751
-114.09996 1407.9503 168.75952
-108.91359 1407.9503 168.75952
-103.7272 1407.9503 168.75952
-97.707985 1414.8135 144.51367
-92.565445 1414.8135 144.51367
-86.677826 1421.6768 120.26782
-81.579117 1421.6768 120.26782
-76.4804 1421.6768 120.26782
-71.381691 1421.6768 120.26782
-66.282974 1421.6768 120.26782
-61.184364 1421.6768 120.26782
-56.085648 1421.6768 120.26782
-50.986935 1421.6768 120.26782
-45.888226 1421.6768 120.26782
-40.789509 1421.6768 120.26782
-35.690891 1421.6768 120.26782
-30.592182 1421.6768 120.26782
-25.712635 1414.8135 144.51367
-20.570087 1414.8135 144.51367
-15.427542 1414.8135 144.51367
-10.285093 1414.8135 144.51367
-5.1425467 1414.8135 144.51367
0 1414.8135 144.51367
5.1424484 1414.8135 144.51367
10.285093 1414.8135 144.51367
15.427542 1414.8135 144.51367
20.570187 1414.8135 144.51367
25.493467 1421.6768 120.26782
30.592083 1421.6768 120.26782
35.690891 1421.6768 120.26782
40.789509 1421.6768 120.26782
45.888317 1421.6768 120.26782
50.986935 1421.6768 120.26782
56.085552 1421.6768 120.26782
61.184364 1421.6768 120.26782
66.282974 1421.6768 120.26782
71.381783 1421.6768 120.26782
76.4804 1421.6768 120.26782
82.28035 1414.8135 144.51367
87.422989 1414.8135 144.51367
92.565445 1414.8135 144.51367
97.708092 1414.8135 144.51367
102.85054 1414.8135 144.51367
108.91348 1407.9503 168.75952
114.09996 1407.9503 168.75952
119.28625 1407.9503 168.75952
124.47272 1407.9503 168.75952
129.65901 1407.9503 168.75952
134.84529 1407.9503 168.75952
140.03175 1407.9503 168.75952
145.21805 1407.9503 168.75952
150.40451 1407.9503 168.75952
156.9584 1400.8127 193.9751
162.19028 1400.8127 193.9751
167.42235 1400.8127 193.9751
172.65421 1400.8127 193.9751
177.88628 1400.8127 193.9751
183.11813 1400.8127 193.9751
189.99112 1393.6749 219.19067
195.26877 1393.6749 219.19067
200.54623 1393.6749 219.19067
207.67015 1386.2628 245.37598
212.99493 1386.2628 245.37598
218.31973 1386.2628 245.37598
225.63301 1378.8506 271.56152
231.00513 1378.8506 271.56152
-134.84538 1403.1763 166.73315
-129.65901 1403.1763 166.73315
-124.47263 1403.1763 166.73315
-120.33474 1395.9967 191.93091
-114.09996 1403.1763 166.73315
-108.91359 1403.1763 166.73315
-103.7272 1403.1763 166.73315
-98.540825 1403.1763 166.73315
-92.565445 1410.0798 142.50439
-86.677826 1416.9834 118.27563
-81.579117 1416.9834 118.27563
-76.4804 1416.9834 118.27563
-71.381691 1416.9834 118.27563
-66.282974 1416.9834 118.27563
-61.184364 1416.9834 118.27563
-56.085648 1416.9834 118.27563
-50.986935 1416.9834 118.27563
-45.888226 1416.9834 118.27563
-40.789509 1416.9834 118.27563
-35.690891 1416.9834 118.27563
-30.592182 1416.9834 118.27563
-25.712635 1410.0798 142.50439
-20.570087 1410.0798 142.50439
-15.427542 1410.0798 142.50439
-10.285093 1410.0798 142.50439
-5.1425467 1410.0798 142.50439
0 1410.0798 142.50439
5.1424484 1410.0798 142.50439
10.285093 1410.0798 142.50439
15.427542 1410.0798 142.50439
20.570187 1410.0798 142.50439
25.712635 1410.0798 142.50439
30.592083 1416.9834 118.27563
35.690891 1416.9834 118.27563
40.789509 1416.9834 118.27563
45.888317 1416.9834 118.27563
50.986935 1416.9834 118.27563
56.085552 1416.9834 118.27563
61.710361 1410.0798 142.50439
66.852806 1410.0798 142.50439
71.995453 1410.0798 142.50439
77.137901 1410.0798 142.50439
82.28035 1410.0798 142.50439
87.422989 1410.0798 142.50439
92.565445 1410.0798 142.50439
97.708092 1410.0798 142.50439
102.85054 1410.0798 142.50439
107.99298 1410.0798 142.50439
114.09996 1403.1763 166.73315
119.28625 1403.1763 166.73315
125.5668 1395.9967 191.93091
129.65901 1403.1763 166.73315
134.84529 1403.1763 166.73315
140.03175 1403.1763 166.73315
145.21805 1403.1763 166.73315
150.40451 1403.1763 166.73315
156.9584 1395.9967 191.93091
162.19028 1395.9967 191.93091
167.42235 1395.9967 191.93091
172.65421 1395.9967 191.93091
177.88628 1395.9967 191.93091
183.11813 1395.9967 191.93091
189.99112 1388.817 217.12866
195.26877 1388.817 217.12866
200.54623 1388.817 217.12866
205.8239 1388.817 217.12866
212.99493 1381.3612 243.29541
218.31973 1381.3612 243.29541
223.64473 1381.3612 243.29541
231.00513 1373.9054 269.4624
-140.03175 1398.4022 164.70654
-134.84538 1398.4022 164.70654
-129.65901 1398.4022 164.70654
-124.47263 1398.4022 164.70654
-120.33474 1391.1807 189.88647
-114.09996 1398.4022 164.70654
-108.91359 1398.4022 164.70654
-103.7272 1398.4022 164.70654
-98.540825 1398.4022 164.70654
-92.565445 1405.3461 140.49512
-86.677826 1412.29 116.28345
-81.579117 1412.29 116.28345
-76.4804 1412.29 116.28345
-71.381691 1412.29 116.28345
-66.282974 1412.29 116.28345
-61.184364 1412.29 116.28345
-56.085648 1412.29 116.28345
-50.986935 1412.29 116.28345
-45.493725 1419.2339 92.071777
-40.438843 1419.2339 92.071777
-35.38406 1419.2339 92.071777
-30.329182 1419.2339 92.071777
-25.493467 1412.29 116.28345
-20.570087 1405.3461 140.49512
-15.427542 1405.3461 140.49512
-10.285093 1405.3461 140.49512
-5.1425467 1405.3461 140.49512
0 1405.3461 140.49512
5.1424484 1405.3461 140.49512
10.285093 1405.3461 140.49512
15.427542 1405.3461 140.49512
20.570187 1405.3461 140.49512
25.712635 1405.3461 140.49512
30.855083 1405.3461 140.49512
35.997726 1405.3461 140.49512
40.789509 1412.29 116.28345
45.888317 1412.29 116.28345
51.42527 1405.3461 140.49512
56.567715 1405.3461 140.49512
61.710361 1405.3461 140.49512
66.852806 1405.3461 140.49512
71.995453 1405.3461 140.49512
77.137901 1405.3461 140.49512
82.28035 1405.3461 140.49512
87.422989 1405.3461 140.49512
92.565445 1405.3461 140.49512
97.708092 1405.3461 140.49512
102.85054 1405.3461 140.49512
107.99298 1405.3461 140.49512
114.09996 1398.4022 164.70654
119.28625 1398.4022 164.70654
124.47272 1398.4022 164.70654
129.65901 1398.4022 164.70654
134.84529 1398.4022 164.70654
140.03175 1398.4022 164.70654
145.21805 1398.4022 164.70654
150.40451 1398.4022 164.70654
155.59081 1398.4022 164.70654
160.7771 1398.4022 164.70654
165.96358 1398.4022 164.70654
172.65421 1391.1807 189.88647
177.88628 1391.1807 189.88647
183.11813 1391.1807 189.88647
188.35001 1391.1807 189.88647
195.26877 1383.959 215.06641
200.54623 1383.959 215.06641
205.8239 1383.959 215.06641
212.99493 1376.4597 241.21484
218.31973 1376.4597 241.21484
223.64473 1376.4597 241.21484
228.96953 1376.4597 241.21484
234.29451 1376.4597 241.21484
239.61931 1376.4597 241.21484
244.94411 1376.4597 241.21484
248.04411 1383.959 215.06641
253.32158 1383.959 215.06641
-151.72644 1386.3646 187.84229
-146.49446 1386.3646 187.84229
-140.03175 1393.6282 162.68018
-134.84538 1393.6282 162.68018
-129.65901 1393.6282 162.68018
-124.47263 1393.6282 162.68018
-119.28625 1393.6282 162.68018
-113.13563 1400.6123 138.4856
-107.99309 1400.6123 138.4856
-102.85054 1400.6123 138.4856
-97.707985 1400.6123 138.4856
-92.565445 1400.6123 138.4856
-86.677826 1407.5967 114.29126
-81.579117 1407.5967 114.29126
-76.4804 1407.5967 114.29126
-71.381691 1407.5967 114.29126
-66.282974 1407.5967 114.29126
-61.184364 1407.5967 114.29126
-56.085648 1407.5967 114.29126
-50.986935 1407.5967 114.29126
-45.493725 1414.5808 90.09668
-40.438843 1414.5808 90.09668
-35.38406 1414.5808 90.09668
-30.329182 1414.5808 90.09668
-25.493467 1407.5967 114.29126
-20.570087 1400.6123 138.4856
-15.427542 1400.6123 138.4856
-10.285093 1400.6123 138.4856
-5.1425467 1400.6123 138.4856
0 1400.6123 138.4856
5.1424484 1400.6123 138.4856
10.285093 1400.6123 138.4856
15.427542 1400.6123 138.4856
20.570187 1400.6123 138.4856
25.712635 1400.6123 138.4856
30.855083 1400.6123 138.4856
35.997726 1400.6123 138.4856
41.140175 1400.6123 138.4856
46.282822 1400.6123 138.4856
51.42527 1400.6123 138.4856
56.567715 1400.6123 138.4856
61.710361 1400.6123 138.4856
66.852806 1400.6123 138.4856
71.995453 1400.6123 138.4856
77.137901 1400.6123 138.4856
82.28035 1400.6123 138.4856
87.422989 1400.6123 138.4856
92.565445 1400.6123 138.4856
97.708092 1400.6123 138.4856
103.7272 1393.6282 162.68018
108.91348 1393.6282 162.68018
114.09996 1393.6282 162.68018
119.28625 1393.6282 162.68018
124.47272 1393.6282 162.68018
129.65901 1393.6282 162.68018
134.84529 1393.6282 162.68018
140.03175 1393.6282 162.68018
145.21805 1393.6282 162.68018
150.40451 1393.6282 162.68018
155.59081 1393.6282 162.68018
160.7771 1393.6282 162.68018
165.96358 1393.6282 162.68018
171.14984 1393.6282 162.68018
177.88628 1386.3646 187.84229
183.11813 1386.3646 187.84229
188.35001 1386.3646 187.84229
195.26877 1379.101 213.00439
200.54623 1379.101 213.00439
205.8239 1379.101 213.00439
211.10133 1379.101 213.00439
216.37878 1379.101 213.00439
223.64473 1371.5581 239.13428
228.96953 1371.5581 239.13428
234.29451 1371.5581 239.13428
239.61931 1371.5581 239.13428
244.94411 1371.5581 239.13428
248.04411 1379.101 213.00439
253.32158 1379.101 213.00439
-156.9584 1381.5486 185.79785
-151.72644 1381.5486 185.79785
-146.49446 1381.5486 185.79785
-140.03175 1388.854 160.65356
-134.84538 1388.854 160.65356
-129.65901 1388.854 160.65356
-124.47263 1388.854 160.65356
-118.27808 1395.8787 136.47632
-113.13563 1395.8787 136.47632
-107.99309 1395.8787 136.47632
-102.85054 1395.8787 136.47632
-97.707985 1395.8787 136.47632
-92.565445 1395.8787 136.47632
-87.422989 1395.8787 136.47632
-82.280449 1395.8787 136.47632
-76.4804 1402.9032 112.29907
-71.381691 1402.9032 112.29907
-66.282974 1402.9032 112.29907
-61.184364 1402.9032 112.29907
-56.085648 1402.9032 112.29907
-50.548603 1409.9279 88.121582
-45.493725 1409.9279 88.121582
-40.438843 1409.9279 88.121582
-35.38406 1409.9279 88.121582
-30.329182 1409.9279 88.121582
-25.493467 1402.9032 112.29907
-20.570087 1395.8787 136.47632
-15.427542 1395.8787 136.47632
-10.285093 1395.8787 136.47632
-5.1425467 1395.8787 136.47632
0 1395.8787 136.47632
5.1424484 1395.8787 136.47632
10.285093 1395.8787 136.47632
15.427542 1395.8787 136.47632
20.570187 1395.8787 136.47632
25.712635 1395.8787 136.47632
30.855083 1395.8787 136.47632
35.997726 1395.8787 136.47632
41.140175 1395.8787 136.47632
46.282822 1395.8787 136.47632
51.42527 1395.8787 136.47632
56.567715 1395.8787 136.47632
61.710361 1395.8787 136.47632
66.852806 1395.8787 136.47632
71.995453 1395.8787 136.47632
77.137901 1395.8787 136.47632
82.28035 1395.8787 136.47632
87.422989 1395.8787 136.47632
93.354446 1388.854 160.65356
98.540924 1388.854 160.65356
103.7272 1388.854 160.65356
108.91348 1388.854 160.65356
114.09996 1388.854 160.65356
119.28625 1388.854 160.65356
124.47272 1388.854 160.65356
129.65901 1388.854 160.65356
134.84529 1388.854 160.65356
140.03175 1388.854 160.65356
145.21805 1388.854 160.65356
150.40451 1388.854 160.65356
155.59081 1388.854 160.65356
160.7771 1388.854 160.65356
165.96358 1388.854 160.65356
171.14984 1388.854 160.65356
176.33632 1388.854 160.65356
183.11813 1381.5486 185.79785
188.35001 1381.5486 185.79785
193.58208 1381.5486 185.79785
198.81393 1381.5486 185.79785
204.04601 1381.5486 185.79785
211.10133 1374.243 210.94238
216.37878 1374.243 210.94238
221.65645 1374.243 210.94238
226.93391 1374.243 210.94238
234.29451 1366.6565 237.05371
239.61931 1366.6565 237.05371
242.76645 1374.243 210.94238
248.04411 1374.243 210.94238
253.32158 1374.243 210.94238
258.59924 1374.243 210.94238
-156.9584 1376.7325 183.75366
-151.72644 1376.7325 183.75366
-145.21805 1384.08 158.6272
-140.03175 1384.08 158.6272
-134.84538 1384.08 158.6272
-129.65901 1384.08 158.6272
-123.42062 1391.1449 134.46704
-118.27808 1391.1449 134.46704
-113.13563 1391.1449 134.46704
-107.99309 1391.1449 134.46704
-102.85054 1391.1449 134.46704
-97.707985 1391.1449 134.46704
-92.565445 1391.1449 134.46704
-87.422989 1391.1449 134.46704
-82.280449 1391.1449 134.46704
-77.137901 1391.1449 134.46704
-71.381691 1398.2098 110.30664
-66.282974 1398.2098 110.30664
-61.184364 1398.2098 110.30664
-56.085648 1398.2098 110.30664
-50.548603 1405.2747 86.146484
-45.493725 1405.2747 86.146484
-40.438843 1405.2747 86.146484
-35.38406 1405.2747 86.146484
-30.329182 1405.2747 86.146484
-25.493467 1398.2098 110.30664
-20.570087 1391.1449 134.46704
-15.427542 1391.1449 134.46704
-10.285093 1391.1449 134.46704
-5.1425467 1391.1449 134.46704
0 1391.1449 134.46704
5.1424484 1391.1449 134.46704
10.285093 1391.1449 134.46704
15.427542 1391.1449 134.46704
20.570187 1391.1449 134.46704
25.712635 1391.1449 134.46704
30.855083 1391.1449 134.46704
35.997726 1391.1449 134.46704
41.140175 1391.1449 134.46704
46.282822 1391.1449 134.46704
51.42527 1391.1449 134.46704
56.567715 1391.1449 134.46704
61.710361 1391.1449 134.46704
66.852806 1391.1449 134.46704
71.995453 1391.1449 134.46704
77.137901 1391.1449 134.46704
82.28035 1391.1449 134.46704
87.422989 1391.1449 134.46704
92.565445 1391.1449 134.46704
97.708092 1391.1449 134.46704
102.85054 1391.1449 134.46704
107.99298 1391.1449 134.46704
113.13563 1391.1449 134.46704
118.27808 1391.1449 134.46704
124.47272 1384.08 158.6272
129.65901 1384.08 158.6272
133.70561 1391.1449 134.46704
138.84827 1391.1449 134.46704
145.21805 1384.08 158.6272
150.40451 1384.08 158.6272
155.59081 1384.08 158.6272
160.7771 1384.08 158.6272
165.96358 1384.08 158.6272
171.14984 1384.08 158.6272
176.33632 1384.08 158.6272
181.52261 1384.08 158.6272
188.35001 1376.7325 183.75366
193.58208 1376.7325 183.75366
198.81393 1376.7325 183.75366
204.04601 1376.7325 183.75366
209.27788 1376.7325 183.75366
216.37878 1369.3849 208.88013
221.65645 1369.3849 208.88013
226.93391 1369.3849 208.88013
232.21156 1369.3849 208.88013
239.61931 1361.7549 234.9729
242.76645 1369.3849 208.88013
248.04411 1369.3849 208.88013
253.32158 1369.3849 208.88013
258.59924 1369.3849 208.88013
263.87668 1369.3849 208.88013
269.15411 1369.3849 208.88013
-167.42235 1371.9165 181.70947
-162.19038 1371.9165 181.70947
-156.9584 1371.9165 181.70947
-151.72644 1371.9165 181.70947
-145.21805 1379.3059 156.60059
-140.03175 1379.3059 156.60059
-134.84538 1379.3059 156.60059
-129.65901 1379.3059 156.60059
-123.42062 1386.4111 132.45752
-118.27808 1386.4111 132.45752
-113.13563 1386.4111 132.45752
-107.99309 1386.4111 132.45752
-102.85054 1386.4111 132.45752
-97.707985 1386.4111 132.45752
-92.565445 1386.4111 132.45752
-87.422989 1386.4111 132.45752
-82.280449 1386.4111 132.45752
-77.137901 1386.4111 132.45752
-71.381691 1393.5165 108.31445
-66.282974 1393.5165 108.31445
-61.184364 1393.5165 108.31445
-56.085648 1393.5165 108.31445
-50.548603 1400.6217 84.171387
-45.493725 1400.6217 84.171387
-40.438843 1400.6217 84.171387
-35.38406 1400.6217 84.171387
-30.329182 1400.6217 84.171387
-25.493467 1393.5165 108.31445
-20.570087 1386.4111 132.45752
-15.427542 1386.4111 132.45752
-10.285093 1386.4111 132.45752
-5.1425467 1386.4111 132.45752
0 1386.4111 132.45752
5.1424484 1386.4111 132.45752
10.37276 1379.3059 156.60059
15.559041 1379.3059 156.60059
20.74552 1379.3059 156.60059
25.712635 1386.4111 132.45752
30.855083 1386.4111 132.45752
35.997726 1386.4111 132.45752
41.140175 1386.4111 132.45752
46.282822 1386.4111 132.45752
51.42527 1386.4111 132.45752
56.567715 1386.4111 132.45752
61.710361 1386.4111 132.45752
66.852806 1386.4111 132.45752
71.995453 1386.4111 132.45752
77.137901 1386.4111 132.45752
82.28035 1386.4111 132.45752
87.422989 1386.4111 132.45752
92.565445 1386.4111 132.45752
97.708092 1386.4111 132.45752
102.85054 1386.4111 132.45752
107.99298 1386.4111 132.45752
113.13563 1386.4111 132.45752
118.27808 1386.4111 132.45752
123.42072 1386.4111 132.45752
128.56317 1386.4111 132.45752
133.70561 1386.4111 132.45752
138.84827 1386.4111 132.45752
143.99071 1386.4111 132.45752
149.13335 1386.4111 132.45752
154.2758 1386.4111 132.45752
160.7771 1379.3059 156.60059
165.96358 1379.3059 156.60059
171.14984 1379.3059 156.60059
176.33632 1379.3059 156.60059
181.52261 1379.3059 156.60059
188.35001 1371.9165 181.70947
193.58208 1371.9165 181.70947
198.81393 1371.9165 181.70947
204.04601 1371.9165 181.70947
209.27788 1371.9165 181.70947
216.37878 1364.527 206.81812
221.65645 1364.527 206.81812
226.93391 1364.527 206.81812
232.21156 1364.527 206.81812
237.48901 1364.527 206.81812
242.76645 1364.527 206.81812
248.04411 1364.527 206.81812
253.32158 1364.527 206.81812
258.59924 1364.527 206.81812
263.87668 1364.527 206.81812
269.15411 1364.527 206.81812
276.89346 1356.8533 232.89233
-167.42235 1367.1005 179.66504
-162.19038 1367.1005 179.66504
-156.9584 1367.1005 179.66504
-151.72644 1367.1005 179.66504
-146.49446 1367.1005 179.66504
-140.03175 1374.5317 154.57422
-134.84538 1374.5317 154.57422
-129.65901 1374.5317 154.57422
-123.42062 1381.6775 130.44824
-118.27808 1381.6775 130.44824
-113.13563 1381.6775 130.44824
-107.99309 1381.6775 130.44824
-102.85054 1381.6775 130.44824
-97.707985 1381.6775 130.44824
-92.565445 1381.6775 130.44824
-87.422989 1381.6775 130.44824
-82.280449 1381.6775 130.44824
-77.137901 1381.6775 130.44824
-71.381691 1388.823 106.32227
-66.282974 1388.823 106.32227
-61.184364 1388.823 106.32227
-56.085648 1388.823 106.32227
-50.548603 1395.9688 82.196289
-45.493725 1395.9688 82.196289
-40.438843 1395.9688 82.196289
-35.38406 1395.9688 82.196289
-30.329182 1395.9688 82.196289
-25.493467 1388.823 106.32227
-20.570087 1381.6775 130.44824
-15.427542 1381.6775 130.44824
-10.285093 1381.6775 130.44824
-5.1425467 1381.6775 130.44824
0 1381.6775 130.44824
5.1424484 1381.6775 130.44824
10.37276 1374.5317 154.57422
15.559041 1374.5317 154.57422
20.74552 1374.5317 154.57422
25.931801 1374.5317 154.57422
30.855083 1381.6775 130.44824
35.997726 1381.6775 130.44824
41.140175 1381.6775 130.44824
46.282822 1381.6775 130.44824
51.42527 1381.6775 130.44824
56.567715 1381.6775 130.44824
61.710361 1381.6775 130.44824
66.852806 1381.6775 130.44824
71.995453 1381.6775 130.44824
77.137901 1381.6775 130.44824
82.28035 1381.6775 130.44824
87.422989 1381.6775 130.44824
92.565445 1381.6775 130.44824
97.708092 1381.6775 130.44824
102.85054 1381.6775 130.44824
107.99298 1381.6775 130.44824
113.13563 1381.6775 130.44824
118.27808 1381.6775 130.44824
123.42072 1381.6775 130.44824
128.56317 1381.6775 130.44824
133.70561 1381.6775 130.44824
138.84827 1381.6775 130.44824
143.99071 1381.6775 130.44824
149.13335 1381.6775 130.44824
154.2758 1381.6775 130.44824
160.7771 1374.5317 154.57422
165.96358 1374.5317 154.57422
171.14984 1374.5317 154.57422
176.33632 1374.5317 154.57422
183.11813 1367.1005 179.66504
188.35001 1367.1005 179.66504
193.58208 1367.1005 179.66504
198.81393 1367.1005 179.66504
204.04601 1367.1005 179.66504
209.27788 1367.1005 179.66504
214.50974 1367.1005 179.66504
221.65645 1359.6689 204.7561
226.93391 1359.6689 204.7561
232.21156 1359.6689 204.7561
237.48901 1359.6689 204.7561
242.76645 1359.6689 204.7561
248.04411 1359.6689 204.7561
253.32158 1359.6689 204.7561
260.91888 1351.9518 230.81177
266.24368 1351.9518 230.81177
271.56848 1351.9518 230.81177
276.89346 1351.9518 230.81177
284.72726 1344.2344 256.86792
290.09964 1344.2344 256.86792
-177.88617 1362.2844 177.62085
-172.65421 1362.2844 177.62085
-167.42235 1362.2844 177.62085
-162.19038 1362.2844 177.62085
-156.9584 1362.2844 177.62085
-151.72644 1362.2844 177.62085
-146.49446 1362.2844 177.62085
-140.03175 1369.7577 152.54785
-134.84538 1369.7577 152.54785
-129.65901 1369.7577 152.54785
-123.42062 1376.9437 128.43896
-118.27808 1376.9437 128.43896
-113.13563 1376.9437 128.43896
-107.99309 1376.9437 128.43896
-102.85054 1376.9437 128.43896
-97.707985 1376.9437 128.43896
-92.565445 1376.9437 128.43896
-87.422989 1376.9437 128.43896
-82.280449 1376.9437 128.43896
-77.137901 1376.9437 128.43896
-71.995354 1376.9437 128.43896
-66.852806 1376.9437 128.43896
-61.184364 1384.1296 104.33008
-56.085648 1384.1296 104.33008
-50.548603 1391.3157 80.221191
-45.493725 1391.3157 80.221191
-40.438843 1391.3157 80.221191
-35.690891 1384.1296 104.33008
-30.592182 1384.1296 104.33008
-25.493467 1384.1296 104.33008
-20.570087 1376.9437 128.43896
-15.427542 1376.9437 128.43896
-10.285093 1376.9437 128.43896
-5.1425467 1376.9437 128.43896
0 1376.9437 128.43896
5.1424484 1376.9437 128.43896
10.285093 1376.9437 128.43896
15.427542 1376.9437 128.43896
20.570187 1376.9437 128.43896
25.712635 1376.9437 128.43896
30.855083 1376.9437 128.43896
35.997726 1376.9437 128.43896
41.140175 1376.9437 128.43896
46.282822 1376.9437 128.43896
51.42527 1376.9437 128.43896
56.567715 1376.9437 128.43896
61.710361 1376.9437 128.43896
66.852806 1376.9437 128.43896
71.995453 1376.9437 128.43896
77.137901 1376.9437 128.43896
82.28035 1376.9437 128.43896
87.422989 1376.9437 128.43896
92.565445 1376.9437 128.43896
97.708092 1376.9437 128.43896
102.85054 1376.9437 128.43896
107.99298 1376.9437 128.43896
113.13563 1376.9437 128.43896
118.27808 1376.9437 128.43896
123.42072 1376.9437 128.43896
128.56317 1376.9437 128.43896
133.70561 1376.9437 128.43896
138.84827 1376.9437 128.43896
143.99071 1376.9437 128.43896
149.13335 1376.9437 128.43896
154.2758 1376.9437 128.43896
160.7771 1369.7577 152.54785
165.96358 1369.7577 152.54785
171.14984 1369.7577 152.54785
176.33632 1369.7577 152.54785
181.52261 1369.7577 152.54785
186.70889 1369.7577 152.54785
191.89537 1369.7577 152.54785
197.08165 1369.7577 152.54785
202.26811 1369.7577 152.54785
209.27788 1362.2844 177.62085
214.50974 1362.2844 177.62085
219.74182 1362.2844 177.62085
226.93391 1354.811 202.69385
232.21156 1354.811 202.69385
237.48901 1354.811 202.69385
242.76645 1354.811 202.69385
248.04411 1354.811 202.69385
255.59389 1347.0502 228.7312
260.91888 1347.0502 228.7312
266.24368 1347.0502 228.7312
271.56848 1347.0502 228.7312
276.89346 1347.0502 228.7312
282.21826 1347.0502 228.7312
290.09964 1339.2893 254.7688
295.47174 1339.2893 254.7688
-177.88617 1357.4684 175.57666
-172.65421 1357.4684 175.57666
-167.42235 1357.4684 175.57666
-162.19038 1357.4684 175.57666
-156.9584 1357.4684 175.57666
-151.72644 1357.4684 175.57666
-146.49446 1357.4684 175.57666
-140.03175 1364.9836 150.52124
-134.84538 1364.9836 150.52124
-129.65901 1364.9836 150.52124
-123.42062 1372.21 126.42944
-118.27808 1372.21 126.42944
-113.13563 1372.21 126.42944
-107.99309 1372.21 126.42944
-102.85054 1372.21 126.42944
-97.707985 1372.21 126.42944
-92.565445 1372.21 126.42944
-87.422989 1372.21 126.42944
-82.280449 1372.21 126.42944
-77.137901 1372.21 126.42944
-71.381691 1379.4363 102.33789
-66.282974 1379.4363 102.33789
-61.184364 1379.4363 102.33789
-56.085648 1379.4363 102.33789
-50.986935 1379.4363 102.33789
-45.493725 1386.6627 78.246094
-40.438843 1386.6627 78.246094
-35.690891 1379.4363 102.33789
-30.592182 1379.4363 102.33789
-25.493467 1379.4363 102.33789
-20.570087 1372.21 126.42944
-15.427542 1372.21 126.42944
-10.197426 1379.4363 102.33789
-5.0987129 1379.4363 102.33789
0 1372.21 126.42944
5.1424484 1372.21 126.42944
10.285093 1372.21 126.42944
15.427542 1372.21 126.42944
20.570187 1372.21 126.42944
25.712635 1372.21 126.42944
30.855083 1372.21 126.42944
35.997726 1372.21 126.42944
41.140175 1372.21 126.42944
46.282822 1372.21 126.42944
51.42527 1372.21 126.42944
56.567715 1372.21 126.42944
61.710361 1372.21 126.42944
66.852806 1372.21 126.42944
71.995453 1372.21 126.42944
77.137901 1372.21 126.42944
82.28035 1372.21 126.42944
87.422989 1372.21 126.42944
92.565445 1372.21 126.42944
97.708092 1372.21 126.42944
102.85054 1372.21 126.42944
107.99298 1372.21 126.42944
113.13563 1372.21 126.42944
118.27808 1372.21 126.42944
123.42072 1372.21 126.42944
128.56317 1372.21 126.42944
133.70561 1372.21 126.42944
138.84827 1372.21 126.42944
143.99071 1372.21 126.42944
149.13335 1372.21 126.42944
154.2758 1372.21 126.42944
160.7771 1364.9836 150.52124
165.96358 1364.9836 150.52124
171.14984 1364.9836 150.52124
176.33632 1364.9836 150.52124
181.52261 1364.9836 150.52124
186.70889 1364.9836 150.52124
191.89537 1364.9836 150.52124
197.08165 1364.9836 150.52124
202.26811 1364.9836 150.52124
209.27788 1357.4684 175.57666
214.50974 1357.4684 175.57666
219.74182 1357.4684 175.57666
226.93391 1349.953 200.63184
232.21156 1349.953 200.63184
237.48901 1349.953 200.63184
242.76645 1349.953 200.63184
248.04411 1349.953 200.63184
255.59389 1342.1487 226.65063
260.91888 1342.1487 226.65063
266.24368 1342.1487 226.65063
271.56848 1342.1487 226.65063
276.89346 1342.1487 226.65063
282.21826 1342.1487 226.65063
290.09964 1334.3441 252.66968
298.17188 1326.2507 279.65234
-188.35011 1352.6523 173.53223
-183.11813 1352.6523 173.53223
-177.88617 1352.6523 173.53223
-171.14984 1360.2096 148.49487
-165.96358 1360.2096 148.49487
-162.19038 1352.6523 173.53223
-156.9584 1352.6523 173.53223
-151.72644 1352.6523 173.53223
-145.21805 1360.2096 148.49487
-140.03175 1360.2096 148.49487
-134.84538 1360.2096 148.49487
-129.65901 1360.2096 148.49487
-123.42062 1367.4763 124.42017
-118.27808 1367.4763 124.42017
-113.13563 1367.4763 124.42017
-107.99309 1367.4763 124.42017
-102.85054 1367.4763 124.42017
-97.707985 1367.4763 124.42017
-92.565445 1367.4763 124.42017
-87.422989 1367.4763 124.42017
-82.280449 1367.4763 124.42017
-77.137901 1367.4763 124.42017
-71.381691 1374.7429 100.3457
-66.282974 1374.7429 100.3457
-61.184364 1374.7429 100.3457
-56.085648 1374.7429 100.3457
-50.986935 1374.7429 100.3457
-45.493725 1382.0096 76.270996
-40.438843 1382.0096 76.270996
-35.38406 1382.0096 76.270996
-30.329182 1382.0096 76.270996
-25.493467 1374.7429 100.3457
-20.570087 1367.4763 124.42017
-15.296041 1374.7429 100.3457
-10.197426 1374.7429 100.3457
-5.0987129 1374.7429 100.3457
0 1367.4763 124.42017
5.1424484 1367.4763 124.42017
10.285093 1367.4763 124.42017
15.427542 1367.4763 124.42017
20.570187 1367.4763 124.42017
25.712635 1367.4763 124.42017
30.855083 1367.4763 124.42017
35.997726 1367.4763 124.42017
41.140175 1367.4763 124.42017
46.282822 1367.4763 124.42017
51.42527 1367.4763 124.42017
56.567715 1367.4763 124.42017
61.710361 1367.4763 124.42017
66.852806 1367.4763 124.42017
71.995453 1367.4763 124.42017
77.137901 1367.4763 124.42017
82.28035 1367.4763 124.42017
87.422989 1367.4763 124.42017
92.565445 1367.4763 124.42017
97.708092 1367.4763 124.42017
102.85054 1367.4763 124.42017
107.07249 1374.7429 100.3457
112.1713 1374.7429 100.3457
118.27808 1367.4763 124.42017
123.42072 1367.4763 124.42017
128.56317 1367.4763 124.42017
133.70561 1367.4763 124.42017
138.84827 1367.4763 124.42017
143.99071 1367.4763 124.42017
149.13335 1367.4763 124.42017
155.59081 1360.2096 148.49487
160.7771 1360.2096 148.49487
165.96358 1360.2096 148.49487
171.14984 1360.2096 148.49487
176.33632 1360.2096 148.49487
181.52261 1360.2096 148.49487
186.70889 1360.2096 148.49487
191.89537 1360.2096 148.49487
197.08165 1360.2096 148.49487
202.26811 1360.2096 148.49487
207.45441 1360.2096 148.49487
212.6407 1360.2096 148.49487
219.74182 1352.6523 173.53223
224.97366 1352.6523 173.53223
232.21156 1345.095 198.56982
237.48901 1345.095 198.56982
242.76645 1345.095 198.56982
248.04411 1345.095 198.56982
253.32158 1345.095 198.56982
260.91888 1337.2471 224.57007
266.24368 1337.2471 224.57007
271.56848 1337.2471 224.57007
276.89346 1337.2471 224.57007
282.21826 1337.2471 224.57007
290.09964 1329.3989 250.57056
298.17188 1321.2604 277.53418
-188.35011 1347.8363 171.48804
-183.11813 1347.8363 171.48804
-177.88617 1347.8363 171.48804
-171.14984 1355.4355 146.46826
-165.96358 1355.4355 146.46826
-162.19038 1347.8363 171.48804
-156.9584 1347.8363 171.48804
-151.72644 1347.8363 171.48804
-145.21805 1355.4355 146.46826
-140.03175 1355.4355 146.46826
-134.84538 1355.4355 146.46826
-129.65901 1355.4355 146.46826
-123.42062 1362.7426 122.41089
-118.27808 1362.7426 122.41089
-113.13563 1362.7426 122.41089
-107.99309 1362.7426 122.41089
-102.85054 1362.7426 122.41089
-97.707985 1362.7426 122.41089
-92.565445 1362.7426 122.41089
-87.422989 1362.7426 122.41089
-82.280449 1362.7426 122.41089
-76.4804 1370.0496 98.353516
-71.381691 1370.0496 98.353516
-66.282974 1370.0496 98.353516
-61.184364 1370.0496 98.353516
-56.085648 1370.0496 98.353516
-50.986935 1370.0496 98.353516
-45.493725 1377.3567 74.295898
-40.438843 1377.3567 74.295898
-35.38406 1377.3567 74.295898
-30.329182 1377.3567 74.295898
-25.493467 1370.0496 98.353516
-20.570087 1362.7426 122.41089
-15.296041 1370.0496 98.353516
-10.197426 1370.0496 98.353516
-5.0987129 1370.0496 98.353516
0 1370.0496 98.353516
5.0986156 1370.0496 98.353516
10.197426 1370.0496 98.353516
15.296041 1370.0496 98.353516
20.394852 1370.0496 98.353516
25.493467 1370.0496 98.353516
30.855083 1362.7426 122.41089
35.997726 1362.7426 122.41089
41.140175 1362.7426 122.41089
46.282822 1362.7426 122.41089
51.42527 1362.7426 122.41089
56.567715 1362.7426 122.41089
61.710361 1362.7426 122.41089
67.422646 1355.4355 146.46826
71.995453 1362.7426 122.41089
77.137901 1362.7426 122.41089
82.28035 1362.7426 122.41089
87.422989 1362.7426 122.41089
92.565445 1362.7426 122.41089
97.708092 1362.7426 122.41089
102.85054 1362.7426 122.41089
107.07249 1370.0496 98.353516
112.1713 1370.0496 98.353516
118.27808 1362.7426 122.41089
123.42072 1362.7426 122.41089
128.56317 1362.7426 122.41089
133.70561 1362.7426 122.41089
138.84827 1362.7426 122.41089
143.99071 1362.7426 122.41089
150.40451 1355.4355 146.46826
155.59081 1355.4355 146.46826
160.7771 1355.4355 146.46826
165.96358 1355.4355 146.46826
171.14984 1355.4355 146.46826
176.33632 1355.4355 146.46826
179.98843 1362.7426 122.41089
185.13089 1362.7426 122.41089
190.27354 1362.7426 122.41089
197.08165 1355.4355 146.46826
202.26811 1355.4355 146.46826
207.45441 1355.4355 146.46826
212.6407 1355.4355 146.46826
219.74182 1347.8363 171.48804
224.97366 1347.8363 171.48804
230.20573 1347.8363 171.48804
235.43761 1347.8363 171.48804
242.76645 1340.2369 196.50757
248.04411 1340.2369 196.50757
253.32158 1340.2369 196.50757
258.59924 1340.2369 196.50757
263.87668 1340.2369 196.50757
271.56848 1332.3455 222.4895
276.89346 1332.3455 222.4895
282.21826 1332.3455 222.4895
287.54324 1332.3455 222.4895
295.47174 1324.4539 248.47168
303.59311 1316.27 275.41577
309.01453 1316.27 275.41577
-186.70898 1350.6615 144.44189
-181.52261 1350.6615 144.44189
-176.33623 1350.6615 144.44189
-171.14984 1350.6615 144.44189
-165.96358 1350.6615 144.44189
-160.77718 1350.6615 144.44189
-156.9584 1343.0203 169.4436
-151.72644 1343.0203 169.4436
-145.21805 1350.6615 144.44189
-140.03175 1350.6615 144.44189
-134.84538 1350.6615 144.44189
-129.65901 1350.6615 144.44189
-124.47263 1350.6615 144.44189
-118.27808 1358.0088 120.40161
-113.13563 1358.0088 120.40161
-107.99309 1358.0088 120.40161
-102.85054 1358.0088 120.40161
-97.707985 1358.0088 120.40161
-92.565445 1358.0088 120.40161
-87.422989 1358.0088 120.40161
-82.280449 1358.0088 120.40161
-76.4804 1365.3562 96.361328
-71.381691 1365.3562 96.361328
-66.282974 1365.3562 96.361328
-61.184364 1365.3562 96.361328
-56.085648 1365.3562 96.361328
-50.986935 1365.3562 96.361328
-45.888226 1365.3562 96.361328
-40.789509 1365.3562 96.361328
-35.690891 1365.3562 96.361328
-30.592182 1365.3562 96.361328
-25.493467 1365.3562 96.361328
-20.394754 1365.3562 96.361328
-15.296041 1365.3562 96.361328
-10.197426 1365.3562 96.361328
-5.0987129 1365.3562 96.361328
0 1365.3562 96.361328
5.0986156 1365.3562 96.361328
10.197426 1365.3562 96.361328
15.296041 1365.3562 96.361328
20.394852 1365.3562 96.361328
25.493467 1365.3562 96.361328
30.855083 1358.0088 120.40161
35.997726 1358.0088 120.40161
41.140175 1358.0088 120.40161
46.282822 1358.0088 120.40161
51.42527 1358.0088 120.40161
56.567715 1358.0088 120.40161
61.710361 1358.0088 120.40161
67.422646 1350.6615 144.44189
71.995453 1358.0088 120.40161
77.137901 1358.0088 120.40161
82.28035 1358.0088 120.40161
87.422989 1358.0088 120.40161
92.565445 1358.0088 120.40161
97.708092 1358.0088 120.40161
102.85054 1358.0088 120.40161
107.99298 1358.0088 120.40161
113.13563 1358.0088 120.40161
118.27808 1358.0088 120.40161
123.42072 1358.0088 120.40161
128.56317 1358.0088 120.40161
134.84529 1350.6615 144.44189
140.03175 1350.6615 144.44189
145.21805 1350.6615 144.44189
150.40451 1350.6615 144.44189
155.59081 1350.6615 144.44189
160.7771 1350.6615 144.44189
165.96358 1350.6615 144.44189
171.14984 1350.6615 144.44189
176.33632 1350.6615 144.44189
179.98843 1358.0088 120.40161
185.13089 1358.0088 120.40161
190.27354 1358.0088 120.40161
197.08165 1350.6615 144.44189
202.26811 1350.6615 144.44189
207.45441 1350.6615 144.44189
212.6407 1350.6615 144.44189
219.74182 1343.0203 169.4436
224.97366 1343.0203 169.4436
230.20573 1343.0203 169.4436
235.43761 1343.0203 169.4436
242.76645 1335.379 194.44556
248.04411 1335.379 194.44556
253.32158 1335.379 194.44556
258.59924 1335.379 194.44556
263.87668 1335.379 194.44556
271.56848 1327.4438 220.40894
276.89346 1327.4438 220.40894
282.21826 1327.4438 220.40894
287.54324 1327.4438 220.40894
295.47174 1319.5087 246.37256
300.84387 1319.5087 246.37256
306.21622 1319.5087 246.37256
-186.70898 1345.8875 142.41528
-181.52261 1345.8875 142.41528
-176.33623 1345.8875 142.41528
-171.14984 1345.8875 142.41528
-165.96358 1345.8875 142.41528
-160.77718 1345.8875 142.41528
-156.9584 1338.2042 167.39941
-151.72644 1338.2042 167.39941
-145.21805 1345.8875 142.41528
-140.03175 1345.8875 142.41528
-134.84538 1345.8875 142.41528
-129.65901 1345.8875 142.41528
-124.47263 1345.8875 142.41528
-118.27808 1353.2751 118.39209
-113.13563 1353.2751 118.39209
-107.99309 1353.2751 118.39209
-102.85054 1353.2751 118.39209
-97.707985 1353.2751 118.39209
-92.565445 1353.2751 118.39209
-87.422989 1353.2751 118.39209
-82.280449 1353.2751 118.39209
-76.4804 1360.6628 94.368896
-71.381691 1360.6628 94.368896
-66.282974 1360.6628 94.368896
-61.184364 1360.6628 94.368896
-56.085648 1360.6628 94.368896
-50.986935 1360.6628 94.368896
-45.493725 1368.0505 70.345703
-40.438843 1368.0505 70.345703
-35.38406 1368.0505 70.345703
-30.592182 1360.6628 94.368896
-25.493467 1360.6628 94.368896
-20.394754 1360.6628 94.368896
-15.296041 1360.6628 94.368896
-10.197426 1360.6628 94.368896
-5.0987129 1360.6628 94.368896
0 1360.6628 94.368896
5.0986156 1360.6628 94.368896
10.197426 1360.6628 94.368896
15.296041 1360.6628 94.368896
20.394852 1360.6628 94.368896
25.493467 1360.6628 94.368896
30.592083 1360.6628 94.368896
35.997726 1353.2751 118.39209
41.140175 1353.2751 118.39209
46.282822 1353.2751 118.39209
51.42527 1353.2751 118.39209
56.567715 1353.2751 118.39209
61.710361 1353.2751 118.39209
67.422646 1345.8875 142.41528
71.995453 1353.2751 118.39209
77.137901 1353.2751 118.39209
82.981682 1345.8875 142.41528
88.168159 1345.8875 142.41528
92.565445 1353.2751 118.39209
97.708092 1353.2751 118.39209
102.85054 1353.2751 118.39209
107.99298 1353.2751 118.39209
113.13563 1353.2751 118.39209
118.27808 1353.2751 118.39209
123.42072 1353.2751 118.39209
128.56317 1353.2751 118.39209
134.84529 1345.8875 142.41528
140.03175 1345.8875 142.41528
145.21805 1345.8875 142.41528
150.40451 1345.8875 142.41528
155.59081 1345.8875 142.41528
160.7771 1345.8875 142.41528
165.96358 1345.8875 142.41528
171.14984 1345.8875 142.41528
176.33632 1345.8875 142.41528
179.98843 1353.2751 118.39209
185.13089 1353.2751 118.39209
190.27354 1353.2751 118.39209
197.08165 1345.8875 142.41528
202.26811 1345.8875 142.41528
207.45441 1345.8875 142.41528
214.50974 1338.2042 167.39941
219.74182 1338.2042 167.39941
224.97366 1338.2042 167.39941
230.20573 1338.2042 167.39941
235.43761 1338.2042 167.39941
240.66948 1338.2042 167.39941
248.04411 1330.521 192.38354
253.32158 1330.521 192.38354
258.59924 1330.521 192.38354
263.87668 1330.521 192.38354
271.56848 1322.5424 218.32837
276.89346 1322.5424 218.32837
282.21826 1322.5424 218.32837
287.54324 1322.5424 218.32837
292.86804 1322.5424 218.32837
300.84387 1314.5636 244.27344
306.21622 1314.5636 244.27344
-198.81393 1333.3882 165.35522
-193.58208 1333.3882 165.35522
-188.35011 1333.3882 165.35522
-183.11813 1333.3882 165.35522
-176.33623 1341.1133 140.38892
-171.14984 1341.1133 140.38892
-165.96358 1341.1133 140.38892
-160.77718 1341.1133 140.38892
-155.59081 1341.1133 140.38892
-150.40443 1341.1133 140.38892
-145.21805 1341.1133 140.38892
-140.03175 1341.1133 140.38892
-134.84538 1341.1133 140.38892
-129.65901 1341.1133 140.38892
-124.47263 1341.1133 140.38892
-118.27808 1348.5414 116.38281
-113.13563 1348.5414 116.38281
-107.99309 1348.5414 116.38281
-102.85054 1348.5414 116.38281
-97.707985 1348.5414 116.38281
-92.565445 1348.5414 116.38281
-87.422989 1348.5414 116.38281
-82.280449 1348.5414 116.38281
-76.4804 1355.9695 92.376709
-71.381691 1355.9695 92.376709
-66.282974 1355.9695 92.376709
-61.184364 1355.9695 92.376709
-55.603481 1363.3976 68.370605
-50.548603 1363.3976 68.370605
-45.493725 1363.3976 68.370605
-40.438843 1363.3976 68.370605
-35.38406 1363.3976 68.370605
-30.592182 1355.9695 92.376709
-25.493467 1355.9695 92.376709
-20.394754 1355.9695 92.376709
-15.296041 1355.9695 92.376709
-10.197426 1355.9695 92.376709
-5.0987129 1355.9695 92.376709
0 1355.9695 92.376709
5.0986156 1355.9695 92.376709
10.197426 1355.9695 92.376709
15.296041 1355.9695 92.376709
20.394852 1355.9695 92.376709
25.493467 1355.9695 92.376709
30.592083 1355.9695 92.376709
35.997726 1348.5414 116.38281
41.140175 1348.5414 116.38281
46.282822 1348.5414 116.38281
51.42527 1348.5414 116.38281
56.567715 1348.5414 116.38281
61.710361 1348.5414 116.38281
67.422646 1341.1133 140.38892
72.609123 1341.1133 140.38892
77.795403 1341.1133 140.38892
82.981682 1341.1133 140.38892
88.168159 1341.1133 140.38892
93.354446 1341.1133 140.38892
98.540924 1341.1133 140.38892
103.7272 1341.1133 140.38892
107.99298 1348.5414 116.38281
113.13563 1348.5414 116.38281
118.27808 1348.5414 116.38281
123.42072 1348.5414 116.38281
129.65901 1341.1133 140.38892
134.84529 1341.1133 140.38892
140.03175 1341.1133 140.38892
145.21805 1341.1133 140.38892
150.40451 1341.1133 140.38892
155.59081 1341.1133 140.38892
159.41826 1348.5414 116.38281
164.5609 1348.5414 116.38281
169.70334 1348.5414 116.38281
174.84598 1348.5414 116.38281
179.98843 1348.5414 116.38281
185.13089 1348.5414 116.38281
190.27354 1348.5414 116.38281
197.08165 1341.1133 140.38892
202.26811 1341.1133 140.38892
207.45441 1341.1133 140.38892
214.50974 1333.3882 165.35522
219.74182 1333.3882 165.35522
224.97366 1333.3882 165.35522
230.20573 1333.3882 165.35522
235.43761 1333.3882 165.35522
