ply
format ascii 1.0
comment PCL generated
element vertex 1557
property float x
property float y
property float z
element camera 0
property float view_px
property float view_py
property float view_pz
property float x_axisx
property float x_axisy
property float x_axisz
property float y_axisx
property float y_axisy
property float y_axisz
property float z_axisx
property float z_axisy
property float z_axisz
property float focal
property float scalex
property float scaley
property float centerx
property float centery
property int viewportx
property int viewporty
property float k1
property float k2
end_header
303.40918 1182.8612 46.055664
-151.9404 1036.0377 418.2771
-146.09651 1036.0377 418.2771
-140.25262 1036.0377 418.2771
-134.40874 1036.0377 418.2771
-127.29205 1047.7601 387.40283
-120.36461 1058.7721 358.40015
-113.54587 1069.7841 329.39722
-107.86855 1069.7841 329.39722
-102.19124 1069.7841 329.39722
-96.514038 1069.7841 329.39722
-90.836716 1069.7841 329.39722
-85.159401 1069.7841 329.39722
-79.482086 1069.7841 329.39722
-73.120972 1080.4408 301.33008
-66.865166 1091.0975 273.2627
-60.174423 1111.7006 218.99902
-54.21307 1121.6469 192.80322
-48.349903 1131.593 166.60693
-42.598946 1141.1842 141.34619
-37.274155 1141.1842 141.34619
-31.949263 1141.1842 141.34619
-26.624367 1141.1842 141.34619
-21.110115 1150.7751 116.08594
-15.559041 1169.2468 67.435791
-10.285093 1178.1274 44.046387
-5.1425467 1178.1274 44.046387
0 1178.1274 44.046387
5.1424484 1178.1274 44.046387
10.285093 1178.1274 44.046387
15.296041 1187.0081 20.656982
20.394852 1187.0081 20.656982
25.493467 1187.0081 20.656982
30.592083 1187.0081 20.656982
35.690891 1187.0081 20.656982
40.789509 1187.0081 20.656982
45.493816 1195.8887 -2.732666
50.548603 1195.8887 -2.732666
55.603386 1195.8887 -2.732666
60.658363 1195.8887 -2.732666
65.713142 1195.8887 -2.732666
70.178993 1204.4139 -25.186279
75.191704 1204.4139 -25.186279
80.204407 1204.4139 -25.186279
85.2173 1204.4139 -25.186279
90.230003 1204.4139 -25.186279
95.242905 1204.4139 -25.186279
100.2556 1204.4139 -25.186279
105.2683 1204.4139 -25.186279
110.2812 1204.4139 -25.186279
115.29391 1204.4139 -25.186279
120.3068 1204.4139 -25.186279
125.3195 1204.4139 -25.186279
130.3322 1204.4139 -25.186279
134.20894 1212.9393 -47.640137
139.17957 1212.9393 -47.640137
144.15038 1212.9393 -47.640137
149.121 1212.9393 -47.640137
154.09164 1212.9393 -47.640137
159.06244 1212.9393 -47.640137
164.03307 1212.9393 -47.640137
169.00388 1212.9393 -47.640137
173.9745 1212.9393 -47.640137
178.94514 1212.9393 -47.640137
183.91594 1212.9393 -47.640137
188.88657 1212.9393 -47.640137
193.85738 1212.9393 -47.640137
198.828 1212.9393 -47.640137
203.79865 1212.9393 -47.640137
208.76944 1212.9393 -47.640137
213.74007 1212.9393 -47.640137
218.71088 1212.9393 -47.640137
223.6815 1212.9393 -47.640137
228.65215 1212.9393 -47.640137
233.62294 1212.9393 -47.640137
238.59357 1212.9393 -47.640137
243.56438 1212.9393 -47.640137
248.535 1212.9393 -47.640137
253.50565 1212.9393 -47.640137
260.66461 1204.4139 -25.186279
267.90753 1195.8887 -2.732666
272.96252 1195.8887 -2.732666
280.42813 1187.0081 20.656982
285.52676 1187.0081 20.656982
293.12405 1178.1274 44.046387
298.26654 1178.1274 44.046387
-151.9404 1030.6584 415.99365
-144.65001 1042.4341 385.14209
-138.86398 1042.4341 385.14209
-133.07796 1042.4341 385.14209
-127.29205 1042.4341 385.14209
-119.22319 1064.5581 327.17896
-113.54587 1064.5581 327.17896
-107.86855 1064.5581 327.17896
-102.19124 1064.5581 327.17896
-96.514038 1064.5581 327.17896
-90.836716 1064.5581 327.17896
-85.159401 1064.5581 327.17896
-79.482086 1064.5581 327.17896
-73.120972 1075.2632 299.13232
-66.865166 1085.9684 271.08545
-60.174423 1106.665 216.86157
-54.21307 1116.6565 190.68481
-48.349903 1126.6479 164.50781
-42.598946 1136.2826 139.26562
-37.274155 1136.2826 139.26562
-31.66522 1145.9171 114.02368
-26.387667 1145.9171 114.02368
-20.927767 1155.1949 89.716553
-15.559041 1164.4727 65.409424
-10.285093 1173.3937 42.037109
-5.1425467 1173.3937 42.037109
0 1173.3937 42.037109
5.1424484 1173.3937 42.037109
10.197426 1182.3147 18.664795
15.296041 1182.3147 18.664795
20.394852 1182.3147 18.664795
25.493467 1182.3147 18.664795
30.592083 1182.3147 18.664795
35.690891 1182.3147 18.664795
40.789509 1182.3147 18.664795
45.493816 1191.2357 -4.7077637
50.548603 1191.2357 -4.7077637
55.603386 1191.2357 -4.7077637
60.658363 1191.2357 -4.7077637
65.713142 1191.2357 -4.7077637
70.178993 1199.7997 -27.14502
75.191704 1199.7997 -27.14502
80.204407 1199.7997 -27.14502
85.2173 1199.7997 -27.14502
90.230003 1199.7997 -27.14502
95.242905 1199.7997 -27.14502
100.2556 1199.7997 -27.14502
105.2683 1199.7997 -27.14502
110.2812 1199.7997 -27.14502
115.29391 1199.7997 -27.14502
120.3068 1199.7997 -27.14502
125.3195 1199.7997 -27.14502
130.3322 1199.7997 -27.14502
134.20894 1208.3638 -49.582275
139.17957 1208.3638 -49.582275
144.15038 1208.3638 -49.582275
149.121 1208.3638 -49.582275
154.09164 1208.3638 -49.582275
159.06244 1208.3638 -49.582275
164.03307 1208.3638 -49.582275
169.00388 1208.3638 -49.582275
173.9745 1208.3638 -49.582275
178.94514 1208.3638 -49.582275
183.91594 1208.3638 -49.582275
188.88657 1208.3638 -49.582275
193.85738 1208.3638 -49.582275
198.828 1208.3638 -49.582275
203.79865 1208.3638 -49.582275
208.76944 1208.3638 -49.582275
213.74007 1208.3638 -49.582275
218.71088 1208.3638 -49.582275
223.6815 1208.3638 -49.582275
228.65215 1208.3638 -49.582275
233.62294 1208.3638 -49.582275
238.59357 1208.3638 -49.582275
243.56438 1208.3638 -49.582275
248.535 1208.3638 -49.582275
253.50565 1208.3638 -49.582275
260.66461 1199.7997 -27.14502
267.90753 1191.2357 -4.7077637
272.96252 1191.2357 -4.7077637
278.0173 1191.2357 -4.7077637
285.52676 1182.3147 18.664795
293.12405 1173.3937 42.037109
298.26654 1173.3937 42.037109
-163.62804 1025.2792 413.71021
-156.22206 1037.108 382.88135
-150.43602 1037.108 382.88135
-144.65001 1037.108 382.88135
-138.86398 1037.108 382.88135
-133.07796 1037.108 382.88135
-126.09628 1048.2201 353.9209
-119.22319 1059.3322 324.96069
-113.54587 1059.3322 324.96069
-107.86855 1059.3322 324.96069
-102.19124 1059.3322 324.96069
-96.514038 1059.3322 324.96069
-90.836716 1059.3322 324.96069
-85.159401 1059.3322 324.96069
-78.745689 1070.0857 296.93457
-73.120972 1070.0857 296.93457
-66.865166 1080.8392 268.9082
-60.733734 1091.2343 241.81641
-54.21307 1111.6661 188.56665
-48.349903 1121.7028 162.40869
-42.598946 1131.381 137.18506
-37.274155 1131.381 137.18506
-31.66522 1141.0592 111.96167
-26.387667 1141.0592 111.96167
-20.927767 1150.379 87.672363
-15.427542 1168.66 40.027832
-10.285093 1168.66 40.027832
-5.1425467 1168.66 40.027832
0 1177.6213 16.672363
5.0986156 1177.6213 16.672363
10.197426 1177.6213 16.672363
15.296041 1177.6213 16.672363
20.394852 1177.6213 16.672363
25.493467 1177.6213 16.672363
30.592083 1177.6213 16.672363
35.690891 1177.6213 16.672363
40.789509 1177.6213 16.672363
45.888317 1177.6213 16.672363
50.548603 1186.5826 -6.6828613
55.603386 1186.5826 -6.6828613
60.658363 1186.5826 -6.6828613
65.713142 1186.5826 -6.6828613
70.76812 1186.5826 -6.6828613
75.191704 1195.1854 -29.103516
80.204407 1195.1854 -29.103516
85.2173 1195.1854 -29.103516
90.230003 1195.1854 -29.103516
95.242905 1195.1854 -29.103516
100.2556 1195.1854 -29.103516
105.2683 1195.1854 -29.103516
110.2812 1195.1854 -29.103516
115.29391 1195.1854 -29.103516
120.3068 1195.1854 -29.103516
125.3195 1195.1854 -29.103516
130.3322 1195.1854 -29.103516
135.34511 1195.1854 -29.103516
139.17957 1203.7883 -51.524414
144.15038 1203.7883 -51.524414
149.121 1203.7883 -51.524414
154.09164 1203.7883 -51.524414
159.06244 1203.7883 -51.524414
164.03307 1203.7883 -51.524414
169.00388 1203.7883 -51.524414
173.9745 1203.7883 -51.524414
178.94514 1203.7883 -51.524414
183.91594 1203.7883 -51.524414
188.88657 1203.7883 -51.524414
193.85738 1203.7883 -51.524414
198.828 1203.7883 -51.524414
203.79865 1203.7883 -51.524414
208.76944 1203.7883 -51.524414
213.74007 1203.7883 -51.524414
218.71088 1203.7883 -51.524414
223.6815 1203.7883 -51.524414
228.65215 1203.7883 -51.524414
233.62294 1203.7883 -51.524414
238.59357 1203.7883 -51.524414
243.56438 1203.7883 -51.524414
248.535 1203.7883 -51.524414
253.50565 1203.7883 -51.524414
260.66461 1195.1854 -29.103516
267.90753 1186.5826 -6.6828613
272.96252 1186.5826 -6.6828613
278.0173 1186.5826 -6.6828613
285.52676 1177.6213 16.672363
290.62555 1177.6213 16.672363
298.26654 1168.66 40.027832
303.40918 1168.66 40.027832
-162.00795 1031.782 380.62061
-156.22206 1031.782 380.62061
-150.43602 1031.782 380.62061
-143.29117 1042.9441 351.6814
-137.55949 1042.9441 351.6814
-131.82784 1042.9441 351.6814
-126.09628 1042.9441 351.6814
-119.22319 1054.1062 322.74243
-113.54587 1054.1062 322.74243
-107.86855 1054.1062 322.74243
-102.19124 1054.1062 322.74243
-96.514038 1054.1062 322.74243
-90.836716 1054.1062 322.74243
-85.159401 1054.1062 322.74243
-78.745689 1064.9081 294.73682
-73.120972 1064.9081 294.73682
-66.865166 1075.7101 266.7312
-60.733734 1086.152 239.65894
-54.21307 1106.6758 186.44824
-48.349903 1116.7576 160.30981
-42.598946 1126.4795 135.10449
-36.942772 1136.2012 109.89966
-31.391701 1145.563 85.62793
-25.931801 1154.9246 61.356445
-20.74542 1154.9246 61.356445
-15.427542 1163.9263 38.018311
-10.285093 1163.9263 38.018311
-5.1425467 1163.9263 38.018311
0 1172.928 14.680176
5.0986156 1172.928 14.680176
10.197426 1172.928 14.680176
15.296041 1172.928 14.680176
20.394852 1172.928 14.680176
25.493467 1172.928 14.680176
30.592083 1172.928 14.680176
35.690891 1172.928 14.680176
40.789509 1172.928 14.680176
45.888317 1172.928 14.680176
50.548603 1181.9297 -8.657959
55.603386 1181.9297 -8.657959
60.658363 1181.9297 -8.657959
65.713142 1181.9297 -8.657959
70.76812 1181.9297 -8.657959
75.191704 1190.5712 -31.062256
80.204407 1190.5712 -31.062256
85.2173 1190.5712 -31.062256
90.230003 1190.5712 -31.062256
96.042427 1181.9297 -8.657959
100.2556 1190.5712 -31.062256
105.2683 1190.5712 -31.062256
110.2812 1190.5712 -31.062256
115.29391 1190.5712 -31.062256
120.3068 1190.5712 -31.062256
125.3195 1190.5712 -31.062256
130.3322 1190.5712 -31.062256
135.34511 1190.5712 -31.062256
140.3578 1190.5712 -31.062256
144.15038 1199.2126 -53.466797
149.121 1199.2126 -53.466797
154.09164 1199.2126 -53.466797
159.06244 1199.2126 -53.466797
164.03307 1199.2126 -53.466797
169.00388 1199.2126 -53.466797
173.9745 1199.2126 -53.466797
178.94514 1199.2126 -53.466797
183.91594 1199.2126 -53.466797
188.88657 1199.2126 -53.466797
193.85738 1199.2126 -53.466797
198.828 1199.2126 -53.466797
203.79865 1199.2126 -53.466797
208.76944 1199.2126 -53.466797
213.74007 1199.2126 -53.466797
218.71088 1199.2126 -53.466797
223.6815 1199.2126 -53.466797
228.65215 1199.2126 -53.466797
233.62294 1199.2126 -53.466797
238.59357 1199.2126 -53.466797
243.56438 1199.2126 -53.466797
248.535 1199.2126 -53.466797
253.50565 1199.2126 -53.466797
260.66461 1190.5712 -31.062256
265.67731 1190.5712 -31.062256
272.96252 1181.9297 -8.657959
278.0173 1181.9297 -8.657959
283.07211 1181.9297 -8.657959
288.12704 1181.9297 -8.657959
295.72418 1172.928 14.680176
300.823 1172.928 14.680176
308.55161 1163.9263 38.018311
-162.00795 1026.4561 378.35986
-154.75452 1037.6681 349.44189
-149.02284 1037.6681 349.44189
-143.29117 1037.6681 349.44189
-137.55949 1037.6681 349.44189
-131.82784 1037.6681 349.44189
-126.09628 1037.6681 349.44189
-119.22319 1048.8801 320.52393
-113.54587 1048.8801 320.52393
-107.86855 1048.8801 320.52393
-102.19124 1048.8801 320.52393
-96.514038 1048.8801 320.52393
-90.836716 1048.8801 320.52393
-85.159401 1048.8801 320.52393
-78.745689 1059.7306 292.53906
-73.120972 1059.7306 292.53906
-67.496368 1059.7306 292.53906
-60.733734 1081.0697 237.50171
-54.704002 1091.5585 210.44922
-48.349903 1111.8125 158.21069
-42.598946 1121.5779 133.02393
-36.942772 1131.3431 107.8374
-31.391701 1140.7469 83.58374
-25.931801 1150.1505 59.330078
-20.74542 1150.1505 59.330078
-15.427542 1159.1925 36.009033
-10.285093 1159.1925 36.009033
-5.1425467 1159.1925 36.009033
0 1168.2346 12.687988
5.0986156 1168.2346 12.687988
10.197426 1168.2346 12.687988
15.296041 1168.2346 12.687988
20.394852 1168.2346 12.687988
25.493467 1168.2346 12.687988
30.592083 1168.2346 12.687988
35.690891 1168.2346 12.687988
40.789509 1168.2346 12.687988
45.888317 1168.2346 12.687988
50.548603 1177.2766 -10.632812
55.603386 1177.2766 -10.632812
60.658363 1177.2766 -10.632812
65.713142 1177.2766 -10.632812
70.76812 1177.2766 -10.632812
75.822906 1177.2766 -10.632812
80.204407 1185.9568 -33.020996
85.2173 1185.9568 -33.020996
90.230003 1185.9568 -33.020996
96.042427 1177.2766 -10.632812
100.2556 1185.9568 -33.020996
105.2683 1185.9568 -33.020996
110.2812 1185.9568 -33.020996
115.29391 1185.9568 -33.020996
120.3068 1185.9568 -33.020996
125.3195 1185.9568 -33.020996
130.3322 1185.9568 -33.020996
135.34511 1185.9568 -33.020996
140.3578 1185.9568 -33.020996
145.3707 1185.9568 -33.020996
150.38341 1185.9568 -33.020996
155.3961 1185.9568 -33.020996
160.409 1185.9568 -33.020996
164.03307 1194.6372 -55.408936
169.00388 1194.6372 -55.408936
173.9745 1194.6372 -55.408936
178.94514 1194.6372 -55.408936
183.91594 1194.6372 -55.408936
188.88657 1194.6372 -55.408936
193.85738 1194.6372 -55.408936
198.828 1194.6372 -55.408936
203.79865 1194.6372 -55.408936
208.76944 1194.6372 -55.408936
213.74007 1194.6372 -55.408936
218.71088 1194.6372 -55.408936
223.6815 1194.6372 -55.408936
228.65215 1194.6372 -55.408936
233.62294 1194.6372 -55.408936
238.59357 1194.6372 -55.408936
243.56438 1194.6372 -55.408936
248.535 1194.6372 -55.408936
253.50565 1194.6372 -55.408936
260.66461 1185.9568 -33.020996
265.67731 1185.9568 -33.020996
270.69022 1185.9568 -33.020996
275.70291 1185.9568 -33.020996
283.07211 1177.2766 -10.632812
288.12704 1177.2766 -10.632812
295.72418 1168.2346 12.687988
300.823 1168.2346 12.687988
305.9216 1168.2346 12.687988
-175.31581 1009.1412 406.86011
-167.79399 1021.13 376.09912
-162.00795 1021.13 376.09912
-154.75452 1032.3921 347.20239
-149.02284 1032.3921 347.20239
-143.29117 1032.3921 347.20239
-137.55949 1032.3921 347.20239
-131.82784 1032.3921 347.20239
-126.09628 1032.3921 347.20239
-119.22319 1043.6542 318.30566
-113.54587 1043.6542 318.30566
-107.86855 1043.6542 318.30566
-102.19124 1043.6542 318.30566
-96.514038 1043.6542 318.30566
-90.836716 1043.6542 318.30566
-85.159401 1043.6542 318.30566
-78.745689 1054.553 290.34131
-73.120972 1054.553 290.34131
-67.496368 1054.553 290.34131
-61.293053 1065.4518 262.37671
-54.704002 1086.5229 208.31177
-48.349903 1106.8673 156.11157
-42.598946 1116.6763 130.94336
-36.942772 1126.4852 105.77539
-31.391701 1135.9309 81.539551
-25.931801 1145.3765 57.303467
-20.74542 1145.3765 57.303467
-15.427542 1154.4589 33.999756
-10.285093 1154.4589 33.999756
-5.1425467 1154.4589 33.999756
0 1163.5413 10.695801
5.0986156 1163.5413 10.695801
10.197426 1163.5413 10.695801
15.296041 1163.5413 10.695801
20.394852 1163.5413 10.695801
25.493467 1163.5413 10.695801
30.592083 1163.5413 10.695801
35.690891 1163.5413 10.695801
40.789509 1163.5413 10.695801
45.888317 1163.5413 10.695801
50.548603 1172.6237 -12.60791
55.603386 1172.6237 -12.60791
60.658363 1172.6237 -12.60791
65.713142 1172.6237 -12.60791
70.76812 1172.6237 -12.60791
75.822906 1172.6237 -12.60791
80.877686 1172.6237 -12.60791
85.2173 1181.3425 -34.979492
90.230003 1181.3425 -34.979492
96.042427 1172.6237 -12.60791
100.2556 1181.3425 -34.979492
105.2683 1181.3425 -34.979492
110.2812 1181.3425 -34.979492
115.29391 1181.3425 -34.979492
120.3068 1181.3425 -34.979492
125.3195 1181.3425 -34.979492
130.3322 1181.3425 -34.979492
135.34511 1181.3425 -34.979492
140.3578 1181.3425 -34.979492
145.3707 1181.3425 -34.979492
150.38341 1181.3425 -34.979492
155.3961 1181.3425 -34.979492
160.409 1181.3425 -34.979492
165.42172 1181.3425 -34.979492
169.00388 1190.0616 -57.351074
173.9745 1190.0616 -57.351074
178.94514 1190.0616 -57.351074
183.91594 1190.0616 -57.351074
188.88657 1190.0616 -57.351074
193.85738 1190.0616 -57.351074
198.828 1190.0616 -57.351074
203.79865 1190.0616 -57.351074
208.76944 1190.0616 -57.351074
213.74007 1190.0616 -57.351074
218.71088 1190.0616 -57.351074
223.6815 1190.0616 -57.351074
228.65215 1190.0616 -57.351074
233.62294 1190.0616 -57.351074
238.59357 1190.0616 -57.351074
243.56438 1190.0616 -57.351074
248.535 1190.0616 -57.351074
253.50565 1190.0616 -57.351074
258.47644 1190.0616 -57.351074
263.44708 1190.0616 -57.351074
270.69022 1181.3425 -34.979492
275.70291 1181.3425 -34.979492
280.71561 1181.3425 -34.979492
288.12704 1172.6237 -12.60791
293.18185 1172.6237 -12.60791
298.23685 1172.6237 -12.60791
305.9216 1163.5413 10.695801
-175.31581 1003.762 404.57666
-167.79399 1015.804 373.83838
-162.00795 1015.804 373.83838
-154.75452 1027.1161 344.96289
-149.02284 1027.1161 344.96289
-143.29117 1027.1161 344.96289
-137.55949 1027.1161 344.96289
-131.82784 1027.1161 344.96289
-126.09628 1027.1161 344.96289
-119.22319 1038.4282 316.0874
-113.54587 1038.4282 316.0874
-107.86855 1038.4282 316.0874
-102.19124 1038.4282 316.0874
-96.514038 1038.4282 316.0874
-90.836716 1038.4282 316.0874
-85.159401 1038.4282 316.0874
-79.482086 1038.4282 316.0874
-73.120972 1049.3755 288.14355
-67.496368 1049.3755 288.14355
-61.293053 1060.3228 260.19946
-54.704002 1081.4874 206.17432
-48.349903 1101.9221 154.01245
-42.598946 1111.7748 128.86279
-36.942772 1121.6272 103.71338
-31.391701 1131.1149 79.495117
-26.159735 1131.1149 79.495117
-20.927767 1131.1149 79.495117
-15.559041 1140.6024 55.2771
-10.285093 1149.7251 31.990234
-5.1425467 1149.7251 31.990234
0 1149.7251 31.990234
5.1424484 1149.7251 31.990234
10.285093 1149.7251 31.990234
15.296041 1158.8479 8.7036133
20.394852 1158.8479 8.7036133
25.493467 1158.8479 8.7036133
30.592083 1158.8479 8.7036133
35.690891 1158.8479 8.7036133
40.789509 1158.8479 8.7036133
45.888317 1158.8479 8.7036133
50.548603 1167.9706 -14.583008
55.603386 1167.9706 -14.583008
60.658363 1167.9706 -14.583008
65.713142 1167.9706 -14.583008
70.76812 1167.9706 -14.583008
75.822906 1167.9706 -14.583008
80.877686 1167.9706 -14.583008
85.2173 1176.7283 -36.938232
90.230003 1176.7283 -36.938232
96.042427 1167.9706 -14.583008
100.2556 1176.7283 -36.938232
105.2683 1176.7283 -36.938232
110.2812 1176.7283 -36.938232
115.29391 1176.7283 -36.938232
120.3068 1176.7283 -36.938232
125.3195 1176.7283 -36.938232
130.3322 1176.7283 -36.938232
136.48126 1167.9706 -14.583008
141.53606 1167.9706 -14.583008
146.59102 1167.9706 -14.583008
151.64581 1167.9706 -14.583008
156.70059 1167.9706 -14.583008
161.75557 1167.9706 -14.583008
165.42172 1176.7283 -36.938232
170.4346 1176.7283 -36.938232
173.9745 1185.4861 -59.293457
178.94514 1185.4861 -59.293457
183.91594 1185.4861 -59.293457
190.48561 1176.7283 -36.938232
193.85738 1185.4861 -59.293457
198.828 1185.4861 -59.293457
203.79865 1185.4861 -59.293457
208.76944 1185.4861 -59.293457
213.74007 1185.4861 -59.293457
218.71088 1185.4861 -59.293457
223.6815 1185.4861 -59.293457
228.65215 1185.4861 -59.293457
233.62294 1185.4861 -59.293457
238.59357 1185.4861 -59.293457
243.56438 1185.4861 -59.293457
248.535 1185.4861 -59.293457
253.50565 1185.4861 -59.293457
258.47644 1185.4861 -59.293457
263.44708 1185.4861 -59.293457
270.69022 1176.7283 -36.938232
275.70291 1176.7283 -36.938232
280.71561 1176.7283 -36.938232
288.12704 1167.9706 -14.583008
293.18185 1167.9706 -14.583008
298.23685 1167.9706 -14.583008
305.9216 1158.8479 8.7036133
311.0202 1158.8479 8.7036133
-185.15205 1010.4779 371.57764
-179.36603 1010.4779 371.57764
-173.58 1010.4779 371.57764
-167.79399 1010.4779 371.57764
-162.00795 1010.4779 371.57764
-154.75452 1021.8401 342.72339
-149.02284 1021.8401 342.72339
-143.29117 1021.8401 342.72339
-137.55949 1021.8401 342.72339
-131.82784 1021.8401 342.72339
-126.09628 1021.8401 342.72339
-120.36461 1021.8401 342.72339
-114.63293 1021.8401 342.72339
-108.90127 1021.8401 342.72339
-102.19124 1033.2023 313.86914
-96.514038 1033.2023 313.86914
-90.836716 1033.2023 313.86914
-85.159401 1033.2023 313.86914
-79.482086 1033.2023 313.86914
-73.120972 1044.1979 285.9458
-67.496368 1044.1979 285.9458
-61.871651 1044.1979 285.9458
-55.212467 1065.8226 231.02979
-48.349903 1096.9771 151.91333
-42.22023 1116.7692 101.65112
-36.623669 1126.2988 77.450928
-31.391701 1126.2988 77.450928
-26.159735 1126.2988 77.450928
-20.927767 1126.2988 77.450928
-15.559041 1135.8284 53.250488
-10.285093 1144.9915 29.980957
-5.1425467 1144.9915 29.980957
0 1144.9915 29.980957
5.1424484 1144.9915 29.980957
10.285093 1144.9915 29.980957
15.427542 1144.9915 29.980957
20.394852 1154.1545 6.7114258
25.493467 1154.1545 6.7114258
30.592083 1154.1545 6.7114258
35.690891 1154.1545 6.7114258
40.789509 1154.1545 6.7114258
45.888317 1154.1545 6.7114258
50.548603 1163.3176 -16.558105
55.603386 1163.3176 -16.558105
60.658363 1163.3176 -16.558105
65.713142 1163.3176 -16.558105
70.76812 1163.3176 -16.558105
75.822906 1163.3176 -16.558105
80.877686 1163.3176 -16.558105
85.932655 1163.3176 -16.558105
90.98745 1163.3176 -16.558105
96.042427 1163.3176 -16.558105
101.09721 1163.3176 -16.558105
106.15199 1163.3176 -16.558105
110.2812 1172.114 -38.896973
115.29391 1172.114 -38.896973
120.3068 1172.114 -38.896973
125.3195 1172.114 -38.896973
131.42628 1163.3176 -16.558105
136.48126 1163.3176 -16.558105
141.53606 1163.3176 -16.558105
146.59102 1163.3176 -16.558105
151.64581 1163.3176 -16.558105
156.70059 1163.3176 -16.558105
161.75557 1163.3176 -16.558105
166.81035 1163.3176 -16.558105
170.4346 1172.114 -38.896973
175.44731 1172.114 -38.896973
180.46001 1172.114 -38.896973
185.4729 1172.114 -38.896973
188.88657 1180.9105 -61.235596
193.85738 1180.9105 -61.235596
198.828 1180.9105 -61.235596
203.79865 1180.9105 -61.235596
208.76944 1180.9105 -61.235596
213.74007 1180.9105 -61.235596
218.71088 1180.9105 -61.235596
223.6815 1180.9105 -61.235596
228.65215 1180.9105 -61.235596
233.62294 1180.9105 -61.235596
238.59357 1180.9105 -61.235596
243.56438 1180.9105 -61.235596
248.535 1180.9105 -61.235596
253.50565 1180.9105 -61.235596
258.47644 1180.9105 -61.235596
263.44708 1180.9105 -61.235596
270.69022 1172.114 -38.896973
275.70291 1172.114 -38.896973
280.71561 1172.114 -38.896973
288.12704 1163.3176 -16.558105
293.18185 1163.3176 -16.558105
300.823 1154.1545 6.7114258
305.9216 1154.1545 6.7114258
311.0202 1154.1545 6.7114258
-185.15205 1005.1519 369.31689
-179.36603 1005.1519 369.31689
-173.58 1005.1519 369.31689
-167.79399 1005.1519 369.31689
-162.00795 1005.1519 369.31689
-154.75452 1016.5641 340.48389
-149.02284 1016.5641 340.48389
-143.29117 1016.5641 340.48389
-137.55949 1016.5641 340.48389
-131.82784 1016.5641 340.48389
-126.09628 1016.5641 340.48389
-120.36461 1016.5641 340.48389
-114.63293 1016.5641 340.48389
-108.90127 1016.5641 340.48389
-102.19124 1027.9763 311.65088
-96.514038 1027.9763 311.65088
-90.836716 1027.9763 311.65088
-85.159401 1027.9763 311.65088
-79.482086 1027.9763 311.65088
-73.120972 1039.0204 283.74805
-67.496368 1039.0204 283.74805
-61.293053 1050.0645 255.84521
-54.704002 1071.4164 201.89941
-48.349903 1092.0319 149.81421
-42.22023 1111.9113 99.589111
-36.623669 1121.4828 75.406494
-31.118181 1131.0543 51.224121
-25.931801 1131.0543 51.224121
-20.74542 1131.0543 51.224121
-15.559041 1131.0543 51.224121
-10.285093 1140.2577 27.97168
-5.1425467 1140.2577 27.97168
0 1140.2577 27.97168
5.1424484 1140.2577 27.97168
10.285093 1140.2577 27.97168
15.427542 1140.2577 27.97168
20.394852 1149.4612 4.7192383
25.493467 1149.4612 4.7192383
30.592083 1149.4612 4.7192383
35.690891 1149.4612 4.7192383
40.789509 1149.4612 4.7192383
45.888317 1149.4612 4.7192383
50.548603 1158.6646 -18.533203
55.603386 1158.6646 -18.533203
61.184364 1149.4612 4.7192383
65.713142 1158.6646 -18.533203
70.76812 1158.6646 -18.533203
76.4804 1149.4612 4.7192383
81.579018 1149.4612 4.7192383
85.932655 1158.6646 -18.533203
90.98745 1158.6646 -18.533203
96.042427 1158.6646 -18.533203
101.09721 1158.6646 -18.533203
106.15199 1158.6646 -18.533203
111.20696 1158.6646 -18.533203
115.29391 1167.4998 -40.855469
120.3068 1167.4998 -40.855469
126.37151 1158.6646 -18.533203
131.42628 1158.6646 -18.533203
136.48126 1158.6646 -18.533203
142.76338 1149.4612 4.7192383
146.59102 1158.6646 -18.533203
151.64581 1158.6646 -18.533203
156.70059 1158.6646 -18.533203
161.75557 1158.6646 -18.533203
166.81035 1158.6646 -18.533203
170.4346 1167.4998 -40.855469
175.44731 1167.4998 -40.855469
180.46001 1167.4998 -40.855469
185.4729 1167.4998 -40.855469
188.88657 1176.335 -63.177734
193.85738 1176.335 -63.177734
198.828 1176.335 -63.177734
203.79865 1176.335 -63.177734
208.76944 1176.335 -63.177734
213.74007 1176.335 -63.177734
218.71088 1176.335 -63.177734
223.6815 1176.335 -63.177734
228.65215 1176.335 -63.177734
233.62294 1176.335 -63.177734
238.59357 1176.335 -63.177734
243.56438 1176.335 -63.177734
248.535 1176.335 -63.177734
253.50565 1176.335 -63.177734
258.47644 1176.335 -63.177734
263.44708 1176.335 -63.177734
270.69022 1167.4998 -40.855469
275.70291 1167.4998 -40.855469
280.71561 1167.4998 -40.855469
288.12704 1158.6646 -18.533203
293.18185 1158.6646 -18.533203
300.823 1149.4612 4.7192383
305.9216 1149.4612 4.7192383
311.0202 1149.4612 4.7192383
-198.69122 987.62402 397.72656
-190.93796 999.82581 367.05615
-185.15205 999.82581 367.05615
-179.36603 999.82581 367.05615
-173.58 999.82581 367.05615
-166.21774 1011.2881 338.24438
-160.48607 1011.2881 338.24438
-154.75452 1011.2881 338.24438
-149.02284 1011.2881 338.24438
-143.29117 1011.2881 338.24438
-137.55949 1011.2881 338.24438
-131.82784 1011.2881 338.24438
-126.09628 1011.2881 338.24438
-120.36461 1011.2881 338.24438
-114.63293 1011.2881 338.24438
-108.90127 1011.2881 338.24438
-102.19124 1022.7504 309.43262
-96.514038 1022.7504 309.43262
-90.836716 1022.7504 309.43262
-85.159401 1022.7504 309.43262
-79.482086 1022.7504 309.43262
-73.120972 1033.8428 281.55029
-67.496368 1033.8428 281.55029
-61.293053 1044.9353 253.66797
-54.704002 1066.3809 199.76196
-47.92384 1097.0701 122.62085
-42.22023 1107.0532 97.5271
-36.623669 1116.6667 73.362305
-31.118181 1126.2802 49.197754
-25.931801 1126.2802 49.197754
-20.74542 1126.2802 49.197754
-15.559041 1126.2802 49.197754
-10.285093 1135.5239 25.962402
-5.1425467 1135.5239 25.962402
0 1135.5239 25.962402
5.1424484 1135.5239 25.962402
10.285093 1135.5239 25.962402
15.427542 1135.5239 25.962402
20.394852 1144.7677 2.7270508
25.493467 1144.7677 2.7270508
30.592083 1144.7677 2.7270508
35.690891 1144.7677 2.7270508
40.789509 1144.7677 2.7270508
45.888317 1144.7677 2.7270508
50.548603 1154.0115 -20.508301
55.603386 1154.0115 -20.508301
61.184364 1144.7677 2.7270508
66.282974 1144.7677 2.7270508
71.381783 1144.7677 2.7270508
76.4804 1144.7677 2.7270508
81.579018 1144.7677 2.7270508
86.677826 1144.7677 2.7270508
91.776451 1144.7677 2.7270508
96.042427 1154.0115 -20.508301
101.09721 1154.0115 -20.508301
106.15199 1154.0115 -20.508301
111.20696 1154.0115 -20.508301
116.26175 1154.0115 -20.508301
121.31673 1154.0115 -20.508301
126.37151 1154.0115 -20.508301
131.42628 1154.0115 -20.508301
137.66476 1144.7677 2.7270508
142.76338 1144.7677 2.7270508
146.59102 1154.0115 -20.508301
151.64581 1154.0115 -20.508301
156.70059 1154.0115 -20.508301
161.75557 1154.0115 -20.508301
166.81035 1154.0115 -20.508301
170.4346 1162.8854 -42.814209
175.44731 1162.8854 -42.814209
180.46001 1162.8854 -42.814209
183.91594 1171.7594 -65.119873
188.88657 1171.7594 -65.119873
193.85738 1171.7594 -65.119873
198.828 1171.7594 -65.119873
203.79865 1171.7594 -65.119873
208.76944 1171.7594 -65.119873
213.74007 1171.7594 -65.119873
218.71088 1171.7594 -65.119873
223.6815 1171.7594 -65.119873
228.65215 1171.7594 -65.119873
233.62294 1171.7594 -65.119873
238.59357 1171.7594 -65.119873
243.56438 1171.7594 -65.119873
248.535 1171.7594 -65.119873
253.50565 1171.7594 -65.119873
260.66461 1162.8854 -42.814209
265.67731 1162.8854 -42.814209
270.69022 1162.8854 -42.814209
275.70291 1162.8854 -42.814209
283.07211 1154.0115 -20.508301
288.12704 1154.0115 -20.508301
295.72418 1144.7677 2.7270508
300.823 1144.7677 2.7270508
305.9216 1144.7677 2.7270508
311.0202 1144.7677 2.7270508
-198.69122 982.24475 395.44336
-190.93796 994.49976 364.79517
-185.15205 994.49976 364.79517
-179.36603 994.49976 364.79517
-173.58 994.49976 364.79517
-166.21774 1006.0121 336.00488
-160.48607 1006.0121 336.00488
-153.28697 1017.5243 307.21436
-147.60965 1017.5243 307.21436
-141.93234 1017.5243 307.21436
-136.25502 1017.5243 307.21436
-130.57771 1017.5243 307.21436
-124.90051 1017.5243 307.21436
-119.22319 1017.5243 307.21436
-114.63293 1006.0121 336.00488
-108.90127 1006.0121 336.00488
-102.19124 1017.5243 307.21436
-96.514038 1017.5243 307.21436
-90.836716 1017.5243 307.21436
-85.159401 1017.5243 307.21436
-79.482086 1017.5243 307.21436
-73.120972 1028.6653 279.35254
-67.496368 1028.6653 279.35254
-61.293053 1039.8062 251.49072
-54.21307 1071.7434 171.62036
-47.92384 1092.1685 120.54028
-42.22023 1102.1952 95.464844
-36.623669 1111.8507 71.318115
-31.391701 1111.8507 71.318115
-26.159735 1111.8507 71.318115
-20.927767 1111.8507 71.318115
-15.695801 1111.8507 71.318115
-10.37276 1121.5061 47.171143
-5.1863799 1121.5061 47.171143
0 1130.7903 23.952881
5.1424484 1130.7903 23.952881
10.285093 1130.7903 23.952881
15.427542 1130.7903 23.952881
20.394852 1140.0743 0.73486328
25.493467 1140.0743 0.73486328
30.592083 1140.0743 0.73486328
35.690891 1140.0743 0.73486328
40.789509 1140.0743 0.73486328
45.888317 1140.0743 0.73486328
50.548603 1149.3585 -22.483398
55.603386 1149.3585 -22.483398
61.184364 1140.0743 0.73486328
66.282974 1140.0743 0.73486328
71.381783 1140.0743 0.73486328
76.4804 1140.0743 0.73486328
81.579018 1140.0743 0.73486328
86.677826 1140.0743 0.73486328
91.776451 1140.0743 0.73486328
96.042427 1149.3585 -22.483398
101.09721 1149.3585 -22.483398
106.15199 1149.3585 -22.483398
111.20696 1149.3585 -22.483398
116.26175 1149.3585 -22.483398
121.31673 1149.3585 -22.483398
126.37151 1149.3585 -22.483398
131.42628 1149.3585 -22.483398
137.66476 1140.0743 0.73486328
142.76338 1140.0743 0.73486328
147.86218 1140.0743 0.73486328
152.9608 1140.0743 0.73486328
156.70059 1149.3585 -22.483398
161.75557 1149.3585 -22.483398
166.81035 1149.3585 -22.483398
171.86531 1149.3585 -22.483398
175.44731 1158.2711 -44.772705
180.46001 1158.2711 -44.772705
183.91594 1167.1838 -67.062256
188.88657 1167.1838 -67.062256
195.4985 1158.2711 -44.772705
198.828 1167.1838 -67.062256
203.79865 1167.1838 -67.062256
208.76944 1167.1838 -67.062256
213.74007 1167.1838 -67.062256
218.71088 1167.1838 -67.062256
223.6815 1167.1838 -67.062256
228.65215 1167.1838 -67.062256
233.62294 1167.1838 -67.062256
238.59357 1167.1838 -67.062256
243.56438 1167.1838 -67.062256
248.535 1167.1838 -67.062256
255.65172 1158.2711 -44.772705
260.66461 1158.2711 -44.772705
265.67731 1158.2711 -44.772705
270.69022 1158.2711 -44.772705
275.70291 1158.2711 -44.772705
283.07211 1149.3585 -22.483398
288.12704 1149.3585 -22.483398
295.72418 1140.0743 0.73486328
300.823 1140.0743 0.73486328
305.9216 1140.0743 0.73486328
311.0202 1140.0743 0.73486328
318.8367 1130.7903 23.952881
-210.379 976.86548 393.15991
-204.53511 976.86548 393.15991
-198.69122 976.86548 393.15991
-190.93796 989.17371 362.53442
-185.15205 989.17371 362.53442
-179.36603 989.17371 362.53442
-173.58 989.17371 362.53442
-166.21774 1000.7361 333.76514
-160.48607 1000.7361 333.76514
-153.28697 1012.2983 304.99609
-147.60965 1012.2983 304.99609
-141.93234 1012.2983 304.99609
-136.25502 1012.2983 304.99609
-130.57771 1012.2983 304.99609
-124.90051 1012.2983 304.99609
-119.22319 1012.2983 304.99609
-113.54587 1012.2983 304.99609
-107.86855 1012.2983 304.99609
-102.19124 1012.2983 304.99609
-96.514038 1012.2983 304.99609
-90.836716 1012.2983 304.99609
-85.159401 1012.2983 304.99609
-79.482086 1012.2983 304.99609
-73.120972 1023.4877 277.15503
-67.496368 1023.4877 277.15503
-60.733734 1045.4934 222.40039
-54.21307 1066.7532 169.5022
-47.92384 1087.267 118.45972
-42.22023 1097.3373 93.402832
-36.942772 1097.3373 93.402832
-31.391701 1107.0347 69.273682
-26.159735 1107.0347 69.273682
-20.927767 1107.0347 69.273682
-15.695801 1107.0347 69.273682
-10.37276 1116.7321 45.144775
-5.1863799 1116.7321 45.144775
0 1126.0565 21.943604
5.1424484 1126.0565 21.943604
10.285093 1126.0565 21.943604
15.427542 1126.0565 21.943604
20.570187 1126.0565 21.943604
25.493467 1135.381 -1.2575684
30.592083 1135.381 -1.2575684
35.690891 1135.381 -1.2575684
40.789509 1135.381 -1.2575684
45.888317 1135.381 -1.2575684
50.548603 1144.7054 -24.458496
55.603386 1144.7054 -24.458496
61.184364 1135.381 -1.2575684
66.282974 1135.381 -1.2575684
71.381783 1135.381 -1.2575684
76.4804 1135.381 -1.2575684
81.579018 1135.381 -1.2575684
86.677826 1135.381 -1.2575684
91.776451 1135.381 -1.2575684
96.042427 1144.7054 -24.458496
101.09721 1144.7054 -24.458496
106.15199 1144.7054 -24.458496
111.20696 1144.7054 -24.458496
116.26175 1144.7054 -24.458496
121.31673 1144.7054 -24.458496
126.37151 1144.7054 -24.458496
131.42628 1144.7054 -24.458496
137.66476 1135.381 -1.2575684
142.76338 1135.381 -1.2575684
147.86218 1135.381 -1.2575684
152.9608 1135.381 -1.2575684
156.70059 1144.7054 -24.458496
161.75557 1144.7054 -24.458496
166.81035 1144.7054 -24.458496
171.86531 1144.7054 -24.458496
175.44731 1153.6569 -46.731445
180.46001 1153.6569 -46.731445
185.4729 1153.6569 -46.731445
190.48561 1153.6569 -46.731445
195.4985 1153.6569 -46.731445
198.828 1162.6083 -69.004395
203.79865 1162.6083 -69.004395
208.76944 1162.6083 -69.004395
213.74007 1162.6083 -69.004395
218.71088 1162.6083 -69.004395
223.6815 1162.6083 -69.004395
228.65215 1162.6083 -69.004395
233.62294 1162.6083 -69.004395
238.59357 1162.6083 -69.004395
243.56438 1162.6083 -69.004395
248.535 1162.6083 -69.004395
255.65172 1153.6569 -46.731445
260.66461 1153.6569 -46.731445
265.67731 1153.6569 -46.731445
270.69022 1153.6569 -46.731445
275.70291 1153.6569 -46.731445
283.07211 1144.7054 -24.458496
288.12704 1144.7054 -24.458496
295.72418 1135.381 -1.2575684
300.823 1135.381 -1.2575684
305.9216 1135.381 -1.2575684
311.0202 1135.381 -1.2575684
318.8367 1126.0565 21.943604
-210.379 971.48621 390.87646
-204.53511 971.48621 390.87646
-196.72398 983.84766 360.27368
-190.93796 983.84766 360.27368
-183.41275 995.46008 331.52563
-177.68108 995.46008 331.52563
-171.9494 995.46008 331.52563
-166.21774 995.46008 331.52563
-160.48607 995.46008 331.52563
-153.28697 1007.0724 302.77759
-147.60965 1007.0724 302.77759
-141.93234 1007.0724 302.77759
-136.25502 1007.0724 302.77759
-130.57771 1007.0724 302.77759
-124.90051 1007.0724 302.77759
-119.22319 1007.0724 302.77759
-113.54587 1007.0724 302.77759
-107.86855 1007.0724 302.77759
-102.19124 1007.0724 302.77759
-96.514038 1007.0724 302.77759
-90.836716 1007.0724 302.77759
-85.159401 1007.0724 302.77759
-79.482086 1007.0724 302.77759
-73.120972 1018.3102 274.95728
-67.496368 1018.3102 274.95728
-60.733734 1040.411 220.24316
-54.21307 1061.7628 167.38403
-47.49778 1092.4792 91.34082
-42.22023 1092.4792 91.34082
-36.942772 1092.4792 91.34082
-31.391701 1102.2188 67.229492
-26.159735 1102.2188 67.229492
-21.110115 1092.4792 91.34082
-15.695801 1102.2188 67.229492
-10.463933 1102.2188 67.229492
-5.1863799 1111.958 43.118164
0 1111.958 43.118164
5.1424484 1121.3229 19.934326
10.285093 1121.3229 19.934326
15.427542 1121.3229 19.934326
20.570187 1121.3229 19.934326
25.493467 1130.6876 -3.2497559
30.592083 1130.6876 -3.2497559
35.690891 1130.6876 -3.2497559
40.789509 1130.6876 -3.2497559
45.888317 1130.6876 -3.2497559
50.548603 1140.0525 -26.433594
55.603386 1140.0525 -26.433594
61.184364 1130.6876 -3.2497559
66.282974 1130.6876 -3.2497559
71.381783 1130.6876 -3.2497559
76.4804 1130.6876 -3.2497559
81.579018 1130.6876 -3.2497559
86.677826 1130.6876 -3.2497559
91.776451 1130.6876 -3.2497559
96.875259 1130.6876 -3.2497559
101.97387 1130.6876 -3.2497559
106.15199 1140.0525 -26.433594
111.20696 1140.0525 -26.433594
116.26175 1140.0525 -26.433594
121.31673 1140.0525 -26.433594
127.46734 1130.6876 -3.2497559
132.56595 1130.6876 -3.2497559
137.66476 1130.6876 -3.2497559
142.76338 1130.6876 -3.2497559
147.86218 1130.6876 -3.2497559
152.9608 1130.6876 -3.2497559
156.70059 1140.0525 -26.433594
161.75557 1140.0525 -26.433594
166.81035 1140.0525 -26.433594
171.86531 1140.0525 -26.433594
175.44731 1149.0426 -48.690186
180.46001 1149.0426 -48.690186
185.4729 1149.0426 -48.690186
188.88657 1158.0328 -70.946533
193.85738 1158.0328 -70.946533
198.828 1158.0328 -70.946533
203.79865 1158.0328 -70.946533
208.76944 1158.0328 -70.946533
213.74007 1158.0328 -70.946533
218.71088 1158.0328 -70.946533
223.6815 1158.0328 -70.946533
228.65215 1158.0328 -70.946533
233.62294 1158.0328 -70.946533
240.61342 1149.0426 -48.690186
245.62631 1149.0426 -48.690186
250.63901 1149.0426 -48.690186
255.65172 1149.0426 -48.690186
260.66461 1149.0426 -48.690186
265.67731 1149.0426 -48.690186
270.69022 1149.0426 -48.690186
275.70291 1149.0426 -48.690186
283.07211 1140.0525 -26.433594
288.12704 1140.0525 -26.433594
295.72418 1130.6876 -3.2497559
300.823 1130.6876 -3.2497559
305.9216 1130.6876 -3.2497559
311.0202 1130.6876 -3.2497559
318.8367 1121.3229 19.934326
-216.22287 966.10681 388.59326
-210.379 966.10681 388.59326
-204.53511 966.10681 388.59326
-196.72398 978.52173 358.01294
-190.93796 978.52173 358.01294
-183.41275 990.18408 329.28613
-177.68108 990.18408 329.28613
-171.9494 990.18408 329.28613
-166.21774 990.18408 329.28613
-160.48607 990.18408 329.28613
-153.28697 1001.8464 300.55933
-147.60965 1001.8464 300.55933
-141.93234 1001.8464 300.55933
-136.25502 1001.8464 300.55933
-130.57771 1001.8464 300.55933
-124.90051 1001.8464 300.55933
-119.22319 1001.8464 300.55933
-113.54587 1001.8464 300.55933
-107.86855 1001.8464 300.55933
-102.19124 1001.8464 300.55933
-96.514038 1001.8464 300.55933
-90.836716 1001.8464 300.55933
-85.159401 1001.8464 300.55933
-78.745689 1013.1326 272.75952
-73.120972 1013.1326 272.75952
-66.865166 1024.4187 244.95923
-60.733734 1035.3287 218.08594
-54.21307 1056.7725 165.26562
-47.49778 1087.6213 89.278564
-42.22023 1087.6213 89.278564
-36.623669 1097.4027 65.185303
-31.391701 1097.4027 65.185303
-26.159735 1097.4027 65.185303
-21.110115 1087.6213 89.278564
-15.695801 1097.4027 65.185303
-10.37276 1107.184 41.091797
-5.1863799 1107.184 41.091797
0 1107.184 41.091797
5.1424484 1116.5891 17.925049
10.285093 1116.5891 17.925049
15.427542 1116.5891 17.925049
20.570187 1116.5891 17.925049
25.493467 1125.9943 -5.2419434
30.592083 1125.9943 -5.2419434
35.690891 1125.9943 -5.2419434
40.789509 1125.9943 -5.2419434
45.888317 1125.9943 -5.2419434
50.548603 1135.3994 -28.408691
55.603386 1135.3994 -28.408691
61.184364 1125.9943 -5.2419434
66.282974 1125.9943 -5.2419434
71.381783 1125.9943 -5.2419434
76.4804 1125.9943 -5.2419434
81.579018 1125.9943 -5.2419434
86.677826 1125.9943 -5.2419434
91.776451 1125.9943 -5.2419434
96.875259 1125.9943 -5.2419434
101.97387 1125.9943 -5.2419434
107.07249 1125.9943 -5.2419434
112.1713 1125.9943 -5.2419434
117.26991 1125.9943 -5.2419434
122.36873 1125.9943 -5.2419434
127.46734 1125.9943 -5.2419434
132.56595 1125.9943 -5.2419434
137.66476 1125.9943 -5.2419434
142.76338 1125.9943 -5.2419434
147.86218 1125.9943 -5.2419434
152.9608 1125.9943 -5.2419434
158.05943 1125.9943 -5.2419434
161.75557 1135.3994 -28.408691
166.81035 1135.3994 -28.408691
171.86531 1135.3994 -28.408691
175.44731 1144.4282 -50.648682
180.46001 1144.4282 -50.648682
185.4729 1144.4282 -50.648682
188.88657 1153.4573 -72.888672
193.85738 1153.4573 -72.888672
198.828 1153.4573 -72.888672
203.79865 1153.4573 -72.888672
208.76944 1153.4573 -72.888672
213.74007 1153.4573 -72.888672
218.71088 1153.4573 -72.888672
223.6815 1153.4573 -72.888672
228.65215 1153.4573 -72.888672
233.62294 1153.4573 -72.888672
240.61342 1144.4282 -50.648682
245.62631 1144.4282 -50.648682
250.63901 1144.4282 -50.648682
255.65172 1144.4282 -50.648682
260.66461 1144.4282 -50.648682
265.67731 1144.4282 -50.648682
270.69022 1144.4282 -50.648682
275.70291 1144.4282 -50.648682
280.71561 1144.4282 -50.648682
288.12704 1135.3994 -28.408691
293.18185 1135.3994 -28.408691
300.823 1125.9943 -5.2419434
305.9216 1125.9943 -5.2419434
311.0202 1125.9943 -5.2419434
318.8367 1116.5891 17.925049
-216.22287 960.72754 386.30981
-210.379 960.72754 386.30981
-204.53511 960.72754 386.30981
-196.72398 973.19568 355.7522
-190.93796 973.19568 355.7522
-185.15205 973.19568 355.7522
-179.36603 973.19568 355.7522
-173.58 973.19568 355.7522
-167.79399 973.19568 355.7522
-160.48607 984.90808 327.04663
-154.75452 984.90808 327.04663
-149.02284 984.90808 327.04663
-141.93234 996.62048 298.34106
-136.25502 996.62048 298.34106
-130.57771 996.62048 298.34106
-124.90051 996.62048 298.34106
-119.22319 996.62048 298.34106
-113.54587 996.62048 298.34106
-107.86855 996.62048 298.34106
-102.19124 996.62048 298.34106
-96.514038 996.62048 298.34106
-90.836716 996.62048 298.34106
-85.159401 996.62048 298.34106
-78.745689 1007.9551 270.56177
-73.120972 1007.9551 270.56177
-66.865166 1019.2897 242.78198
-60.174423 1041.2032 189.07471
-54.21307 1051.7821 163.14746
-48.349903 1062.3611 137.21973
-42.22023 1082.7633 87.216553
-36.623669 1092.5867 63.140869
-31.391701 1092.5867 63.140869
-26.159735 1092.5867 63.140869
-21.110115 1082.7633 87.216553
-15.695801 1092.5867 63.140869
-10.37276 1102.4099 39.06543
-5.1863799 1102.4099 39.06543
0 1102.4099 39.06543
5.1424484 1111.8553 15.915527
10.285093 1111.8553 15.915527
15.427542 1111.8553 15.915527
20.570187 1111.8553 15.915527
25.493467 1121.3009 -7.2341309
30.592083 1121.3009 -7.2341309
35.690891 1121.3009 -7.2341309
40.789509 1121.3009 -7.2341309
45.888317 1121.3009 -7.2341309
50.986935 1121.3009 -7.2341309
56.085552 1121.3009 -7.2341309
61.184364 1121.3009 -7.2341309
66.282974 1121.3009 -7.2341309
71.381783 1121.3009 -7.2341309
76.4804 1121.3009 -7.2341309
81.579018 1121.3009 -7.2341309
86.677826 1121.3009 -7.2341309
91.776451 1121.3009 -7.2341309
96.875259 1121.3009 -7.2341309
101.09721 1130.7465 -30.383789
106.15199 1130.7465 -30.383789
111.20696 1130.7465 -30.383789
116.26175 1130.7465 -30.383789
121.31673 1130.7465 -30.383789
126.37151 1130.7465 -30.383789
131.42628 1130.7465 -30.383789
136.48126 1130.7465 -30.383789
142.76338 1121.3009 -7.2341309
147.86218 1121.3009 -7.2341309
152.9608 1121.3009 -7.2341309
158.05943 1121.3009 -7.2341309
161.75557 1130.7465 -30.383789
166.81035 1130.7465 -30.383789
171.86531 1130.7465 -30.383789
175.44731 1139.814 -52.607422
180.46001 1139.814 -52.607422
185.4729 1139.814 -52.607422
190.48561 1139.814 -52.607422
195.4985 1139.814 -52.607422
200.5112 1139.814 -52.607422
205.52391 1139.814 -52.607422
210.5368 1139.814 -52.607422
215.54951 1139.814 -52.607422
220.56241 1139.814 -52.607422
225.5751 1139.814 -52.607422
230.58781 1139.814 -52.607422
235.60069 1139.814 -52.607422
238.59357 1148.8817 -74.831055
243.56438 1148.8817 -74.831055
248.535 1148.8817 -74.831055
253.50565 1148.8817 -74.831055
260.66461 1139.814 -52.607422
265.67731 1139.814 -52.607422
270.69022 1139.814 -52.607422
275.70291 1139.814 -52.607422
280.71561 1139.814 -52.607422
288.12704 1130.7465 -30.383789
293.18185 1130.7465 -30.383789
298.23685 1130.7465 -30.383789
305.9216 1121.3009 -7.2341309
311.0202 1121.3009 -7.2341309
316.11902 1121.3009 -7.2341309
-225.65399 967.86951 353.49146
-219.86795 967.86951 353.49146
-216.22287 955.34814 384.02637
-210.379 955.34814 384.02637
-204.53511 955.34814 384.02637
-196.72398 967.86951 353.49146
-190.93796 967.86951 353.49146
-185.15205 967.86951 353.49146
-179.36603 967.86951 353.49146
-173.58 967.86951 353.49146
-167.79399 967.86951 353.49146
-162.00795 967.86951 353.49146
-154.75452 979.63196 324.80713
-149.02284 979.63196 324.80713
-141.93234 991.39441 296.1228
-136.25502 991.39441 296.1228
-130.57771 991.39441 296.1228
-124.90051 991.39441 296.1228
-119.22319 991.39441 296.1228
-113.54587 991.39441 296.1228
-107.86855 991.39441 296.1228
-103.16959 979.63196 324.80713
-97.438042 979.63196 324.80713
-91.706375 979.63196 324.80713
-85.159401 991.39441 296.1228
-78.745689 1002.7775 268.36401
-73.120972 1002.7775 268.36401
-66.255005 1025.1639 213.77124
-60.174423 1036.1676 186.93726
-54.21307 1046.7917 161.02905
-48.349903 1057.4158 135.12061
-42.22023 1077.9053 85.154297
-36.623669 1087.7705 61.09668
-31.391701 1087.7705 61.09668
-26.387667 1077.9053 85.154297
-21.110115 1077.9053 85.154297
-15.695801 1087.7705 61.09668
-10.37276 1097.6357 37.038818
-5.1863799 1097.6357 37.038818
0 1097.6357 37.038818
5.1424484 1107.1216 13.90625
10.285093 1107.1216 13.90625
15.427542 1107.1216 13.90625
20.570187 1107.1216 13.90625
25.712635 1107.1216 13.90625
30.592083 1116.6074 -9.2263184
35.690891 1116.6074 -9.2263184
40.789509 1116.6074 -9.2263184
45.888317 1116.6074 -9.2263184
50.986935 1116.6074 -9.2263184
56.085552 1116.6074 -9.2263184
61.184364 1116.6074 -9.2263184
66.282974 1116.6074 -9.2263184
71.381783 1116.6074 -9.2263184
76.4804 1116.6074 -9.2263184
81.579018 1116.6074 -9.2263184
86.677826 1116.6074 -9.2263184
91.776451 1116.6074 -9.2263184
96.875259 1116.6074 -9.2263184
101.09721 1126.0934 -32.358887
106.15199 1126.0934 -32.358887
111.20696 1126.0934 -32.358887
116.26175 1126.0934 -32.358887
121.31673 1126.0934 -32.358887
126.37151 1126.0934 -32.358887
131.42628 1126.0934 -32.358887
136.48126 1126.0934 -32.358887
142.76338 1116.6074 -9.2263184
147.86218 1116.6074 -9.2263184
152.9608 1116.6074 -9.2263184
158.05943 1116.6074 -9.2263184
163.15823 1116.6074 -9.2263184
166.81035 1126.0934 -32.358887
171.86531 1126.0934 -32.358887
176.9201 1126.0934 -32.358887
180.46001 1135.1997 -54.566162
185.4729 1135.1997 -54.566162
190.48561 1135.1997 -54.566162
195.4985 1135.1997 -54.566162
200.5112 1135.1997 -54.566162
205.52391 1135.1997 -54.566162
210.5368 1135.1997 -54.566162
215.54951 1135.1997 -54.566162
220.56241 1135.1997 -54.566162
225.5751 1135.1997 -54.566162
230.58781 1135.1997 -54.566162
235.60069 1135.1997 -54.566162
238.59357 1144.306 -76.773193
243.56438 1144.306 -76.773193
248.535 1144.306 -76.773193
253.50565 1144.306 -76.773193
260.66461 1135.1997 -54.566162
265.67731 1135.1997 -54.566162
270.69022 1135.1997 -54.566162
275.70291 1135.1997 -54.566162
280.71561 1135.1997 -54.566162
288.12704 1126.0934 -32.358887
293.18185 1126.0934 -32.358887
298.23685 1126.0934 -32.358887
305.9216 1116.6074 -9.2263184
311.0202 1116.6074 -9.2263184
316.11902 1116.6074 -9.2263184
-234.99754 974.35596 322.56763
-229.26587 974.35596 322.56763
-225.65399 962.54346 351.23071
-219.86795 962.54346 351.23071
-214.08206 962.54346 351.23071
-210.379 949.96887 381.74292
-204.53511 949.96887 381.74292
-196.72398 962.54346 351.23071
-190.93796 962.54346 351.23071
-185.15205 962.54346 351.23071
-179.36603 962.54346 351.23071
-173.58 962.54346 351.23071
-167.79399 962.54346 351.23071
-160.48607 974.35596 322.56763
-154.75452 974.35596 322.56763
-149.02284 974.35596 322.56763
-141.93234 986.16846 293.90454
-136.25502 986.16846 293.90454
-130.57771 986.16846 293.90454
-124.90051 986.16846 293.90454
-119.22319 986.16846 293.90454
-113.54587 986.16846 293.90454
-107.86855 986.16846 293.90454
-103.16959 974.35596 322.56763
-97.438042 974.35596 322.56763
-91.706375 974.35596 322.56763
-85.159401 986.16846 293.90454
-79.482086 986.16846 293.90454
-72.437172 1009.0312 238.42773
-65.644844 1031.1321 184.7998
-60.174423 1031.1321 184.7998
-54.21307 1041.8014 158.91089
-48.79174 1041.8014 158.91089
-42.22023 1073.0472 83.092285
-36.942772 1073.0472 83.092285
-31.66522 1073.0472 83.092285
-26.387667 1073.0472 83.092285
-21.110115 1073.0472 83.092285
-15.695801 1082.9545 59.052246
-10.463933 1082.9545 59.052246
-5.1863799 1092.8617 35.012451
0 1092.8617 35.012451
5.1424484 1102.3879 11.896973
10.285093 1102.3879 11.896973
15.427542 1102.3879 11.896973
20.570187 1102.3879 11.896973
25.712635 1102.3879 11.896973
30.855083 1102.3879 11.896973
35.690891 1111.9141 -11.218506
40.789509 1111.9141 -11.218506
45.888317 1111.9141 -11.218506
50.986935 1111.9141 -11.218506
56.085552 1111.9141 -11.218506
61.184364 1111.9141 -11.218506
66.282974 1111.9141 -11.218506
71.381783 1111.9141 -11.218506
