ply
format ascii 1.0
comment PCL generated
element vertex 1584
property float x
property float y
property float z
element camera 0
property float view_px
property float view_py
property float view_pz
property float x_axisx
property float x_axisy
property float x_axisz
property float y_axisx
property float y_axisy
property float y_axisz
property float z_axisx
property float z_axisy
property float z_axisz
property float focal
property float scalex
property float scaley
property float centerx
property float centery
property int viewportx
property int viewporty
property float k1
property float k2
end_header
275.61008 1209.8798 356.27368
281.23468 1209.8798 356.27368
289.54187 1200.4335 384.85449
295.2193 1200.4335 384.85449
300.89655 1200.4335 384.85449
306.57394 1200.4335 384.85449
312.25116 1200.4335 384.85449
317.92834 1200.4335 384.85449
323.60577 1200.4335 384.85449
329.28299 1200.4335 384.85449
334.96042 1200.4335 384.85449
-189.99123 1267.3671 165.57617
-184.71367 1267.3671 165.57617
-179.43613 1267.3671 165.57617
-174.15857 1267.3671 165.57617
-168.8811 1267.3671 165.57617
-163.60356 1267.3671 165.57617
-158.326 1267.3671 165.57617
-153.04846 1267.3671 165.57617
-147.7709 1267.3671 165.57617
-142.49345 1267.3671 165.57617
-137.21588 1267.3671 165.57617
-131.93834 1267.3671 165.57617
-126.66079 1267.3671 165.57617
-121.38322 1267.3671 165.57617
-116.10578 1267.3671 165.57617
-110.82822 1267.3671 165.57617
-105.55067 1267.3671 165.57617
-100.27312 1267.3671 165.57617
-94.99556 1267.3671 165.57617
-89.718109 1267.3671 165.57617
-84.440552 1267.3671 165.57617
-79.163002 1267.3671 165.57617
-73.247231 1275.5958 140.82373
-68.015266 1275.5958 140.82373
-62.783401 1275.5958 140.82373
-57.551434 1275.5958 140.82373
-52.319469 1275.5958 140.82373
-47.087502 1275.5958 140.82373
-41.855534 1275.5958 140.82373
-36.623669 1275.5958 140.82373
-31.391701 1275.5958 140.82373
-26.159735 1275.5958 140.82373
-21.110115 1267.3671 165.57617
-15.97458 1258.8219 191.28052
-10.649788 1258.8219 191.28052
-5.324894 1258.8219 191.28052
0 1258.8219 191.28052
5.3247924 1258.8219 191.28052
10.649788 1258.8219 191.28052
15.97458 1258.8219 191.28052
21.110216 1267.3671 165.57617
26.387667 1267.3671 165.57617
31.665119 1267.3671 165.57617
36.942772 1267.3671 165.57617
42.598946 1258.8219 191.28052
47.923943 1258.8219 191.28052
53.248734 1258.8219 191.28052
58.573528 1258.8219 191.28052
63.898525 1258.8219 191.28052
69.223312 1258.8219 191.28052
74.548309 1258.8219 191.28052
79.8731 1258.8219 191.28052
85.197891 1258.8219 191.28052
90.522888 1258.8219 191.28052
95.847679 1258.8219 191.28052
101.17268 1258.8219 191.28052
106.49747 1258.8219 191.28052
111.82227 1258.8219 191.28052
117.14725 1258.8219 191.28052
122.47205 1258.8219 191.28052
127.79705 1258.8219 191.28052
133.12184 1258.8219 191.28052
138.44662 1258.8219 191.28052
145.04982 1250.2766 216.98511
150.42194 1250.2766 216.98511
154.42142 1258.8219 191.28052
159.7462 1258.8219 191.28052
165.071 1258.8219 191.28052
170.396 1258.8219 191.28052
175.72078 1258.8219 191.28052
181.04578 1258.8219 191.28052
186.37057 1258.8219 191.28052
191.69536 1258.8219 191.28052
197.02036 1258.8219 191.28052
204.14407 1250.2766 216.98511
211.43105 1241.415 243.64185
216.85228 1241.415 243.64185
222.2735 1241.415 243.64185
229.75684 1232.5533 270.2981
235.22717 1232.5533 270.2981
240.69769 1232.5533 270.2981
248.45612 1223.375 297.90674
253.97728 1223.375 297.90674
259.49866 1223.375 297.90674
267.46045 1214.1968 325.51514
275.61008 1204.7021 354.07593
281.23468 1204.7021 354.07593
289.54187 1195.2075 382.63623
295.2193 1195.2075 382.63623
300.89655 1195.2075 382.63623
306.57394 1195.2075 382.63623
312.25116 1195.2075 382.63623
317.92834 1195.2075 382.63623
326.70392 1185.3964 412.14893
329.28299 1195.2075 382.63623
334.96042 1195.2075 382.63623
343.8988 1185.3964 412.14893
-193.58208 1270.7798 138.7793
-188.35011 1270.7798 138.7793
-184.71367 1262.509 163.51416
-179.43613 1262.509 163.51416
-174.15857 1262.509 163.51416
-168.8811 1262.509 163.51416
-163.60356 1262.509 163.51416
-158.326 1262.509 163.51416
-153.04846 1262.509 163.51416
-147.7709 1262.509 163.51416
-142.49345 1262.509 163.51416
-137.21588 1262.509 163.51416
-131.93834 1262.509 163.51416
-126.66079 1262.509 163.51416
-121.38322 1262.509 163.51416
-116.10578 1262.509 163.51416
-110.82822 1262.509 163.51416
-105.55067 1262.509 163.51416
-100.27312 1262.509 163.51416
-94.99556 1262.509 163.51416
-89.718109 1262.509 163.51416
-84.440552 1262.509 163.51416
-79.163002 1262.509 163.51416
-73.247231 1270.7798 138.7793
-68.015266 1270.7798 138.7793
-62.783401 1270.7798 138.7793
-57.551434 1270.7798 138.7793
-52.319469 1270.7798 138.7793
-47.087502 1270.7798 138.7793
-41.855534 1270.7798 138.7793
-36.623669 1270.7798 138.7793
-31.391701 1270.7798 138.7793
-26.159735 1270.7798 138.7793
-21.110115 1262.509 163.51416
-15.83256 1262.509 163.51416
-10.555108 1262.509 163.51416
-5.277554 1262.509 163.51416
0 1262.509 163.51416
5.2774534 1262.509 163.51416
10.555108 1262.509 163.51416
15.83256 1262.509 163.51416
21.110216 1262.509 163.51416
26.387667 1262.509 163.51416
31.665119 1262.509 163.51416
36.942772 1262.509 163.51416
42.598946 1253.9204 189.19995
47.923943 1253.9204 189.19995
53.248734 1253.9204 189.19995
58.573528 1253.9204 189.19995
63.898525 1253.9204 189.19995
69.223312 1253.9204 189.19995
74.548309 1253.9204 189.19995
79.8731 1253.9204 189.19995
85.197891 1253.9204 189.19995
90.522888 1253.9204 189.19995
95.847679 1253.9204 189.19995
101.17268 1253.9204 189.19995
106.49747 1253.9204 189.19995
111.82227 1253.9204 189.19995
117.14725 1253.9204 189.19995
122.47205 1253.9204 189.19995
127.79705 1253.9204 189.19995
133.12184 1253.9204 189.19995
139.67747 1245.3315 214.88599
145.04982 1245.3315 214.88599
150.42194 1245.3315 214.88599
155.79427 1245.3315 214.88599
159.7462 1253.9204 189.19995
165.071 1253.9204 189.19995
170.396 1253.9204 189.19995
175.72078 1253.9204 189.19995
181.04578 1253.9204 189.19995
186.37057 1253.9204 189.19995
191.69536 1253.9204 189.19995
197.02036 1253.9204 189.19995
204.14407 1245.3315 214.88599
211.43105 1236.4246 241.52344
216.85228 1236.4246 241.52344
222.2735 1236.4246 241.52344
229.75684 1227.5178 268.16064
235.22717 1227.5178 268.16064
240.69769 1227.5178 268.16064
248.45612 1218.2927 295.74951
253.97728 1218.2927 295.74951
259.49866 1218.2927 295.74951
267.46045 1209.0677 323.33813
275.61008 1199.5247 351.87817
281.23468 1199.5247 351.87817
289.54187 1189.9816 380.41797
295.2193 1189.9816 380.41797
300.89655 1189.9816 380.41797
306.57394 1189.9816 380.41797
315.24057 1180.1204 409.90942
320.97214 1180.1204 409.90942
326.70392 1180.1204 409.90942
332.43549 1180.1204 409.90942
338.16727 1180.1204 409.90942
343.8988 1180.1204 409.90942
349.63037 1180.1204 409.90942
-193.58208 1265.9637 136.73511
-188.35011 1265.9637 136.73511
-183.11813 1265.9637 136.73511
-179.43613 1257.6511 161.4519
-174.15857 1257.6511 161.4519
-168.8811 1257.6511 161.4519
-163.60356 1257.6511 161.4519
-158.326 1257.6511 161.4519
-153.04846 1257.6511 161.4519
-147.7709 1257.6511 161.4519
-142.49345 1257.6511 161.4519
-137.21588 1257.6511 161.4519
-131.93834 1257.6511 161.4519
-126.66079 1257.6511 161.4519
-121.38322 1257.6511 161.4519
-116.10578 1257.6511 161.4519
-110.82822 1257.6511 161.4519
-105.55067 1257.6511 161.4519
-100.27312 1257.6511 161.4519
-94.99556 1257.6511 161.4519
-89.718109 1257.6511 161.4519
-84.440552 1257.6511 161.4519
-79.163002 1257.6511 161.4519
-73.247231 1265.9637 136.73511
-68.015266 1265.9637 136.73511
-62.783401 1265.9637 136.73511
-57.551434 1265.9637 136.73511
-52.319469 1265.9637 136.73511
-47.087502 1265.9637 136.73511
-41.855534 1265.9637 136.73511
-36.623669 1265.9637 136.73511
-31.391701 1265.9637 136.73511
-26.159735 1265.9637 136.73511
-21.110115 1257.6511 161.4519
-15.83256 1257.6511 161.4519
-10.555108 1257.6511 161.4519
-5.277554 1257.6511 161.4519
0 1257.6511 161.4519
5.2774534 1257.6511 161.4519
10.555108 1257.6511 161.4519
15.83256 1257.6511 161.4519
21.110216 1257.6511 161.4519
26.387667 1257.6511 161.4519
31.665119 1257.6511 161.4519
36.942772 1257.6511 161.4519
42.598946 1249.0188 187.11938
47.923943 1249.0188 187.11938
53.248734 1249.0188 187.11938
58.573528 1249.0188 187.11938
63.898525 1249.0188 187.11938
69.223312 1249.0188 187.11938
74.548309 1249.0188 187.11938
79.8731 1249.0188 187.11938
85.197891 1249.0188 187.11938
90.522888 1249.0188 187.11938
96.699806 1240.3864 212.78711
102.07214 1240.3864 212.78711
106.49747 1249.0188 187.11938
111.82227 1249.0188 187.11938
117.14725 1249.0188 187.11938
123.56087 1240.3864 212.78711
128.9332 1240.3864 212.78711
134.30534 1240.3864 212.78711
138.44662 1249.0188 187.11938
143.77162 1249.0188 187.11938
150.42194 1240.3864 212.78711
155.79427 1240.3864 212.78711
159.7462 1249.0188 187.11938
165.071 1249.0188 187.11938
170.396 1249.0188 187.11938
175.72078 1249.0188 187.11938
181.04578 1249.0188 187.11938
186.37057 1249.0188 187.11938
191.69536 1249.0188 187.11938
198.77194 1240.3864 212.78711
204.14407 1240.3864 212.78711
211.43105 1231.4343 239.40527
216.85228 1231.4343 239.40527
222.2735 1231.4343 239.40527
229.75684 1222.4822 266.02319
235.22717 1222.4822 266.02319
240.69769 1222.4822 266.02319
246.16801 1222.4822 266.02319
253.97728 1213.2103 293.59204
259.49866 1213.2103 293.59204
267.46045 1203.9386 321.16089
275.61008 1194.347 349.68042
281.23468 1194.347 349.68042
289.54187 1184.7556 378.19971
295.2193 1184.7556 378.19971
300.89655 1184.7556 378.19971
306.57394 1184.7556 378.19971
315.24057 1174.8444 407.66992
320.97214 1174.8444 407.66992
326.70392 1174.8444 407.66992
332.43549 1174.8444 407.66992
338.16727 1174.8444 407.66992
343.8988 1174.8444 407.66992
349.63037 1174.8444 407.66992
-191.89537 1269.5023 109.99194
-186.70898 1269.5023 109.99194
-183.11813 1261.1477 134.69092
-177.88617 1261.1477 134.69092
-174.15857 1252.7931 159.38989
-168.8811 1252.7931 159.38989
-163.60356 1252.7931 159.38989
-158.326 1252.7931 159.38989
-153.04846 1252.7931 159.38989
-147.7709 1252.7931 159.38989
-142.49345 1252.7931 159.38989
-137.21588 1252.7931 159.38989
-131.93834 1252.7931 159.38989
-126.66079 1252.7931 159.38989
-121.38322 1252.7931 159.38989
-116.10578 1252.7931 159.38989
-110.82822 1252.7931 159.38989
-105.55067 1252.7931 159.38989
-100.27312 1252.7931 159.38989
-94.99556 1252.7931 159.38989
-89.718109 1252.7931 159.38989
-84.440552 1252.7931 159.38989
-79.163002 1252.7931 159.38989
-73.247231 1261.1477 134.69092
-68.015266 1261.1477 134.69092
-62.783401 1261.1477 134.69092
-57.551434 1261.1477 134.69092
-52.319469 1261.1477 134.69092
-47.087502 1261.1477 134.69092
-41.855534 1261.1477 134.69092
-36.623669 1261.1477 134.69092
-31.391701 1261.1477 134.69092
-26.159735 1261.1477 134.69092
-21.110115 1252.7931 159.38989
-15.97458 1244.1172 185.03882
-10.649788 1244.1172 185.03882
-5.277554 1252.7931 159.38989
0 1252.7931 159.38989
5.2774534 1252.7931 159.38989
10.555108 1252.7931 159.38989
15.83256 1252.7931 159.38989
21.110216 1252.7931 159.38989
26.387667 1252.7931 159.38989
31.665119 1252.7931 159.38989
36.942772 1252.7931 159.38989
42.598946 1244.1172 185.03882
47.923943 1244.1172 185.03882
53.248734 1244.1172 185.03882
58.573528 1244.1172 185.03882
63.898525 1244.1172 185.03882
69.223312 1244.1172 185.03882
74.548309 1244.1172 185.03882
79.8731 1244.1172 185.03882
85.197891 1244.1172 185.03882
90.522888 1244.1172 185.03882
96.699806 1235.4412 210.68799
102.07214 1235.4412 210.68799
106.49747 1244.1172 185.03882
111.82227 1244.1172 185.03882
118.18874 1235.4412 210.68799
123.56087 1235.4412 210.68799
128.9332 1235.4412 210.68799
134.30534 1235.4412 210.68799
138.44662 1244.1172 185.03882
143.77162 1244.1172 185.03882
150.42194 1235.4412 210.68799
155.79427 1235.4412 210.68799
159.7462 1244.1172 185.03882
165.071 1244.1172 185.03882
170.396 1244.1172 185.03882
175.72078 1244.1172 185.03882
181.04578 1244.1172 185.03882
186.37057 1244.1172 185.03882
191.69536 1244.1172 185.03882
198.77194 1235.4412 210.68799
204.14407 1235.4412 210.68799
211.43105 1226.444 237.28687
216.85228 1226.444 237.28687
222.2735 1226.444 237.28687
229.75684 1217.4468 263.88574
235.22717 1217.4468 263.88574
240.69769 1217.4468 263.88574
246.16801 1217.4468 263.88574
253.97728 1208.1281 291.43481
259.49866 1208.1281 291.43481
265.01981 1208.1281 291.43481
273.03268 1198.8094 318.98364
281.23468 1189.1696 347.48267
289.54187 1179.5295 375.98145
295.2193 1179.5295 375.98145
300.89655 1179.5295 375.98145
306.57394 1179.5295 375.98145
315.24057 1169.5684 405.43018
320.97214 1169.5684 405.43018
326.70392 1169.5684 405.43018
332.43549 1169.5684 405.43018
338.16727 1169.5684 405.43018
343.8988 1169.5684 405.43018
349.63037 1169.5684 405.43018
-191.89537 1264.7283 107.96533
-186.70898 1264.7283 107.96533
-183.11813 1256.3318 132.64648
-177.88617 1256.3318 132.64648
-172.65421 1256.3318 132.64648
-168.8811 1247.9351 157.32788
-163.60356 1247.9351 157.32788
-158.326 1247.9351 157.32788
-153.04846 1247.9351 157.32788
-147.7709 1247.9351 157.32788
-142.49345 1247.9351 157.32788
-137.21588 1247.9351 157.32788
-131.93834 1247.9351 157.32788
-126.66079 1247.9351 157.32788
-121.38322 1247.9351 157.32788
-116.10578 1247.9351 157.32788
-110.82822 1247.9351 157.32788
-105.55067 1247.9351 157.32788
-100.27312 1247.9351 157.32788
-94.99556 1247.9351 157.32788
-89.718109 1247.9351 157.32788
-84.440552 1247.9351 157.32788
-79.163002 1247.9351 157.32788
-73.247231 1256.3318 132.64648
-68.015266 1256.3318 132.64648
-62.783401 1256.3318 132.64648
-57.551434 1256.3318 132.64648
-52.319469 1256.3318 132.64648
-47.087502 1256.3318 132.64648
-41.855534 1256.3318 132.64648
-36.623669 1256.3318 132.64648
-31.391701 1256.3318 132.64648
-26.159735 1256.3318 132.64648
-20.927767 1256.3318 132.64648
-15.97458 1239.2156 182.95825
-10.649788 1239.2156 182.95825
-5.277554 1247.9351 157.32788
0 1247.9351 157.32788
5.2774534 1247.9351 157.32788
10.555108 1247.9351 157.32788
15.83256 1247.9351 157.32788
21.110216 1247.9351 157.32788
26.387667 1247.9351 157.32788
31.665119 1247.9351 157.32788
36.942772 1247.9351 157.32788
42.598946 1239.2156 182.95825
47.923943 1239.2156 182.95825
53.248734 1239.2156 182.95825
58.573528 1239.2156 182.95825
63.898525 1239.2156 182.95825
69.223312 1239.2156 182.95825
74.548309 1239.2156 182.95825
79.8731 1239.2156 182.95825
85.197891 1239.2156 182.95825
90.522888 1239.2156 182.95825
96.699806 1230.4961 208.58887
102.07214 1230.4961 208.58887
106.49747 1239.2156 182.95825
111.82227 1239.2156 182.95825
118.18874 1230.4961 208.58887
123.56087 1230.4961 208.58887
128.9332 1230.4961 208.58887
134.30534 1230.4961 208.58887
138.44662 1239.2156 182.95825
143.77162 1239.2156 182.95825
150.42194 1230.4961 208.58887
155.79427 1230.4961 208.58887
159.7462 1239.2156 182.95825
165.071 1239.2156 182.95825
170.396 1239.2156 182.95825
177.283 1230.4961 208.58887
181.04578 1239.2156 182.95825
186.37057 1239.2156 182.95825
191.69536 1239.2156 182.95825
198.77194 1230.4961 208.58887
206.00961 1221.4536 235.1687
211.43105 1221.4536 235.1687
218.81601 1212.4113 261.74829
224.28632 1212.4113 261.74829
229.75684 1212.4113 261.74829
235.22717 1212.4113 261.74829
240.69769 1212.4113 261.74829
246.16801 1212.4113 261.74829
253.97728 1203.0457 289.27759
259.49866 1203.0457 289.27759
265.01981 1203.0457 289.27759
273.03268 1193.6803 316.8064
281.23468 1183.9919 345.28491
289.54187 1174.3036 373.76318
295.2193 1174.3036 373.76318
300.89655 1174.3036 373.76318
306.57394 1174.3036 373.76318
315.24057 1164.2924 403.19067
320.97214 1164.2924 403.19067
326.70392 1164.2924 403.19067
332.43549 1164.2924 403.19067
338.16727 1164.2924 403.19067
343.8988 1164.2924 403.19067
349.63037 1164.2924 403.19067
-204.0459 1251.5156 130.60229
-198.81393 1251.5156 130.60229
-191.89537 1259.9541 105.93896
-186.70898 1259.9541 105.93896
-183.11813 1251.5156 130.60229
-177.88617 1251.5156 130.60229
-172.65421 1251.5156 130.60229
-167.42235 1251.5156 130.60229
-162.19038 1251.5156 130.60229
-158.326 1243.0771 155.26562
-153.04846 1243.0771 155.26562
-147.7709 1243.0771 155.26562
-142.49345 1243.0771 155.26562
-137.21588 1243.0771 155.26562
-131.93834 1243.0771 155.26562
-126.66079 1243.0771 155.26562
-121.38322 1243.0771 155.26562
-116.10578 1243.0771 155.26562
-110.82822 1243.0771 155.26562
-105.55067 1243.0771 155.26562
-100.27312 1243.0771 155.26562
-94.99556 1243.0771 155.26562
-89.718109 1243.0771 155.26562
-84.440552 1243.0771 155.26562
-79.163002 1243.0771 155.26562
-73.885452 1243.0771 155.26562
-68.015266 1251.5156 130.60229
-62.783401 1251.5156 130.60229
-57.551434 1251.5156 130.60229
-52.319469 1251.5156 130.60229
-47.087502 1251.5156 130.60229
-41.855534 1251.5156 130.60229
-36.623669 1251.5156 130.60229
-31.391701 1251.5156 130.60229
-26.159735 1251.5156 130.60229
-20.927767 1251.5156 130.60229
-15.97458 1234.3141 180.87769
-10.649788 1234.3141 180.87769
-5.277554 1243.0771 155.26562
0 1243.0771 155.26562
5.2774534 1243.0771 155.26562
10.649788 1234.3141 180.87769
15.97458 1234.3141 180.87769
21.299576 1234.3141 180.87769
26.624367 1234.3141 180.87769
31.94916 1234.3141 180.87769
37.274155 1234.3141 180.87769
42.598946 1234.3141 180.87769
47.923943 1234.3141 180.87769
53.248734 1234.3141 180.87769
58.573528 1234.3141 180.87769
63.898525 1234.3141 180.87769
69.223312 1234.3141 180.87769
74.548309 1234.3141 180.87769
79.8731 1234.3141 180.87769
85.197891 1234.3141 180.87769
90.522888 1234.3141 180.87769
96.699806 1225.5509 206.48975
102.07214 1225.5509 206.48975
107.44427 1225.5509 206.48975
112.81641 1225.5509 206.48975
118.18874 1225.5509 206.48975
123.56087 1225.5509 206.48975
128.9332 1225.5509 206.48975
134.30534 1225.5509 206.48975
138.44662 1234.3141 180.87769
143.77162 1234.3141 180.87769
150.42194 1225.5509 206.48975
155.79427 1225.5509 206.48975
159.7462 1234.3141 180.87769
165.071 1234.3141 180.87769
170.396 1234.3141 180.87769
177.283 1225.5509 206.48975
182.65533 1225.5509 206.48975
188.02748 1225.5509 206.48975
193.39961 1225.5509 206.48975
198.77194 1225.5509 206.48975
206.00961 1216.4634 233.05029
211.43105 1216.4634 233.05029
218.81601 1207.3757 259.61084
224.28632 1207.3757 259.61084
229.75684 1207.3757 259.61084
235.22717 1207.3757 259.61084
240.69769 1207.3757 259.61084
246.16801 1207.3757 259.61084
253.97728 1197.9634 287.12012
261.88843 1188.5511 314.62939
267.46045 1188.5511 314.62939
273.03268 1188.5511 314.62939
281.23468 1178.8145 343.08716
289.54187 1169.0776 371.54492
295.2193 1169.0776 371.54492
300.89655 1169.0776 371.54492
306.57394 1169.0776 371.54492
315.24057 1159.0164 400.95117
320.97214 1159.0164 400.95117
326.70392 1159.0164 400.95117
335.58798 1148.955 430.35767
344.78784 1138.2445 461.66113
350.63162 1138.2445 461.66113
356.47537 1138.2445 461.66113
-204.0459 1246.6997 128.55811
-198.81393 1246.6997 128.55811
-193.58208 1246.6997 128.55811
-188.35011 1246.6997 128.55811
-183.11813 1246.6997 128.55811
-177.88617 1246.6997 128.55811
-172.65421 1246.6997 128.55811
-167.42235 1246.6997 128.55811
-162.19038 1246.6997 128.55811
-158.326 1238.2191 153.20361
-153.04846 1238.2191 153.20361
-147.7709 1238.2191 153.20361
-142.49345 1238.2191 153.20361
-137.21588 1238.2191 153.20361
-131.93834 1238.2191 153.20361
-126.66079 1238.2191 153.20361
-121.38322 1238.2191 153.20361
-116.10578 1238.2191 153.20361
-110.82822 1238.2191 153.20361
-105.55067 1238.2191 153.20361
-100.27312 1238.2191 153.20361
-94.99556 1238.2191 153.20361
-89.718109 1238.2191 153.20361
-83.711174 1246.6997 128.55811
-78.479202 1246.6997 128.55811
-73.247231 1246.6997 128.55811
-68.015266 1246.6997 128.55811
-62.783401 1246.6997 128.55811
-57.551434 1246.6997 128.55811
-52.319469 1246.6997 128.55811
-47.087502 1246.6997 128.55811
-41.855534 1246.6997 128.55811
-36.623669 1246.6997 128.55811
-31.391701 1246.6997 128.55811
-26.159735 1246.6997 128.55811
-20.927767 1246.6997 128.55811
-15.83256 1238.2191 153.20361
-10.555108 1238.2191 153.20361
-5.277554 1238.2191 153.20361
0 1238.2191 153.20361
5.3247924 1229.4125 178.79688
10.649788 1229.4125 178.79688
15.97458 1229.4125 178.79688
21.299576 1229.4125 178.79688
26.624367 1229.4125 178.79688
31.94916 1229.4125 178.79688
37.274155 1229.4125 178.79688
42.598946 1229.4125 178.79688
47.923943 1229.4125 178.79688
53.248734 1229.4125 178.79688
58.573528 1229.4125 178.79688
63.898525 1229.4125 178.79688
69.223312 1229.4125 178.79688
74.548309 1229.4125 178.79688
79.8731 1229.4125 178.79688
85.197891 1229.4125 178.79688
90.522888 1229.4125 178.79688
96.699806 1220.6057 204.39062
102.07214 1220.6057 204.39062
107.44427 1220.6057 204.39062
112.81641 1220.6057 204.39062
118.18874 1220.6057 204.39062
123.56087 1220.6057 204.39062
128.9332 1220.6057 204.39062
134.30534 1220.6057 204.39062
138.44662 1229.4125 178.79688
143.77162 1229.4125 178.79688
150.42194 1220.6057 204.39062
155.79427 1220.6057 204.39062
161.16641 1220.6057 204.39062
165.071 1229.4125 178.79688
170.396 1229.4125 178.79688
177.283 1220.6057 204.39062
182.65533 1220.6057 204.39062
188.02748 1220.6057 204.39062
193.39961 1220.6057 204.39062
198.77194 1220.6057 204.39062
206.00961 1211.4729 230.93213
211.43105 1211.4729 230.93213
218.81601 1202.3401 257.47339
224.28632 1202.3401 257.47339
229.75684 1202.3401 257.47339
235.22717 1202.3401 257.47339
240.69769 1202.3401 257.47339
246.16801 1202.3401 257.47339
253.97728 1192.8811 284.96289
261.88843 1183.4221 312.45215
269.98526 1173.6368 340.8894
275.61008 1173.6368 340.8894
281.23468 1173.6368 340.8894
289.54187 1163.8517 369.32666
295.2193 1163.8517 369.32666
300.89655 1163.8517 369.32666
306.57394 1163.8517 369.32666
315.24057 1153.7404 398.71167
320.97214 1153.7404 398.71167
329.80203 1143.6289 428.09692
335.58798 1143.6289 428.09692
341.37411 1143.6289 428.09692
347.16 1143.6289 428.09692
356.47537 1132.8652 459.37793
-209.27788 1241.8837 126.51367
-204.0459 1241.8837 126.51367
-198.81393 1241.8837 126.51367
-193.58208 1241.8837 126.51367
-188.35011 1241.8837 126.51367
-183.11813 1241.8837 126.51367
-177.88617 1241.8837 126.51367
-172.65421 1241.8837 126.51367
-167.42235 1241.8837 126.51367
-162.19038 1241.8837 126.51367
-158.326 1233.3611 151.1416
-153.04846 1233.3611 151.1416
-147.7709 1233.3611 151.1416
-142.49345 1233.3611 151.1416
-137.21588 1233.3611 151.1416
-131.93834 1233.3611 151.1416
-126.66079 1233.3611 151.1416
-121.38322 1233.3611 151.1416
-116.10578 1233.3611 151.1416
-110.82822 1233.3611 151.1416
-105.55067 1233.3611 151.1416
-100.27312 1233.3611 151.1416
-94.99556 1233.3611 151.1416
-89.718109 1233.3611 151.1416
-83.711174 1241.8837 126.51367
-78.479202 1241.8837 126.51367
-73.247231 1241.8837 126.51367
-68.015266 1241.8837 126.51367
-62.783401 1241.8837 126.51367
-57.551434 1241.8837 126.51367
-52.319469 1241.8837 126.51367
-47.087502 1241.8837 126.51367
-41.855534 1241.8837 126.51367
-36.623669 1241.8837 126.51367
-31.391701 1241.8837 126.51367
-26.159735 1241.8837 126.51367
-20.927767 1241.8837 126.51367
-15.83256 1233.3611 151.1416
-10.555108 1233.3611 151.1416
-5.324894 1224.511 176.71631
0 1224.511 176.71631
5.3247924 1224.511 176.71631
10.649788 1224.511 176.71631
15.97458 1224.511 176.71631
21.299576 1224.511 176.71631
26.624367 1224.511 176.71631
31.94916 1224.511 176.71631
37.274155 1224.511 176.71631
42.598946 1224.511 176.71631
47.923943 1224.511 176.71631
53.248734 1224.511 176.71631
58.573528 1224.511 176.71631
63.898525 1224.511 176.71631
69.223312 1224.511 176.71631
74.548309 1224.511 176.71631
79.8731 1224.511 176.71631
85.197891 1224.511 176.71631
90.522888 1224.511 176.71631
96.699806 1215.6606 202.2915
102.07214 1215.6606 202.2915
107.44427 1215.6606 202.2915
112.81641 1215.6606 202.2915
118.18874 1215.6606 202.2915
124.69002 1206.4827 228.81372
128.9332 1215.6606 202.2915
134.30534 1215.6606 202.2915
139.67747 1215.6606 202.2915
145.04982 1215.6606 202.2915
150.42194 1215.6606 202.2915
155.79427 1215.6606 202.2915
161.16641 1215.6606 202.2915
165.071 1224.511 176.71631
170.396 1224.511 176.71631
177.283 1215.6606 202.2915
182.65533 1215.6606 202.2915
188.02748 1215.6606 202.2915
193.39961 1215.6606 202.2915
198.77194 1215.6606 202.2915
206.00961 1206.4827 228.81372
211.43105 1206.4827 228.81372
218.81601 1197.3047 255.33594
224.28632 1197.3047 255.33594
229.75684 1197.3047 255.33594
235.22717 1197.3047 255.33594
240.69769 1197.3047 255.33594
248.45612 1187.7987 282.80542
253.97728 1187.7987 282.80542
261.88843 1178.293 310.2749
269.98526 1168.4594 338.69165
275.61008 1168.4594 338.69165
281.23468 1168.4594 338.69165
289.54187 1158.6257 367.10815
295.2193 1158.6257 367.10815
300.89655 1158.6257 367.10815
306.57394 1158.6257 367.10815
315.24057 1148.4644 396.47217
320.97214 1148.4644 396.47217
326.70392 1148.4644 396.47217
335.58798 1138.3029 425.83618
341.37411 1138.3029 425.83618
347.16 1138.3029 425.83618
356.47537 1127.486 457.09448
-209.27788 1237.0676 124.46948
-204.0459 1237.0676 124.46948
-198.81393 1237.0676 124.46948
-193.58208 1237.0676 124.46948
-188.35011 1237.0676 124.46948
-183.11813 1237.0676 124.46948
-177.88617 1237.0676 124.46948
-172.65421 1237.0676 124.46948
-167.42235 1237.0676 124.46948
-163.60356 1228.5032 149.07935
-158.326 1228.5032 149.07935
-153.04846 1228.5032 149.07935
-147.7709 1228.5032 149.07935
-142.49345 1228.5032 149.07935
-137.21588 1228.5032 149.07935
-131.93834 1228.5032 149.07935
-126.66079 1228.5032 149.07935
-121.38322 1228.5032 149.07935
-116.10578 1228.5032 149.07935
-110.82822 1228.5032 149.07935
-105.55067 1228.5032 149.07935
-100.27312 1228.5032 149.07935
-94.99556 1228.5032 149.07935
-89.718109 1228.5032 149.07935
-84.440552 1228.5032 149.07935
-79.163002 1228.5032 149.07935
-73.885452 1228.5032 149.07935
-68.015266 1237.0676 124.46948
-62.783401 1237.0676 124.46948
-57.551434 1237.0676 124.46948
-52.319469 1237.0676 124.46948
-47.087502 1237.0676 124.46948
-41.855534 1237.0676 124.46948
-36.623669 1237.0676 124.46948
-31.391701 1237.0676 124.46948
-26.159735 1237.0676 124.46948
-20.927767 1237.0676 124.46948
-15.83256 1228.5032 149.07935
-10.649788 1219.6094 174.63574
-5.324894 1219.6094 174.63574
0 1219.6094 174.63574
5.3247924 1219.6094 174.63574
10.649788 1219.6094 174.63574
15.97458 1219.6094 174.63574
21.299576 1219.6094 174.63574
26.624367 1219.6094 174.63574
31.94916 1219.6094 174.63574
37.274155 1219.6094 174.63574
42.598946 1219.6094 174.63574
47.923943 1219.6094 174.63574
53.248734 1219.6094 174.63574
58.573528 1219.6094 174.63574
63.898525 1219.6094 174.63574
69.223312 1219.6094 174.63574
74.548309 1219.6094 174.63574
79.8731 1219.6094 174.63574
85.197891 1219.6094 174.63574
90.522888 1219.6094 174.63574
95.847679 1219.6094 174.63574
102.07214 1210.7155 200.19238
107.44427 1210.7155 200.19238
112.81641 1210.7155 200.19238
118.18874 1210.7155 200.19238
123.56087 1210.7155 200.19238
128.9332 1210.7155 200.19238
134.30534 1210.7155 200.19238
138.44662 1219.6094 174.63574
143.77162 1219.6094 174.63574
150.42194 1210.7155 200.19238
155.79427 1210.7155 200.19238
161.16641 1210.7155 200.19238
166.53854 1210.7155 200.19238
171.91087 1210.7155 200.19238
177.283 1210.7155 200.19238
182.65533 1210.7155 200.19238
188.02748 1210.7155 200.19238
193.39961 1210.7155 200.19238
198.77194 1210.7155 200.19238
206.00961 1201.4923 226.69556
211.43105 1201.4923 226.69556
218.81601 1192.2692 253.19849
224.28632 1192.2692 253.19849
229.75684 1192.2692 253.19849
235.22717 1192.2692 253.19849
240.69769 1192.2692 253.19849
248.45612 1182.7164 280.64819
256.31622 1173.1638 308.09766
264.36063 1163.2817 336.4939
269.98526 1163.2817 336.4939
275.61008 1163.2817 336.4939
283.86469 1153.3998 364.88989
289.54187 1153.3998 364.88989
295.2193 1153.3998 364.88989
300.89655 1153.3998 364.88989
306.57394 1153.3998 364.88989
315.24057 1143.1884 394.23267
320.97214 1143.1884 394.23267
326.70392 1143.1884 394.23267
335.58798 1132.9769 423.5752
341.37411 1132.9769 423.5752
347.16 1132.9769 423.5752
352.94592 1132.9769 423.5752
358.73206 1132.9769 423.5752
-211.10133 1223.645 147.01733
-205.82379 1223.645 147.01733
-200.54623 1223.645 147.01733
-195.26877 1223.645 147.01733
-189.99123 1223.645 147.01733
-184.71367 1223.645 147.01733
-177.88617 1232.2515 122.42505
-172.65421 1232.2515 122.42505
-167.42235 1232.2515 122.42505
-163.60356 1223.645 147.01733
-158.326 1223.645 147.01733
-153.04846 1223.645 147.01733
-146.49446 1232.2515 122.42505
-141.2626 1232.2515 122.42505
-137.21588 1223.645 147.01733
-131.93834 1223.645 147.01733
-126.66079 1223.645 147.01733
-121.38322 1223.645 147.01733
-116.10578 1223.645 147.01733
-110.82822 1223.645 147.01733
-105.55067 1223.645 147.01733
-100.27312 1223.645 147.01733
-94.99556 1223.645 147.01733
-89.718109 1223.645 147.01733
-84.440552 1223.645 147.01733
-79.163002 1223.645 147.01733
-73.885452 1223.645 147.01733
-68.607895 1223.645 147.01733
-62.783401 1232.2515 122.42505
-57.551434 1232.2515 122.42505
-52.319469 1232.2515 122.42505
-47.087502 1232.2515 122.42505
-41.855534 1232.2515 122.42505
-36.623669 1232.2515 122.42505
-31.391701 1232.2515 122.42505
-26.159735 1232.2515 122.42505
-20.927767 1232.2515 122.42505
-15.83256 1223.645 147.01733
-10.649788 1214.7078 172.55518
-5.324894 1214.7078 172.55518
0 1214.7078 172.55518
5.3247924 1214.7078 172.55518
10.649788 1214.7078 172.55518
15.97458 1214.7078 172.55518
21.299576 1214.7078 172.55518
26.624367 1214.7078 172.55518
31.94916 1214.7078 172.55518
37.274155 1214.7078 172.55518
42.598946 1214.7078 172.55518
47.923943 1214.7078 172.55518
53.248734 1214.7078 172.55518
58.573528 1214.7078 172.55518
63.898525 1214.7078 172.55518
69.223312 1214.7078 172.55518
74.548309 1214.7078 172.55518
79.8731 1214.7078 172.55518
85.197891 1214.7078 172.55518
90.522888 1214.7078 172.55518
95.847679 1214.7078 172.55518
102.07214 1205.7703 198.09326
107.44427 1205.7703 198.09326
112.81641 1205.7703 198.09326
118.18874 1205.7703 198.09326
123.56087 1205.7703 198.09326
128.9332 1205.7703 198.09326
133.12184 1214.7078 172.55518
138.44662 1214.7078 172.55518
143.77162 1214.7078 172.55518
150.42194 1205.7703 198.09326
155.79427 1205.7703 198.09326
161.16641 1205.7703 198.09326
166.53854 1205.7703 198.09326
171.91087 1205.7703 198.09326
177.283 1205.7703 198.09326
182.65533 1205.7703 198.09326
188.02748 1205.7703 198.09326
193.39961 1205.7703 198.09326
200.58839 1196.502 224.57715
206.00961 1196.502 224.57715
211.43105 1196.502 224.57715
218.81601 1187.2335 251.06104
224.28632 1187.2335 251.06104
229.75684 1187.2335 251.06104
237.41357 1177.634 278.49097
242.93494 1177.634 278.49097
248.45612 1177.634 278.49097
256.31622 1168.0345 305.92041
264.36063 1158.1041 334.29614
269.98526 1158.1041 334.29614
275.61008 1158.1041 334.29614
283.86469 1148.1737 362.67163
289.54187 1148.1737 362.67163
295.2193 1148.1737 362.67163
300.89655 1148.1737 362.67163
306.57394 1148.1737 362.67163
315.24057 1137.9122 391.99316
320.97214 1137.9122 391.99316
326.70392 1137.9122 391.99316
335.58798 1127.6508 421.31445
341.37411 1127.6508 421.31445
347.16 1127.6508 421.31445
352.94592 1127.6508 421.31445
358.73206 1127.6508 421.31445
-211.10133 1218.7871 144.95508
-205.82379 1218.7871 144.95508
-200.54623 1218.7871 144.95508
-195.26877 1218.7871 144.95508
-189.99123 1218.7871 144.95508
-184.71367 1218.7871 144.95508
-177.88617 1227.4355 120.38086
-172.65421 1227.4355 120.38086
-167.42235 1227.4355 120.38086
-163.60356 1218.7871 144.95508
-158.326 1218.7871 144.95508
-153.04846 1218.7871 144.95508
-146.49446 1227.4355 120.38086
-141.2626 1227.4355 120.38086
-137.21588 1218.7871 144.95508
-131.93834 1218.7871 144.95508
-126.66079 1218.7871 144.95508
-121.38322 1218.7871 144.95508
-116.10578 1218.7871 144.95508
-110.82822 1218.7871 144.95508
-105.55067 1218.7871 144.95508
-100.27312 1218.7871 144.95508
-94.99556 1218.7871 144.95508
-89.718109 1218.7871 144.95508
-84.440552 1218.7871 144.95508
-79.163002 1218.7871 144.95508
-73.885452 1218.7871 144.95508
-68.607895 1218.7871 144.95508
-62.783401 1227.4355 120.38086
-57.551434 1227.4355 120.38086
-52.319469 1227.4355 120.38086
-47.087502 1227.4355 120.38086
-41.855534 1227.4355 120.38086
-36.623669 1227.4355 120.38086
-31.391701 1227.4355 120.38086
-26.159735 1227.4355 120.38086
-20.927767 1227.4355 120.38086
-15.83256 1218.7871 144.95508
-10.649788 1209.8062 170.47461
-5.324894 1209.8062 170.47461
0 1209.8062 170.47461
5.3247924 1209.8062 170.47461
10.649788 1209.8062 170.47461
15.97458 1209.8062 170.47461
21.299576 1209.8062 170.47461
26.624367 1209.8062 170.47461
31.94916 1209.8062 170.47461
37.274155 1209.8062 170.47461
42.598946 1209.8062 170.47461
47.923943 1209.8062 170.47461
53.248734 1209.8062 170.47461
58.573528 1209.8062 170.47461
63.898525 1209.8062 170.47461
69.223312 1209.8062 170.47461
74.548309 1209.8062 170.47461
79.8731 1209.8062 170.47461
85.197891 1209.8062 170.47461
90.522888 1209.8062 170.47461
96.699806 1200.8252 195.99414
102.07214 1200.8252 195.99414
107.44427 1200.8252 195.99414
112.81641 1200.8252 195.99414
118.18874 1200.8252 195.99414
123.56087 1200.8252 195.99414
128.9332 1200.8252 195.99414
133.12184 1209.8062 170.47461
138.44662 1209.8062 170.47461
145.04982 1200.8252 195.99414
150.42194 1200.8252 195.99414
155.79427 1200.8252 195.99414
161.16641 1200.8252 195.99414
166.53854 1200.8252 195.99414
171.91087 1200.8252 195.99414
177.283 1200.8252 195.99414
182.65533 1200.8252 195.99414
188.02748 1200.8252 195.99414
193.39961 1200.8252 195.99414
200.58839 1191.5116 222.45898
206.00961 1191.5116 222.45898
211.43105 1191.5116 222.45898
218.81601 1182.198 248.92358
224.28632 1182.198 248.92358
229.75684 1182.198 248.92358
237.41357 1172.5516 276.3335
242.93494 1172.5516 276.3335
248.45612 1172.5516 276.3335
253.97728 1172.5516 276.3335
264.36063 1152.9266 332.09839
269.98526 1152.9266 332.09839
278.18747 1142.9478 360.45337
283.86469 1142.9478 360.45337
289.54187 1142.9478 360.45337
295.2193 1142.9478 360.45337
300.89655 1142.9478 360.45337
309.50903 1132.6362 389.75342
315.24057 1132.6362 389.75342
320.97214 1132.6362 389.75342
326.70392 1132.6362 389.75342
335.58798 1122.3247 419.05371
344.78784 1111.3479 450.24438
353.99802 1100.7039 480.4895
359.89789 1100.7039 480.4895
-211.10133 1213.9291 142.89307
-205.82379 1213.9291 142.89307
-200.54623 1213.9291 142.89307
-195.26877 1213.9291 142.89307
-189.99123 1213.9291 142.89307
-184.71367 1213.9291 142.89307
-179.43613 1213.9291 142.89307
-172.65421 1222.6194 118.33667
-167.42235 1222.6194 118.33667
-163.60356 1213.9291 142.89307
-158.326 1213.9291 142.89307
-153.04846 1213.9291 142.89307
-146.49446 1222.6194 118.33667
-141.2626 1222.6194 118.33667
-137.21588 1213.9291 142.89307
-131.93834 1213.9291 142.89307
-126.66079 1213.9291 142.89307
-121.38322 1213.9291 142.89307
-116.10578 1213.9291 142.89307
-110.82822 1213.9291 142.89307
-106.49747 1204.9045 168.39404
-101.17258 1204.9045 168.39404
-95.847679 1204.9045 168.39404
-89.718109 1213.9291 142.89307
-84.440552 1213.9291 142.89307
-79.163002 1213.9291 142.89307
-73.885452 1213.9291 142.89307
-68.607895 1213.9291 142.89307
-62.783401 1222.6194 118.33667
-57.551434 1222.6194 118.33667
-52.319469 1222.6194 118.33667
-47.087502 1222.6194 118.33667
-41.855534 1222.6194 118.33667
-36.623669 1222.6194 118.33667
-31.391701 1222.6194 118.33667
-26.159735 1222.6194 118.33667
-20.927767 1222.6194 118.33667
-15.97458 1204.9045 168.39404
-10.649788 1204.9045 168.39404
-5.324894 1204.9045 168.39404
0 1204.9045 168.39404
5.3247924 1204.9045 168.39404
10.649788 1204.9045 168.39404
15.97458 1204.9045 168.39404
21.299576 1204.9045 168.39404
26.624367 1204.9045 168.39404
31.94916 1204.9045 168.39404
37.274155 1204.9045 168.39404
42.598946 1204.9045 168.39404
47.923943 1204.9045 168.39404
53.248734 1204.9045 168.39404
58.573528 1204.9045 168.39404
63.898525 1204.9045 168.39404
69.223312 1204.9045 168.39404
74.548309 1204.9045 168.39404
79.8731 1204.9045 168.39404
85.197891 1204.9045 168.39404
90.522888 1204.9045 168.39404
96.699806 1195.88 193.89526
102.07214 1195.88 193.89526
107.44427 1195.88 193.89526
112.81641 1195.88 193.89526
118.18874 1195.88 193.89526
123.56087 1195.88 193.89526
128.9332 1195.88 193.89526
133.12184 1204.9045 168.39404
138.44662 1204.9045 168.39404
145.04982 1195.88 193.89526
150.42194 1195.88 193.89526
155.79427 1195.88 193.89526
161.16641 1195.88 193.89526
166.53854 1195.88 193.89526
171.91087 1195.88 193.89526
177.283 1195.88 193.89526
182.65533 1195.88 193.89526
188.02748 1195.88 193.89526
193.39961 1195.88 193.89526
200.58839 1186.5212 220.34082
206.00961 1186.5212 220.34082
211.43105 1186.5212 220.34082
216.85228 1186.5212 220.34082
224.28632 1177.1625 246.78613
229.75684 1177.1625 246.78613
235.22717 1177.1625 246.78613
242.93494 1167.4694 274.17627
248.45612 1167.4694 274.17627
253.97728 1167.4694 274.17627
264.36063 1147.749 329.90063
269.98526 1147.749 329.90063
275.61008 1147.749 329.90063
283.86469 1137.7218 358.23511
289.54187 1137.7218 358.23511
298.04568 1127.3602 387.51392
303.77722 1127.3602 387.51392
309.50903 1127.3602 387.51392
315.24057 1127.3602 387.51392
320.97214 1127.3602 387.51392
326.70392 1127.3602 387.51392
335.58798 1116.9987 416.79297
341.37411 1116.9987 416.79297
353.99802 1095.2729 478.18433
359.89789 1095.2729 478.18433
-211.10133 1209.071 140.83105
-205.82379 1209.071 140.83105
-200.54623 1209.071 140.83105
-195.26877 1209.071 140.83105
-189.99123 1209.071 140.83105
-184.71367 1209.071 140.83105
-179.43613 1209.071 140.83105
-174.15857 1209.071 140.83105
-168.8811 1209.071 140.83105
-163.60356 1209.071 140.83105
-158.326 1209.071 140.83105
-153.04846 1209.071 140.83105
-147.7709 1209.071 140.83105
-142.49345 1209.071 140.83105
-137.21588 1209.071 140.83105
-131.93834 1209.071 140.83105
-126.66079 1209.071 140.83105
-121.38322 1209.071 140.83105
-116.10578 1209.071 140.83105
-110.82822 1209.071 140.83105
-106.49747 1200.0031 166.31348
-101.17258 1200.0031 166.31348
-94.99556 1209.071 140.83105
-89.718109 1209.071 140.83105
-84.440552 1209.071 140.83105
-79.163002 1209.071 140.83105
-73.885452 1209.071 140.83105
-68.607895 1209.071 140.83105
-62.783401 1217.8035 116.29224
-57.551434 1217.8035 116.29224
-52.319469 1217.8035 116.29224
-47.087502 1217.8035 116.29224
-41.855534 1217.8035 116.29224
-36.623669 1217.8035 116.29224
-31.391701 1217.8035 116.29224
-26.159735 1217.8035 116.29224
-20.927767 1217.8035 116.29224
-15.97458 1200.0031 166.31348
-10.649788 1200.0031 166.31348
-5.324894 1200.0031 166.31348
0 1209.071 140.83105
5.2774534 1209.071 140.83105
10.555108 1209.071 140.83105
15.97458 1200.0031 166.31348
21.299576 1200.0031 166.31348
26.624367 1200.0031 166.31348
31.94916 1200.0031 166.31348
37.274155 1200.0031 166.31348
42.598946 1200.0031 166.31348
47.923943 1200.0031 166.31348
53.248734 1200.0031 166.31348
58.573528 1200.0031 166.31348
63.898525 1200.0031 166.31348
69.223312 1200.0031 166.31348
74.548309 1200.0031 166.31348
79.8731 1200.0031 166.31348
85.197891 1200.0031 166.31348
90.522888 1200.0031 166.31348
96.699806 1190.9348 191.79614
101.17268 1200.0031 166.31348
106.49747 1200.0031 166.31348
111.82227 1200.0031 166.31348
117.14725 1200.0031 166.31348
122.47205 1200.0031 166.31348
127.79705 1200.0031 166.31348
133.12184 1200.0031 166.31348
138.44662 1200.0031 166.31348
143.77162 1200.0031 166.31348
150.42194 1190.9348 191.79614
155.79427 1190.9348 191.79614
161.16641 1190.9348 191.79614
166.53854 1190.9348 191.79614
171.91087 1190.9348 191.79614
177.283 1190.9348 191.79614
182.65533 1190.9348 191.79614
188.02748 1190.9348 191.79614
193.39961 1190.9348 191.79614
200.58839 1181.5309 218.22241
206.00961 1181.5309 218.22241
211.43105 1181.5309 218.22241
216.85228 1181.5309 218.22241
224.28632 1172.127 244.64868
229.75684 1172.127 244.64868
235.22717 1172.127 244.64868
242.93494 1162.387 272.0188
248.45612 1162.387 272.0188
253.97728 1162.387 272.0188
261.88843 1152.6472 299.38892
269.98526 1142.5715 327.70288
275.61008 1142.5715 327.70288
283.86469 1132.4958 356.01685
289.54187 1132.4958 356.01685
298.04568 1122.0842 385.27441
303.77722 1122.0842 385.27441
309.50903 1122.0842 385.27441
315.24057 1122.0842 385.27441
320.97214 1122.0842 385.27441
329.80203 1111.6726 414.53223
335.58798 1111.6726 414.53223
341.37411 1111.6726 414.53223
353.99802 1089.842 475.87891
-211.10133 1204.2131 138.7688
-205.82379 1204.2131 138.7688
-200.54623 1204.2131 138.7688
-195.26877 1204.2131 138.7688
-189.99123 1204.2131 138.7688
-184.71367 1204.2131 138.7688
-179.43613 1204.2131 138.7688
-174.15857 1204.2131 138.7688
-168.8811 1204.2131 138.7688
-163.60356 1204.2131 138.7688
-158.326 1204.2131 138.7688
-153.04846 1204.2131 138.7688
-147.7709 1204.2131 138.7688
-142.49345 1204.2131 138.7688
-137.21588 1204.2131 138.7688
-131.93834 1204.2131 138.7688
-126.66079 1204.2131 138.7688
-121.38322 1204.2131 138.7688
-116.10578 1204.2131 138.7688
-110.82822 1204.2131 138.7688
-106.49747 1195.1014 164.23291
-100.27312 1204.2131 138.7688
-94.99556 1204.2131 138.7688
-89.718109 1204.2131 138.7688
-84.440552 1204.2131 138.7688
-79.163002 1204.2131 138.7688
-73.885452 1204.2131 138.7688
-68.607895 1204.2131 138.7688
-62.783401 1212.9874 114.24805
-57.551434 1212.9874 114.24805
-52.319469 1212.9874 114.24805
-47.087502 1212.9874 114.24805
-41.855534 1212.9874 114.24805
-36.623669 1212.9874 114.24805
-31.391701 1212.9874 114.24805
-26.159735 1212.9874 114.24805
-20.927767 1212.9874 114.24805
-15.97458 1195.1014 164.23291
-10.649788 1195.1014 164.23291
-5.324894 1195.1014 164.23291
0 1204.2131 138.7688
5.2774534 1204.2131 138.7688
10.555108 1204.2131 138.7688
15.97458 1195.1014 164.23291
21.299576 1195.1014 164.23291
26.624367 1195.1014 164.23291
31.94916 1195.1014 164.23291
37.274155 1195.1014 164.23291
42.598946 1195.1014 164.23291
48.350006 1185.9897 189.69702
53.722134 1185.9897 189.69702
58.573528 1195.1014 164.23291
63.898525 1195.1014 164.23291
69.838737 1185.9897 189.69702
75.211067 1185.9897 189.69702
80.583206 1185.9897 189.69702
85.197891 1195.1014 164.23291
90.522888 1195.1014 164.23291
95.847679 1195.1014 164.23291
101.17268 1195.1014 164.23291
106.49747 1195.1014 164.23291
111.82227 1195.1014 164.23291
117.14725 1195.1014 164.23291
122.47205 1195.1014 164.23291
127.79705 1195.1014 164.23291
133.12184 1195.1014 164.23291
138.44662 1195.1014 164.23291
143.77162 1195.1014 164.23291
150.42194 1185.9897 189.69702
155.79427 1185.9897 189.69702
161.16641 1185.9897 189.69702
166.53854 1185.9897 189.69702
171.91087 1185.9897 189.69702
177.283 1185.9897 189.69702
182.65533 1185.9897 189.69702
188.02748 1185.9897 189.69702
195.16696 1176.5405 216.10425
200.58839 1176.5405 216.10425
206.00961 1176.5405 216.10425
211.43105 1176.5405 216.10425
218.81601 1167.0914 242.51123
224.28632 1167.0914 242.51123
229.75684 1167.0914 242.51123
235.22717 1167.0914 242.51123
242.93494 1157.3047 269.86157
248.45612 1157.3047 269.86157
253.97728 1157.3047 269.86157
261.88843 1147.5181 297.21167
269.98526 1137.3939 325.50513
278.18747 1127.2698 353.79858
283.86469 1127.2698 353.79858
289.54187 1127.2698 353.79858
298.04568 1116.8082 383.03491
303.77722 1116.8082 383.03491
309.50903 1116.8082 383.03491
315.24057 1116.8082 383.03491
320.97214 1116.8082 383.03491
329.80203 1106.3467 412.27148
335.58798 1106.3467 412.27148
341.37411 1106.3467 412.27148
353.99802 1084.4111 473.57373
-209.27788 1208.1714 112.20361
-204.0459 1208.1714 112.20361
-198.81393 1208.1714 112.20361
-195.26877 1199.3551 136.70679
-189.99123 1199.3551 136.70679
-184.71367 1199.3551 136.70679
-179.43613 1199.3551 136.70679
-174.15857 1199.3551 136.70679
-168.8811 1199.3551 136.70679
-163.60356 1199.3551 136.70679
-158.326 1199.3551 136.70679
-153.04846 1199.3551 136.70679
-147.7709 1199.3551 136.70679
-142.49345 1199.3551 136.70679
-137.21588 1199.3551 136.70679
-131.93834 1199.3551 136.70679
-126.66079 1199.3551 136.70679
-121.38322 1199.3551 136.70679
-116.10578 1199.3551 136.70679
-110.82822 1199.3551 136.70679
-105.55067 1199.3551 136.70679
-100.27312 1199.3551 136.70679
-94.99556 1199.3551 136.70679
-89.718109 1199.3551 136.70679
-84.440552 1199.3551 136.70679
-79.163002 1199.3551 136.70679
-73.885452 1199.3551 136.70679
-68.607895 1199.3551 136.70679
-62.783401 1208.1714 112.20361
-57.551434 1208.1714 112.20361
-52.319469 1208.1714 112.20361
-47.087502 1208.1714 112.20361
-41.855534 1208.1714 112.20361
-36.623669 1208.1714 112.20361
-31.391701 1208.1714 112.20361
-26.159735 1208.1714 112.20361
-20.927767 1208.1714 112.20361
-15.97458 1190.2 162.15234
-10.555108 1199.3551 136.70679
-5.277554 1199.3551 136.70679
0 1190.2 162.15234
5.2774534 1199.3551 136.70679
10.555108 1199.3551 136.70679
15.83256 1199.3551 136.70679
21.110216 1199.3551 136.70679
26.624367 1190.2 162.15234
31.94916 1190.2 162.15234
37.274155 1190.2 162.15234
42.598946 1190.2 162.15234
47.923943 1190.2 162.15234
53.722134 1181.0446 187.5979
59.094265 1181.0446 187.5979
64.466599 1181.0446 187.5979
69.838737 1181.0446 187.5979
74.548309 1190.2 162.15234
79.8731 1190.2 162.15234
85.197891 1190.2 162.15234
90.522888 1190.2 162.15234
95.847679 1190.2 162.15234
101.17268 1190.2 162.15234
106.49747 1190.2 162.15234
111.82227 1190.2 162.15234
117.14725 1190.2 162.15234
122.47205 1190.2 162.15234
127.79705 1190.2 162.15234
133.12184 1190.2 162.15234
138.44662 1190.2 162.15234
143.77162 1190.2 162.15234
149.09642 1190.2 162.15234
155.79427 1181.0446 187.5979
161.16641 1181.0446 187.5979
166.53854 1181.0446 187.5979
171.91087 1181.0446 187.5979
177.283 1181.0446 187.5979
184.32451 1171.5502 213.98584
189.74574 1171.5502 213.98584
195.16696 1171.5502 213.98584
200.58839 1171.5502 213.98584
206.00961 1171.5502 213.98584
213.34569 1162.0559 240.37378
218.81601 1162.0559 240.37378
224.28632 1162.0559 240.37378
229.75684 1162.0559 240.37378
235.22717 1162.0559 240.37378
242.93494 1152.2223 267.70435
248.45612 1152.2223 267.70435
253.97728 1152.2223 267.70435
261.88843 1142.3889 295.03467
269.98526 1132.2163 323.30762
278.18747 1122.0438 351.58008
283.86469 1122.0438 351.58008
289.54187 1122.0438 351.58008
298.04568 1111.5322 380.79541
303.77722 1111.5322 380.79541
309.50903 1111.5322 380.79541
315.24057 1111.5322 380.79541
324.0159 1101.0206 410.01074
329.80203 1101.0206 410.01074
335.58798 1101.0206 410.01074
344.78784 1089.8308 441.11084
350.63162 1089.8308 441.11084
356.47537 1089.8308 441.11084
-209.27788 1203.3553 110.15942
-204.0459 1203.3553 110.15942
-198.81393 1203.3553 110.15942
-195.26877 1194.4971 134.64478
-189.99123 1194.4971 134.64478
-184.71367 1194.4971 134.64478
-179.43613 1194.4971 134.64478
-174.15857 1194.4971 134.64478
-168.8811 1194.4971 134.64478
-163.60356 1194.4971 134.64478
-158.326 1194.4971 134.64478
-153.04846 1194.4971 134.64478
-147.7709 1194.4971 134.64478
-142.49345 1194.4971 134.64478
-137.21588 1194.4971 134.64478
-131.93834 1194.4971 134.64478
-126.66079 1194.4971 134.64478
-121.38322 1194.4971 134.64478
-116.10578 1194.4971 134.64478
-110.82822 1194.4971 134.64478
-105.55067 1194.4971 134.64478
-100.27312 1194.4971 134.64478
-94.99556 1194.4971 134.64478
-89.718109 1194.4971 134.64478
-84.440552 1194.4971 134.64478
-79.163002 1194.4971 134.64478
-73.885452 1194.4971 134.64478
-68.607895 1194.4971 134.64478
-62.783401 1203.3553 110.15942
-57.551434 1203.3553 110.15942
-52.319469 1203.3553 110.15942
-47.087502 1203.3553 110.15942
-41.855534 1203.3553 110.15942
-36.623669 1203.3553 110.15942
-31.391701 1203.3553 110.15942
-26.159735 1203.3553 110.15942
-20.927767 1203.3553 110.15942
-15.83256 1194.4971 134.64478
-10.555108 1194.4971 134.64478
-5.277554 1194.4971 134.64478
0 1194.4971 134.64478
5.2774534 1194.4971 134.64478
10.555108 1194.4971 134.64478
15.83256 1194.4971 134.64478
21.110216 1194.4971 134.64478
26.387667 1194.4971 134.64478
31.94916 1185.2983 160.07153
37.274155 1185.2983 160.07153
42.598946 1185.2983 160.07153
47.923943 1185.2983 160.07153
53.722134 1176.0994 185.49878
59.094265 1176.0994 185.49878
64.466599 1176.0994 185.49878
69.838737 1176.0994 185.49878
74.548309 1185.2983 160.07153
79.8731 1185.2983 160.07153
85.197891 1185.2983 160.07153
90.522888 1185.2983 160.07153
95.847679 1185.2983 160.07153
101.17268 1185.2983 160.07153
106.49747 1185.2983 160.07153
111.82227 1185.2983 160.07153
