ply
format ascii 1.0
comment PCL generated
element vertex 1569
property float x
property float y
property float z
element camera 0
property float view_px
property float view_py
property float view_pz
property float x_axisx
property float x_axisy
property float x_axisz
property float y_axisx
property float y_axisy
property float y_axisz
property float z_axisx
property float z_axisy
property float z_axisz
property float focal
property float scalex
property float scaley
property float centerx
property float centery
property int viewportx
property int viewporty
property float k1
property float k2
end_header
257.96097 133.25244 219.74854
264.10281 133.25244 219.74854
270.24487 133.25244 219.74854
279.22711 111.80713 249.75464
285.43207 111.80713 249.75464
291.63724 111.80713 249.75464
297.84219 111.80713 249.75464
307.2262 89.765869 280.59399
313.496 89.765869 280.59399
-171.97391 127.59863 217.34888
-165.83208 127.59863 217.34888
-158.09459 148.50488 188.2002
-152.01401 148.50488 188.2002
-145.93341 148.50488 188.2002
-139.85284 148.50488 188.2002
-133.77237 148.50488 188.2002
-127.69179 148.50488 188.2002
-121.61121 148.50488 188.2002
-115.53062 148.50488 188.2002
-109.45004 148.50488 188.2002
-103.36957 148.50488 188.2002
-97.288986 148.50488 188.2002
-91.208405 148.50488 188.2002
-85.127823 148.50488 188.2002
-79.047241 148.50488 188.2002
-72.966766 148.50488 188.2002
-66.886185 148.50488 188.2002
-61.41927 127.59863 217.34888
-55.277321 127.59863 217.34888
-49.135365 127.59863 217.34888
-43.435375 106.09521 247.33008
-37.619545 83.994629 278.14429
188.09761 83.994629 278.14429
192.35635 106.09521 247.33008
198.56155 106.09521 247.33008
202.68355 127.59863 217.34888
208.82561 127.59863 217.34888
214.96744 127.59863 217.34888
221.10928 127.59863 217.34888
227.25134 127.59863 217.34888
233.39317 127.59863 217.34888
239.53523 127.59863 217.34888
245.67708 127.59863 217.34888
251.81891 127.59863 217.34888
257.96097 127.59863 217.34888
264.10281 127.59863 217.34888
270.24487 127.59863 217.34888
276.38672 127.59863 217.34888
282.52853 127.59863 217.34888
291.63724 106.09521 247.33008
297.84219 106.09521 247.33008
307.2262 83.994629 278.14429
313.496 83.994629 278.14429
-171.97391 121.94507 214.94897
-165.83208 121.94507 214.94897
-158.09459 142.90747 185.82422
-152.01401 142.90747 185.82422
-145.93341 142.90747 185.82422
-139.85284 142.90747 185.82422
-133.77237 142.90747 185.82422
-127.69179 142.90747 185.82422
-121.61121 142.90747 185.82422
-115.53062 142.90747 185.82422
-109.45004 142.90747 185.82422
-103.36957 142.90747 185.82422
-97.288986 142.90747 185.82422
-91.208405 142.90747 185.82422
-85.127823 142.90747 185.82422
-79.047241 142.90747 185.82422
-72.966766 142.90747 185.82422
-66.886185 142.90747 185.82422
-61.41927 121.94507 214.94897
-55.277321 121.94507 214.94897
-49.135365 121.94507 214.94897
-43.435375 100.3833 244.90552
-37.619545 78.223145 275.69434
181.82777 78.223145 275.69434
188.09761 78.223145 275.69434
192.35635 100.3833 244.90552
198.56155 100.3833 244.90552
202.68355 121.94507 214.94897
208.82561 121.94507 214.94897
214.96744 121.94507 214.94897
221.10928 121.94507 214.94897
227.25134 121.94507 214.94897
233.39317 121.94507 214.94897
239.53523 121.94507 214.94897
245.67708 121.94507 214.94897
251.81891 121.94507 214.94897
257.96097 121.94507 214.94897
264.10281 121.94507 214.94897
270.24487 121.94507 214.94897
276.38672 121.94507 214.94897
282.52853 121.94507 214.94897
291.63724 100.3833 244.90552
297.84219 100.3833 244.90552
307.2262 78.223145 275.69434
-171.97391 116.2915 212.54907
-165.83208 116.2915 212.54907
-158.09459 137.31055 183.44849
-152.01401 137.31055 183.44849
-145.93341 137.31055 183.44849
-139.85284 137.31055 183.44849
-133.77237 137.31055 183.44849
-127.69179 137.31055 183.44849
-121.61121 137.31055 183.44849
-115.53062 137.31055 183.44849
-109.45004 137.31055 183.44849
-103.36957 137.31055 183.44849
-97.288986 137.31055 183.44849
-91.208405 137.31055 183.44849
-85.127823 137.31055 183.44849
-79.047241 137.31055 183.44849
-72.966766 137.31055 183.44849
-67.561218 116.2915 212.54907
-61.41927 116.2915 212.54907
-55.277321 116.2915 212.54907
-49.640327 94.671875 242.4812
-43.889488 72.45166 273.24438
-38.019306 49.630859 304.83936
181.82777 72.45166 273.24438
188.09761 72.45166 273.24438
192.35635 94.671875 242.4812
198.56155 94.671875 242.4812
202.68355 116.2915 212.54907
208.82561 116.2915 212.54907
212.81961 137.31055 183.44849
218.90009 137.31055 183.44849
224.98077 137.31055 183.44849
231.06125 137.31055 183.44849
237.14194 137.31055 183.44849
245.67708 116.2915 212.54907
251.81891 116.2915 212.54907
257.96097 116.2915 212.54907
264.10281 116.2915 212.54907
270.24487 116.2915 212.54907
276.38672 116.2915 212.54907
282.52853 116.2915 212.54907
291.63724 94.671875 242.4812
297.84219 94.671875 242.4812
307.2262 72.45166 273.24438
-173.74127 88.959961 240.05664
-165.83208 110.6377 210.14917
-158.09459 131.71313 181.07251
-152.01401 131.71313 181.07251
-145.93341 131.71313 181.07251
-139.85284 131.71313 181.07251
-133.77237 131.71313 181.07251
-127.69179 131.71313 181.07251
-121.61121 131.71313 181.07251
-115.53062 131.71313 181.07251
-109.45004 131.71313 181.07251
-103.36957 131.71313 181.07251
-97.288986 131.71313 181.07251
-91.208405 131.71313 181.07251
-85.986954 110.6377 210.14917
-79.047241 131.71313 181.07251
-72.966766 131.71313 181.07251
-67.561218 110.6377 210.14917
-61.41927 110.6377 210.14917
-55.845398 88.959961 240.05664
-49.640327 88.959961 240.05664
-43.889488 66.679932 270.79468
-38.019306 43.797852 302.36353
188.09761 66.679932 270.79468
192.35635 88.959961 240.05664
198.56155 88.959961 240.05664
202.68355 110.6377 210.14917
208.82561 110.6377 210.14917
212.81961 131.71313 181.07251
218.90009 131.71313 181.07251
224.98077 131.71313 181.07251
231.06125 131.71313 181.07251
237.14194 131.71313 181.07251
243.22241 131.71313 181.07251
251.81891 110.6377 210.14917
257.96097 110.6377 210.14917
264.10281 110.6377 210.14917
270.24487 110.6377 210.14917
276.38672 110.6377 210.14917
282.52853 110.6377 210.14917
291.63724 88.959961 240.05664
297.84219 88.959961 240.05664
307.2262 66.679932 270.79468
-175.55771 60.908691 268.34473
-167.53632 83.248047 237.63208
-159.69012 104.98413 207.74951
-152.01401 126.11621 178.69678
-145.93341 126.11621 178.69678
-139.85284 126.11621 178.69678
-133.77237 126.11621 178.69678
-127.69179 126.11621 178.69678
-121.61121 126.11621 178.69678
-115.53062 126.11621 178.69678
-109.45004 126.11621 178.69678
-103.36957 126.11621 178.69678
-97.288986 126.11621 178.69678
-92.128906 104.98413 207.74951
-85.986954 104.98413 207.74951
-79.845009 104.98413 207.74951
-73.703171 104.98413 207.74951
-67.561218 104.98413 207.74951
-61.41927 104.98413 207.74951
-55.845398 83.248047 237.63208
-49.640327 83.248047 237.63208
-43.889488 60.908691 268.34473
-38.019306 37.965332 299.8877
188.09761 60.908691 268.34473
192.35635 83.248047 237.63208
198.56155 83.248047 237.63208
202.68355 104.98413 207.74951
208.82561 104.98413 207.74951
212.81961 126.11621 178.69678
218.90009 126.11621 178.69678
224.98077 126.11621 178.69678
231.06125 126.11621 178.69678
237.14194 126.11621 178.69678
243.22241 126.11621 178.69678
249.30289 126.11621 178.69678
255.38358 126.11621 178.69678
264.10281 104.98413 207.74951
270.24487 104.98413 207.74951
276.38672 104.98413 207.74951
285.43207 83.248047 237.63208
291.63724 83.248047 237.63208
297.84219 83.248047 237.63208
307.2262 60.908691 268.34473
-177.42326 32.132324 297.41162
-167.53632 77.536377 235.20752
-159.69012 99.330322 205.34961
-152.01401 120.5188 176.3208
-145.93341 120.5188 176.3208
-139.85284 120.5188 176.3208
-133.77237 120.5188 176.3208
-127.69179 120.5188 176.3208
-121.61121 120.5188 176.3208
-115.53062 120.5188 176.3208
-109.45004 120.5188 176.3208
-103.36957 120.5188 176.3208
-97.288986 120.5188 176.3208
-91.208405 120.5188 176.3208
-85.986954 99.330322 205.34961
-79.047241 120.5188 176.3208
-72.966766 120.5188 176.3208
-67.561218 99.330322 205.34961
-61.41927 99.330322 205.34961
-55.845398 77.536377 235.20752
-49.640327 77.536377 235.20752
-43.889488 55.136963 265.89502
-38.019306 32.132324 297.41162
188.09761 55.136963 265.89502
192.35635 77.536377 235.20752
198.56155 77.536377 235.20752
202.68355 99.330322 205.34961
208.82561 99.330322 205.34961
212.81961 120.5188 176.3208
218.90009 120.5188 176.3208
224.98077 120.5188 176.3208
231.06125 120.5188 176.3208
237.14194 120.5188 176.3208
243.22241 120.5188 176.3208
249.30289 120.5188 176.3208
255.38358 120.5188 176.3208
261.46405 120.5188 176.3208
270.24487 99.330322 205.34961
276.38672 99.330322 205.34961
285.43207 77.536377 235.20752
291.63724 77.536377 235.20752
300.95612 55.136963 265.89502
307.2262 55.136963 265.89502
-177.42326 26.299561 294.93579
-167.53632 71.824707 232.7832
-159.69012 93.676758 202.94971
-152.01401 114.92163 173.94507
-145.93341 114.92163 173.94507
-139.85284 114.92163 173.94507
-133.77237 114.92163 173.94507
-127.69179 114.92163 173.94507
-121.61121 114.92163 173.94507
-115.53062 114.92163 173.94507
-109.45004 114.92163 173.94507
-103.36957 114.92163 173.94507
-97.288986 114.92163 173.94507
-91.208405 114.92163 173.94507
-85.127823 114.92163 173.94507
-79.047241 114.92163 173.94507
-72.966766 114.92163 173.94507
-67.561218 93.676758 202.94971
-61.41927 93.676758 202.94971
-55.845398 71.824707 232.7832
-50.159317 49.365723 263.44507
-43.889488 49.365723 263.44507
-38.019306 26.299561 294.93579
188.09761 49.365723 263.44507
192.35635 71.824707 232.7832
198.56155 71.824707 232.7832
202.68355 93.676758 202.94971
208.82561 93.676758 202.94971
212.81961 114.92163 173.94507
218.90009 114.92163 173.94507
224.98077 114.92163 173.94507
231.06125 114.92163 173.94507
237.14194 114.92163 173.94507
243.22241 114.92163 173.94507
249.30289 114.92163 173.94507
255.38358 114.92163 173.94507
261.46405 114.92163 173.94507
270.24487 93.676758 202.94971
276.38672 93.676758 202.94971
285.43207 71.824707 232.7832
291.63724 71.824707 232.7832
300.95612 49.365723 263.44507
-183.75984 20.466797 292.45996
-177.42326 20.466797 292.45996
-169.2879 43.593994 260.99512
-159.69012 88.022949 200.5498
-153.54817 88.022949 200.5498
-145.93341 109.32446 171.56909
-139.85284 109.32446 171.56909
-133.77237 109.32446 171.56909
-127.69179 109.32446 171.56909
-121.61121 109.32446 171.56909
-115.53062 109.32446 171.56909
-109.45004 109.32446 171.56909
-103.36957 109.32446 171.56909
-97.288986 109.32446 171.56909
-91.208405 109.32446 171.56909
-85.127823 109.32446 171.56909
-79.845009 88.022949 200.5498
-73.703171 88.022949 200.5498
-67.561218 88.022949 200.5498
-61.41927 88.022949 200.5498
-55.845398 66.112793 230.35864
-50.159317 43.593994 260.99512
-43.889488 43.593994 260.99512
-38.019306 20.466797 292.45996
-31.682734 20.466797 292.45996
188.09761 43.593994 260.99512
192.35635 66.112793 230.35864
198.56155 66.112793 230.35864
202.68355 88.022949 200.5498
208.82561 88.022949 200.5498
212.81961 109.32446 171.56909
218.90009 109.32446 171.56909
224.98077 109.32446 171.56909
231.06125 109.32446 171.56909
237.14194 109.32446 171.56909
243.22241 109.32446 171.56909
249.30289 109.32446 171.56909
255.38358 109.32446 171.56909
261.46405 109.32446 171.56909
270.24487 88.022949 200.5498
276.38672 88.022949 200.5498
285.43207 66.112793 230.35864
294.68631 43.593994 260.99512
-190.09641 14.633789 289.98413
-183.75984 14.633789 289.98413
-175.55771 37.82251 258.54541
-169.2879 37.82251 258.54541
-159.69012 82.369141 198.1499
-153.54817 82.369141 198.1499
-145.93341 103.72729 169.19336
-139.85284 103.72729 169.19336
-133.77237 103.72729 169.19336
-127.69179 103.72729 169.19336
-121.61121 103.72729 169.19336
-115.53062 103.72729 169.19336
-109.45004 103.72729 169.19336
-103.36957 103.72729 169.19336
-97.288986 103.72729 169.19336
-91.208405 103.72729 169.19336
-85.127823 103.72729 169.19336
-79.047241 103.72729 169.19336
-73.703171 82.369141 198.1499
-67.561218 82.369141 198.1499
-61.41927 82.369141 198.1499
-55.845398 60.400879 227.93408
-50.159317 37.82251 258.54541
-43.889488 37.82251 258.54541
-38.019306 14.633789 289.98413
-31.682734 14.633789 289.98413
188.09761 37.82251 258.54541
192.35635 60.400879 227.93408
198.56155 60.400879 227.93408
202.68355 82.369141 198.1499
208.82561 82.369141 198.1499
214.96744 82.369141 198.1499
221.10928 82.369141 198.1499
227.25134 82.369141 198.1499
231.06125 103.72729 169.19336
237.14194 103.72729 169.19336
243.22241 103.72729 169.19336
249.30289 103.72729 169.19336
255.38358 103.72729 169.19336
261.46405 103.72729 169.19336
270.24487 82.369141 198.1499
276.38672 82.369141 198.1499
285.43207 60.400879 227.93408
294.68631 37.82251 258.54541
300.95612 37.82251 258.54541
-215.44257 8.8010254 287.5083
-209.106 8.8010254 287.5083
-202.76955 8.8010254 287.5083
-196.43298 8.8010254 287.5083
-190.09641 8.8010254 287.5083
-181.82765 32.05127 256.09546
-175.55771 32.05127 256.09546
-167.53632 54.689209 225.50952
-159.69012 76.715576 195.75024
-152.01401 98.130127 166.81738
-145.93341 98.130127 166.81738
-139.85284 98.130127 166.81738
-133.77237 98.130127 166.81738
-127.69179 98.130127 166.81738
-121.61121 98.130127 166.81738
-115.53062 98.130127 166.81738
-109.45004 98.130127 166.81738
-103.36957 98.130127 166.81738
-97.288986 98.130127 166.81738
-91.208405 98.130127 166.81738
-85.127823 98.130127 166.81738
-79.047241 98.130127 166.81738
-73.703171 76.715576 195.75024
-67.561218 76.715576 195.75024
-62.050468 54.689209 225.50952
-56.42926 32.05127 256.09546
-50.159317 32.05127 256.09546
-43.889488 32.05127 256.09546
-38.019306 8.8010254 287.5083
-31.682734 8.8010254 287.5083
181.82777 32.05127 256.09546
188.09761 32.05127 256.09546
192.35635 54.689209 225.50952
198.56155 54.689209 225.50952
202.68355 76.715576 195.75024
206.73914 98.130127 166.81738
212.81961 98.130127 166.81738
218.90009 98.130127 166.81738
227.25134 76.715576 195.75024
231.06125 98.130127 166.81738
237.14194 98.130127 166.81738
243.22241 98.130127 166.81738
249.30289 98.130127 166.81738
255.38358 98.130127 166.81738
261.46405 98.130127 166.81738
270.24487 76.715576 195.75024
276.38672 76.715576 195.75024
282.52853 76.715576 195.75024
291.63724 54.689209 225.50952
300.95612 32.05127 256.09546
-221.77914 2.9682617 285.03223
-215.44257 2.9682617 285.03223
-209.106 2.9682617 285.03223
-202.76955 2.9682617 285.03223
-196.43298 2.9682617 285.03223
-188.09761 26.279541 253.64551
-181.82765 26.279541 253.64551
-175.55771 26.279541 253.64551
-167.53632 48.977539 223.08496
-158.09459 92.532715 164.44141
-152.01401 92.532715 164.44141
-144.46062 114.00366 135.53296
-138.44141 114.00366 135.53296
-132.4223 114.00366 135.53296
-126.40308 114.00366 135.53296
-120.38387 114.00366 135.53296
-114.36465 114.00366 135.53296
-109.45004 92.532715 164.44141
-103.36957 92.532715 164.44141
-97.288986 92.532715 164.44141
-92.128906 71.062012 193.35034
-85.986954 71.062012 193.35034
-79.845009 71.062012 193.35034
-73.703171 71.062012 193.35034
-67.561218 71.062012 193.35034
-62.050468 48.977539 223.08496
-56.42926 26.279541 253.64551
-50.159317 26.279541 253.64551
-43.889488 26.279541 253.64551
-38.019306 2.9682617 285.03223
-31.682734 2.9682617 285.03223
181.82777 26.279541 253.64551
188.09761 26.279541 253.64551
192.35635 48.977539 223.08496
196.5417 71.062012 193.35034
202.68355 71.062012 193.35034
206.73914 92.532715 164.44141
212.81961 92.532715 164.44141
218.90009 92.532715 164.44141
227.25134 71.062012 193.35034
231.06125 92.532715 164.44141
237.14194 92.532715 164.44141
243.22241 92.532715 164.44141
249.30289 92.532715 164.44141
257.96097 71.062012 193.35034
264.10281 71.062012 193.35034
270.24487 71.062012 193.35034
276.38672 71.062012 193.35034
282.52853 71.062012 193.35034
291.63724 48.977539 223.08496
297.84219 48.977539 223.08496
307.2262 26.279541 253.64551
-206.90732 20.508301 251.1958
-200.6375 20.508301 251.1958
-194.36755 20.508301 251.1958
-188.09761 20.508301 251.1958
-179.94633 43.265625 220.66064
-173.74127 43.265625 220.66064
-165.83208 65.408203 190.95068
-158.09459 86.935791 162.06567
-152.01401 86.935791 162.06567
-144.46062 108.46313 133.18115
-138.44141 108.46313 133.18115
-132.4223 108.46313 133.18115
-126.40308 108.46313 133.18115
-120.38387 108.46313 133.18115
-114.36465 108.46313 133.18115
-109.45004 86.935791 162.06567
-103.36957 86.935791 162.06567
-97.288986 86.935791 162.06567
-91.208405 86.935791 162.06567
-85.986954 65.408203 190.95068
-79.845009 65.408203 190.95068
-73.703171 65.408203 190.95068
-68.255539 43.265625 220.66064
-62.050468 43.265625 220.66064
-56.42926 20.508301 251.1958
-50.159317 20.508301 251.1958
188.09761 20.508301 251.1958
192.35635 43.265625 220.66064
196.5417 65.408203 190.95068
202.68355 65.408203 190.95068
206.73914 86.935791 162.06567
212.81961 86.935791 162.06567
221.10928 65.408203 190.95068
227.25134 65.408203 190.95068
233.39317 65.408203 190.95068
239.53523 65.408203 190.95068
245.67708 65.408203 190.95068
251.81891 65.408203 190.95068
257.96097 65.408203 190.95068
264.10281 65.408203 190.95068
270.24487 65.408203 190.95068
276.38672 65.408203 190.95068
282.52853 65.408203 190.95068
291.63724 43.265625 220.66064
297.84219 43.265625 220.66064
307.2262 20.508301 251.1958
-213.17726 14.736572 248.74585
-206.90732 14.736572 248.74585
-200.6375 14.736572 248.74585
-194.36755 14.736572 248.74585
-186.15141 37.553955 218.23608
-179.94633 37.553955 218.23608
-173.74127 37.553955 218.23608
-165.83208 59.754639 188.55078
-159.69012 59.754639 188.55078
-152.01401 81.338379 159.68994
-145.93341 81.338379 159.68994
-139.85284 81.338379 159.68994
-132.4223 102.92236 130.8291
-126.40308 102.92236 130.8291
-120.38387 102.92236 130.8291
-114.36465 102.92236 130.8291
-109.45004 81.338379 159.68994
-103.36957 81.338379 159.68994
-97.288986 81.338379 159.68994
-91.208405 81.338379 159.68994
-85.986954 59.754639 188.55078
-79.845009 59.754639 188.55078
-73.703171 59.754639 188.55078
-68.255539 37.553955 218.23608
-62.050468 37.553955 218.23608
-56.42926 14.736572 248.74585
-50.159317 14.736572 248.74585
-43.889488 14.736572 248.74585
188.09761 14.736572 248.74585
192.35635 37.553955 218.23608
198.56155 37.553955 218.23608
204.76649 37.553955 218.23608
208.82561 59.754639 188.55078
214.96744 59.754639 188.55078
221.10928 59.754639 188.55078
227.25134 59.754639 188.55078
233.39317 59.754639 188.55078
239.53523 59.754639 188.55078
245.67708 59.754639 188.55078
251.81891 59.754639 188.55078
257.96097 59.754639 188.55078
264.10281 59.754639 188.55078
270.24487 59.754639 188.55078
276.38672 59.754639 188.55078
282.52853 59.754639 188.55078
291.63724 37.553955 218.23608
297.84219 37.553955 218.23608
307.2262 14.736572 248.74585
-213.17726 8.965332 246.29614
-206.90732 8.965332 246.29614
-200.6375 8.965332 246.29614
-194.36755 8.965332 246.29614
-186.15141 31.842285 215.81152
-179.94633 31.842285 215.81152
-173.74127 31.842285 215.81152
-165.83208 54.101074 186.15088
-159.69012 54.101074 186.15088
-152.01401 75.741455 157.31396
-145.93341 75.741455 157.31396
-139.85284 75.741455 157.31396
-133.77237 75.741455 157.31396
-127.69179 75.741455 157.31396
-121.61121 75.741455 157.31396
-115.53062 75.741455 157.31396
-109.45004 75.741455 157.31396
-103.36957 75.741455 157.31396
-97.288986 75.741455 157.31396
-91.208405 75.741455 157.31396
-85.986954 54.101074 186.15088
-80.665558 31.842285 215.81152
-74.460609 31.842285 215.81152
-68.255539 31.842285 215.81152
-62.699203 8.965332 246.29614
-56.42926 8.965332 246.29614
-50.159317 8.965332 246.29614
-43.889488 8.965332 246.29614
194.36743 8.965332 246.29614
198.56155 31.842285 215.81152
204.76649 31.842285 215.81152
210.97169 31.842285 215.81152
214.96744 54.101074 186.15088
221.10928 54.101074 186.15088
227.25134 54.101074 186.15088
233.39317 54.101074 186.15088
239.53523 54.101074 186.15088
245.67708 54.101074 186.15088
251.81891 54.101074 186.15088
255.38358 75.741455 157.31396
261.46405 75.741455 157.31396
267.54474 75.741455 157.31396
276.38672 54.101074 186.15088
282.52853 54.101074 186.15088
291.63724 31.842285 215.81152
297.84219 31.842285 215.81152
-225.71716 3.1936035 243.84619
-219.4472 3.1936035 243.84619
-213.17726 3.1936035 243.84619
-204.76649 26.130371 213.38696
-198.56155 26.130371 213.38696
-192.35648 26.130371 213.38696
-186.15141 26.130371 213.38696
-178.11584 48.447266 183.75098
-171.97391 48.447266 183.75098
-164.17517 70.144043 154.93799
-158.09459 70.144043 154.93799
-150.47984 91.841064 126.12549
-133.77237 70.144043 154.93799
-127.69179 70.144043 154.93799
-121.61121 70.144043 154.93799
-115.53062 70.144043 154.93799
-109.45004 70.144043 154.93799
-103.36957 70.144043 154.93799
-98.270851 48.447266 183.75098
-92.128906 48.447266 183.75098
-85.986954 48.447266 183.75098
-80.665558 26.130371 213.38696
-74.460609 26.130371 213.38696
-68.255539 26.130371 213.38696
-62.699203 3.1936035 243.84619
-56.42926 3.1936035 243.84619
-50.159317 3.1936035 243.84619
-43.889488 3.1936035 243.84619
194.36743 3.1936035 243.84619
198.56155 26.130371 213.38696
204.76649 26.130371 213.38696
210.97169 26.130371 213.38696
217.17664 26.130371 213.38696
221.10928 48.447266 183.75098
227.25134 48.447266 183.75098
233.39317 48.447266 183.75098
239.53523 48.447266 183.75098
245.67708 48.447266 183.75098
249.30289 70.144043 154.93799
255.38358 70.144043 154.93799
261.46405 70.144043 154.93799
267.54474 70.144043 154.93799
273.62521 70.144043 154.93799
282.52853 48.447266 183.75098
288.67062 48.447266 183.75098
297.84219 26.130371 213.38696
-204.76649 20.418701 210.96265
-198.56155 20.418701 210.96265
-192.35648 20.418701 210.96265
-184.25781 42.793701 181.35107
-178.11584 42.793701 181.35107
-171.97391 42.793701 181.35107
-164.17517 64.547119 152.56226
-158.09459 64.547119 152.56226
-150.47984 86.300293 123.77344
-133.77237 64.547119 152.56226
-127.69179 64.547119 152.56226
-121.61121 64.547119 152.56226
-115.53062 64.547119 152.56226
-110.55464 42.793701 181.35107
-104.4128 42.793701 181.35107
-98.270851 42.793701 181.35107
-92.128906 42.793701 181.35107
-86.870636 20.418701 210.96265
-80.665558 20.418701 210.96265
198.56155 20.418701 210.96265
204.76649 20.418701 210.96265
210.97169 20.418701 210.96265
217.17664 20.418701 210.96265
221.10928 42.793701 181.35107
227.25134 42.793701 181.35107
233.39317 42.793701 181.35107
239.53523 42.793701 181.35107
245.67708 42.793701 181.35107
249.30289 64.547119 152.56226
255.38358 64.547119 152.56226
261.46405 64.547119 152.56226
267.54474 64.547119 152.56226
273.62521 64.547119 152.56226
282.52853 42.793701 181.35107
288.67062 42.793701 181.35107
294.81244 42.793701 181.35107
304.04739 20.418701 210.96265
-204.76649 14.706787 208.53809
-198.56155 14.706787 208.53809
-190.39977 37.139893 178.95142
-184.25781 37.139893 178.95142
-176.33621 58.949707 150.18628
-170.25565 58.949707 150.18628
-164.17517 58.949707 150.18628
-158.09459 58.949707 150.18628
-150.47984 80.759766 121.42163
-144.46062 80.759766 121.42163
-139.85284 58.949707 150.18628
-133.77237 58.949707 150.18628
-127.69179 58.949707 150.18628
-121.61121 58.949707 150.18628
-115.53062 58.949707 150.18628
-110.55464 37.139893 178.95142
-104.4128 37.139893 178.95142
-98.270851 37.139893 178.95142
-93.075706 14.706787 208.53809
-86.870636 14.706787 208.53809
-80.665558 14.706787 208.53809
198.56155 14.706787 208.53809
204.76649 14.706787 208.53809
210.97169 14.706787 208.53809
217.17664 14.706787 208.53809
221.10928 37.139893 178.95142
227.25134 37.139893 178.95142
233.39317 37.139893 178.95142
239.53523 37.139893 178.95142
243.22241 58.949707 150.18628
249.30289 58.949707 150.18628
255.38358 58.949707 150.18628
261.46405 58.949707 150.18628
267.54474 58.949707 150.18628
273.62521 58.949707 150.18628
279.70569 58.949707 150.18628
288.67062 37.139893 178.95142
294.81244 37.139893 178.95142
304.04739 14.706787 208.53809
-217.17664 8.9951172 206.11353
-210.97157 8.9951172 206.11353
-204.76649 8.9951172 206.11353
-196.5417 31.486328 176.55151
-190.39977 31.486328 176.55151
-182.41681 53.352783 147.81055
-176.33621 53.352783 147.81055
-170.25565 53.352783 147.81055
-164.17517 53.352783 147.81055
-158.09459 53.352783 147.81055
-152.01401 53.352783 147.81055
-145.93341 53.352783 147.81055
-139.85284 53.352783 147.81055
-133.77237 53.352783 147.81055
-127.69179 53.352783 147.81055
-121.61121 53.352783 147.81055
-115.53062 53.352783 147.81055
-110.55464 31.486328 176.55151
-104.4128 31.486328 176.55151
-98.270851 31.486328 176.55151
-93.075706 8.9951172 206.11353
-86.870636 8.9951172 206.11353
-80.665558 8.9951172 206.11353
204.76649 8.9951172 206.11353
210.97169 8.9951172 206.11353
217.17664 8.9951172 206.11353
221.10928 31.486328 176.55151
227.25134 31.486328 176.55151
233.39317 31.486328 176.55151
239.53523 31.486328 176.55151
243.22241 53.352783 147.81055
246.78685 75.218994 119.06982
252.80617 75.218994 119.06982
258.82529 75.218994 119.06982
264.8446 75.218994 119.06982
273.62521 53.352783 147.81055
279.70569 53.352783 147.81055
288.67062 31.486328 176.55151
294.81244 31.486328 176.55151
304.04739 8.9951172 206.11353
310.25235 8.9951172 206.11353
-229.58678 3.2832031 203.68896
-214.96744 25.83252 174.15161
-208.82549 25.83252 174.15161
-204.76649 3.2832031 203.68896
-194.57797 47.755371 145.43457
-188.49739 47.755371 145.43457
-182.41681 47.755371 145.43457
-176.33621 47.755371 145.43457
-170.25565 47.755371 145.43457
-164.17517 47.755371 145.43457
-158.09459 47.755371 145.43457
-152.01401 47.755371 145.43457
-145.93341 47.755371 145.43457
-139.85284 47.755371 145.43457
-133.77237 47.755371 145.43457
-127.69179 47.755371 145.43457
-121.61121 47.755371 145.43457
-115.53062 47.755371 145.43457
-110.55464 25.83252 174.15161
-104.4128 25.83252 174.15161
-98.270851 25.83252 174.15161
-93.075706 3.2832031 203.68896
-86.870636 3.2832031 203.68896
-80.665558 3.2832031 203.68896
-74.460609 3.2832031 203.68896
-68.255539 3.2832031 203.68896
-62.050468 3.2832031 203.68896
-55.845398 3.2832031 203.68896
-49.640327 3.2832031 203.68896
-43.435375 3.2832031 203.68896
-37.230305 3.2832031 203.68896
198.56155 3.2832031 203.68896
204.76649 3.2832031 203.68896
210.97169 3.2832031 203.68896
217.17664 3.2832031 203.68896
221.10928 25.83252 174.15161
227.25134 25.83252 174.15161
233.39317 25.83252 174.15161
237.14194 47.755371 145.43457
243.22241 47.755371 145.43457
246.78685 69.678223 116.71777
252.80617 69.678223 116.71777
258.82529 69.678223 116.71777
264.8446 69.678223 116.71777
273.62521 47.755371 145.43457
279.70569 47.755371 145.43457
285.78638 47.755371 145.43457
294.81244 25.83252 174.15161
304.04739 3.2832031 203.68896
310.25235 3.2832031 203.68896
-214.96744 20.178955 171.75195
-208.82549 20.178955 171.75195
-202.68355 20.178955 171.75195
-194.57797 42.158203 143.05884
-188.49739 42.158203 143.05884
-180.57581 64.137695 114.36597
-174.55658 64.137695 114.36597
-170.25565 42.158203 143.05884
-162.51826 64.137695 114.36597
-156.49907 64.137695 114.36597
-152.01401 42.158203 143.05884
-145.93341 42.158203 143.05884
-139.85284 42.158203 143.05884
-133.77237 42.158203 143.05884
-127.69179 42.158203 143.05884
-121.61121 42.158203 143.05884
-116.69659 20.178955 171.75195
-110.55464 20.178955 171.75195
-104.4128 20.178955 171.75195
-98.270851 20.178955 171.75195
214.96744 20.178955 171.75195
221.10928 20.178955 171.75195
227.25134 20.178955 171.75195
231.06125 42.158203 143.05884
237.14194 42.158203 143.05884
240.76775 64.137695 114.36597
246.78685 64.137695 114.36597
252.80617 64.137695 114.36597
258.82529 64.137695 114.36597
264.8446 64.137695 114.36597
270.86371 64.137695 114.36597
276.88281 64.137695 114.36597
285.78638 42.158203 143.05884
294.81244 20.178955 171.75195
300.9545 20.178955 171.75195
-214.96744 14.525391 169.35205
-208.82549 14.525391 169.35205
-202.68355 14.525391 169.35205
-194.57797 36.561035 140.68286
-188.49739 36.561035 140.68286
-180.57581 58.596924 112.01416
-174.55658 58.596924 112.01416
-168.53737 58.596924 112.01416
-162.51826 58.596924 112.01416
-156.49907 58.596924 112.01416
-150.47984 58.596924 112.01416
-144.46062 58.596924 112.01416
-139.85284 36.561035 140.68286
-133.77237 36.561035 140.68286
-127.69179 36.561035 140.68286
-121.61121 36.561035 140.68286
-115.53062 36.561035 140.68286
-110.55464 14.525391 169.35205
-104.4128 14.525391 169.35205
-98.270851 14.525391 169.35205
-92.128906 14.525391 169.35205
214.96744 14.525391 169.35205
221.10928 14.525391 169.35205
227.25134 14.525391 169.35205
231.06125 36.561035 140.68286
237.14194 36.561035 140.68286
240.76775 58.596924 112.01416
246.78685 58.596924 112.01416
252.80617 58.596924 112.01416
258.82529 58.596924 112.01416
264.8446 58.596924 112.01416
270.86371 58.596924 112.01416
276.88281 58.596924 112.01416
285.78638 36.561035 140.68286
291.86682 36.561035 140.68286
300.9545 14.525391 169.35205
307.09634 14.525391 169.35205
-214.96744 8.871582 166.95215
-208.82549 8.871582 166.95215
-202.68355 8.871582 166.95215
-194.57797 30.963867 138.30713
-188.49739 30.963867 138.30713
-180.57581 53.056152 109.66235
-174.55658 53.056152 109.66235
-168.53737 53.056152 109.66235
-162.51826 53.056152 109.66235
-156.49907 53.056152 109.66235
-150.47984 53.056152 109.66235
-144.46062 53.056152 109.66235
-139.85284 30.963867 138.30713
-133.77237 30.963867 138.30713
-127.69179 30.963867 138.30713
-121.61121 30.963867 138.30713
-115.53062 30.963867 138.30713
-109.45004 30.963867 138.30713
-104.4128 8.871582 166.95215
-98.270851 8.871582 166.95215
-92.128906 8.871582 166.95215
-85.986954 8.871582 166.95215
208.82561 8.871582 166.95215
214.96744 8.871582 166.95215
221.10928 8.871582 166.95215
224.98077 30.963867 138.30713
231.06125 30.963867 138.30713
234.74864 53.056152 109.66235
240.76775 53.056152 109.66235
246.78685 53.056152 109.66235
252.80617 53.056152 109.66235
258.82529 53.056152 109.66235
264.8446 53.056152 109.66235
270.86371 53.056152 109.66235
276.88281 53.056152 109.66235
285.78638 30.963867 138.30713
291.86682 30.963867 138.30713
297.94754 30.963867 138.30713
307.09634 8.871582 166.95215
313.23819 8.871582 166.95215
319.38025 8.871582 166.95215
325.52206 8.871582 166.95215
331.66415 8.871582 166.95215
-214.96744 3.2177734 164.55225
-208.82549 3.2177734 164.55225
-200.65845 25.366699 135.93115
-194.57797 25.366699 135.93115
-188.49739 25.366699 135.93115
-180.57581 47.515381 107.3103
-174.55658 47.515381 107.3103
-168.53737 47.515381 107.3103
-162.51826 47.515381 107.3103
-156.49907 47.515381 107.3103
-150.47984 47.515381 107.3103
-144.46062 47.515381 107.3103
-139.85284 25.366699 135.93115
-133.77237 25.366699 135.93115
-127.69179 25.366699 135.93115
-121.61121 25.366699 135.93115
-115.53062 25.366699 135.93115
-109.45004 25.366699 135.93115
-103.36957 25.366699 135.93115
-97.288986 25.366699 135.93115
-92.128906 3.2177734 164.55225
-85.986954 3.2177734 164.55225
-79.845009 3.2177734 164.55225
-73.703171 3.2177734 164.55225
-67.561218 3.2177734 164.55225
-61.41927 3.2177734 164.55225
-55.277321 3.2177734 164.55225
-49.135365 3.2177734 164.55225
208.82561 3.2177734 164.55225
214.96744 3.2177734 164.55225
218.90009 25.366699 135.93115
224.98077 25.366699 135.93115
228.72931 47.515381 107.3103
234.74864 47.515381 107.3103
240.76775 47.515381 107.3103
246.78685 47.515381 107.3103
250.30241 69.031494 79.50708
256.2619 69.031494 79.50708
264.8446 47.515381 107.3103
270.86371 47.515381 107.3103
276.88281 47.515381 107.3103
282.90213 47.515381 107.3103
288.92123 47.515381 107.3103
294.94058 47.515381 107.3103
304.02802 25.366699 135.93115
310.10849 25.366699 135.93115
316.18918 25.366699 135.93115
322.26962 25.366699 135.93115
328.35034 25.366699 135.93115
337.80597 3.2177734 164.55225
-206.73901 19.769531 133.55518
-200.65845 19.769531 133.55518
-194.57797 19.769531 133.55518
-186.59503 41.974609 104.9585
-178.7874 63.545654 77.178467
-172.8278 63.545654 77.178467
-168.53737 41.974609 104.9585
-162.51826 41.974609 104.9585
-156.49907 41.974609 104.9585
-150.47984 41.974609 104.9585
-144.46062 41.974609 104.9585
-138.44141 41.974609 104.9585
-132.4223 41.974609 104.9585
-127.69179 19.769531 133.55518
-121.61121 19.769531 133.55518
-115.53062 19.769531 133.55518
-109.45004 19.769531 133.55518
-103.36957 19.769531 133.55518
-97.288986 19.769531 133.55518
-91.208405 19.769531 133.55518
218.90009 19.769531 133.55518
224.98077 19.769531 133.55518
228.72931 41.974609 104.9585
234.74864 41.974609 104.9585
240.76775 41.974609 104.9585
246.78685 41.974609 104.9585
250.30241 63.545654 77.178467
256.2619 63.545654 77.178467
262.22162 63.545654 77.178467
270.86371 41.974609 104.9585
276.88281 41.974609 104.9585
282.90213 41.974609 104.9585
288.92123 41.974609 104.9585
294.94058 41.974609 104.9585
300.95969 41.974609 104.9585
310.10849 19.769531 133.55518
316.18918 19.769531 133.55518
322.26962 19.769531 133.55518
328.35034 19.769531 133.55518
334.43082 19.769531 133.55518
-212.81961 14.172363 131.17944
-206.73901 14.172363 131.17944
-200.65845 14.172363 131.17944
-192.61424 36.434082 102.60645
-186.59503 36.434082 102.60645
-178.7874 58.060059 74.849854
-172.8278 58.060059 74.849854
-166.86819 58.060059 74.849854
-162.51826 36.434082 102.60645
-156.49907 36.434082 102.60645
-150.47984 36.434082 102.60645
-144.46062 36.434082 102.60645
-138.44141 36.434082 102.60645
-132.4223 36.434082 102.60645
-127.69179 14.172363 131.17944
-121.61121 14.172363 131.17944
-115.53062 14.172363 131.17944
-109.45004 14.172363 131.17944
-103.36957 14.172363 131.17944
-97.288986 14.172363 131.17944
-91.208405 14.172363 131.17944
206.73914 14.172363 131.17944
212.81961 14.172363 131.17944
218.90009 14.172363 131.17944
224.98077 14.172363 131.17944
228.72931 36.434082 102.60645
234.74864 36.434082 102.60645
240.76775 36.434082 102.60645
246.78685 36.434082 102.60645
252.80617 36.434082 102.60645
256.2619 58.060059 74.849854
262.22162 58.060059 74.849854
268.18112 58.060059 74.849854
276.88281 36.434082 102.60645
282.90213 36.434082 102.60645
288.92123 36.434082 102.60645
294.94058 36.434082 102.60645
300.95969 36.434082 102.60645
306.97879 36.434082 102.60645
312.99814 36.434082 102.60645
322.26962 14.172363 131.17944
328.35034 14.172363 131.17944
334.43082 14.172363 131.17944
-218.90019 8.5751953 128.80347
-212.81961 8.5751953 128.80347
-204.65256 30.893311 100.25464
-198.63335 30.893311 100.25464
-192.61424 30.893311 100.25464
-186.59503 30.893311 100.25464
-180.57581 30.893311 100.25464
-172.8278 52.574219 72.521484
-166.86819 52.574219 72.521484
-160.90871 52.574219 72.521484
-154.94911 52.574219 72.521484
-148.9895 52.574219 72.521484
-144.46062 30.893311 100.25464
-138.44141 30.893311 100.25464
-132.4223 30.893311 100.25464
-126.40308 30.893311 100.25464
-120.38387 30.893311 100.25464
-115.53062 8.5751953 128.80347
-109.45004 8.5751953 128.80347
-103.36957 8.5751953 128.80347
-97.288986 8.5751953 128.80347
-91.208405 8.5751953 128.80347
-85.127823 8.5751953 128.80347
-79.047241 8.5751953 128.80347
206.73914 8.5751953 128.80347
212.81961 8.5751953 128.80347
218.90009 8.5751953 128.80347
224.98077 8.5751953 128.80347
228.72931 30.893311 100.25464
234.74864 30.893311 100.25464
240.76775 30.893311 100.25464
246.78685 30.893311 100.25464
250.30241 52.574219 72.521484
256.2619 52.574219 72.521484
262.22162 52.574219 72.521484
268.18112 52.574219 72.521484
274.14059 52.574219 72.521484
280.10031 52.574219 72.521484
286.05981 52.574219 72.521484
292.01953 52.574219 72.521484
297.979 52.574219 72.521484
306.97879 30.893311 100.25464
312.99814 30.893311 100.25464
319.01718 30.893311 100.25464
325.03653 30.893311 100.25464
334.43082 8.5751953 128.80347
340.51129 8.5751953 128.80347
-231.06125 2.9780273 126.42773
-224.98077 2.9780273 126.42773
-218.90019 2.9780273 126.42773
-212.81961 2.9780273 126.42773
-202.6257 47.088379 70.192871
-196.66609 47.088379 70.192871
-190.70662 47.088379 70.192871
-184.74701 47.088379 70.192871
-178.7874 47.088379 70.192871
-172.8278 47.088379 70.192871
-166.86819 47.088379 70.192871
-160.90871 47.088379 70.192871
-154.94911 47.088379 70.192871
-148.9895 47.088379 70.192871
-144.46062 25.352783 97.902832
-138.44141 25.352783 97.902832
-132.4223 25.352783 97.902832
-126.40308 25.352783 97.902832
-120.38387 25.352783 97.902832
-114.36465 25.352783 97.902832
-109.45004 2.9780273 126.42773
-103.36957 2.9780273 126.42773
-97.288986 2.9780273 126.42773
-91.208405 2.9780273 126.42773
-85.127823 2.9780273 126.42773
-79.047241 2.9780273 126.42773
200.65845 2.9780273 126.42773
206.73914 2.9780273 126.42773
212.81961 2.9780273 126.42773
218.90009 2.9780273 126.42773
224.98077 2.9780273 126.42773
228.72931 25.352783 97.902832
234.74864 25.352783 97.902832
240.76775 25.352783 97.902832
246.78685 25.352783 97.902832
250.30241 47.088379 70.192871
256.2619 47.088379 70.192871
262.22162 47.088379 70.192871
268.18112 47.088379 70.192871
274.14059 47.088379 70.192871
280.10031 47.088379 70.192871
286.05981 47.088379 70.192871
292.01953 47.088379 70.192871
297.979 47.088379 70.192871
303.93851 47.088379 70.192871
309.89822 47.088379 70.192871
319.01718 25.352783 97.902832
325.03653 25.352783 97.902832
331.05563 25.352783 97.902832
340.51129 2.9780273 126.42773
346.59198 2.9780273 126.42773
-210.67177 19.812012 95.550781
-202.6257 41.602295 67.864258
-196.66609 41.602295 67.864258
-190.70662 41.602295 67.864258
-184.74701 41.602295 67.864258
-178.7874 41.602295 67.864258
-172.8278 41.602295 67.864258
-166.86819 41.602295 67.864258
-160.90871 41.602295 67.864258
-154.94911 41.602295 67.864258
-148.9895 41.602295 67.864258
-143.02991 41.602295 67.864258
-137.0703 41.602295 67.864258
-132.4223 19.812012 95.550781
-126.40308 19.812012 95.550781
-120.38387 19.812012 95.550781
-114.36465 19.812012 95.550781
228.72931 19.812012 95.550781
234.74864 19.812012 95.550781
240.76775 19.812012 95.550781
246.78685 19.812012 95.550781
250.30241 41.602295 67.864258
256.2619 41.602295 67.864258
262.22162 41.602295 67.864258
268.18112 41.602295 67.864258
274.14059 41.602295 67.864258
280.10031 41.602295 67.864258
286.05981 41.602295 67.864258
292.01953 41.602295 67.864258
297.979 41.602295 67.864258
303.93851 41.602295 67.864258
309.89822 41.602295 67.864258
319.01718 19.812012 95.550781
325.03653 19.812012 95.550781
331.05563 19.812012 95.550781
-210.67177 14.27124 93.198975
-202.6257 36.116699 65.535645
-196.66609 36.116699 65.535645
-190.70662 36.116699 65.535645
-184.74701 36.116699 65.535645
-178.7874 36.116699 65.535645
-172.8278 36.116699 65.535645
-166.86819 36.116699 65.535645
-160.90871 36.116699 65.535645
-154.94911 36.116699 65.535645
-148.9895 36.116699 65.535645
-143.02991 36.116699 65.535645
-137.0703 36.116699 65.535645
-132.4223 14.27124 93.198975
-126.40308 14.27124 93.198975
-120.38387 14.27124 93.198975
-114.36465 14.27124 93.198975
234.74864 14.27124 93.198975
240.76775 14.27124 93.198975
244.3427 36.116699 65.535645
250.30241 36.116699 65.535645
256.2619 36.116699 65.535645
262.22162 36.116699 65.535645
268.18112 36.116699 65.535645
274.14059 36.116699 65.535645
280.10031 36.116699 65.535645
286.05981 36.116699 65.535645
292.01953 36.116699 65.535645
297.979 36.116699 65.535645
303.93851 36.116699 65.535645
309.89822 36.116699 65.535645
315.8577 36.116699 65.535645
325.03653 14.27124 93.198975
331.05563 14.27124 93.198975
-216.69099 8.7304688 90.847168
-210.67177 8.7304688 90.847168
-202.6257 30.630859 63.207031
-196.66609 30.630859 63.207031
-190.70662 30.630859 63.207031
-182.89899 52.530762 35.56665
-176.99901 52.530762 35.56665
-171.09903 52.530762 35.56665
-165.19902 52.530762 35.56665
-159.29916 52.530762 35.56665
-154.94911 30.630859 63.207031
-148.9895 30.630859 63.207031
-143.02991 30.630859 63.207031
-137.0703 30.630859 63.207031
-132.4223 8.7304688 90.847168
-126.40308 8.7304688 90.847168
-120.38387 8.7304688 90.847168
-114.36465 8.7304688 90.847168
-108.34544 8.7304688 90.847168
234.74864 8.7304688 90.847168
240.76775 8.7304688 90.847168
244.3427 30.630859 63.207031
250.30241 30.630859 63.207031
256.2619 30.630859 63.207031
262.22162 30.630859 63.207031
268.18112 30.630859 63.207031
274.14059 30.630859 63.207031
280.10031 30.630859 63.207031
286.05981 30.630859 63.207031
292.01953 30.630859 63.207031
297.979 30.630859 63.207031
303.93851 30.630859 63.207031
309.89822 30.630859 63.207031
315.8577 30.630859 63.207031
325.03653 8.7304688 90.847168
331.05563 8.7304688 90.847168
-216.69099 3.1899414 88.495361
-210.67177 3.1899414 88.495361
-202.6257 25.14502 60.878418
-196.66609 25.14502 60.878418
-190.70662 25.14502 60.878418
-182.89899 47.100098 33.26123
-176.99901 47.100098 33.26123
-171.09903 47.100098 33.26123
-165.19902 47.100098 33.26123
-159.29916 47.100098 33.26123
-154.94911 25.14502 60.878418
-148.9895 25.14502 60.878418
-143.02991 25.14502 60.878418
-137.0703 25.14502 60.878418
-132.4223 3.1899414 88.495361
-126.40308 3.1899414 88.495361
-120.38387 3.1899414 88.495361
-114.36465 3.1899414 88.495361
-108.34544 3.1899414 88.495361
228.72931 3.1899414 88.495361
234.74864 3.1899414 88.495361
240.76775 3.1899414 88.495361
244.3427 25.14502 60.878418
250.30241 25.14502 60.878418
256.2619 25.14502 60.878418
262.22162 25.14502 60.878418
268.18112 25.14502 60.878418
274.14059 25.14502 60.878418
280.10031 25.14502 60.878418
286.05981 25.14502 60.878418
292.01953 25.14502 60.878418
297.979 25.14502 60.878418
303.93851 25.14502 60.878418
309.89822 25.14502 60.878418
319.01718 3.1899414 88.495361
325.03653 3.1899414 88.495361
-202.6257 19.65918 58.549805
-196.66609 19.65918 58.549805
-190.70662 19.65918 58.549805
-182.89899 41.668945 30.956055
-176.99901 41.668945 30.956055
-171.09903 41.668945 30.956055
-165.19902 41.668945 30.956055
-159.29916 41.668945 30.956055
-154.94911 19.65918 58.549805
-148.9895 19.65918 58.549805
-143.02991 19.65918 58.549805
-137.0703 19.65918 58.549805
-125.15121 19.65918 58.549805
-119.1916 19.65918 58.549805
-113.232 19.65918 58.549805
232.42372 19.65918 58.549805
238.38321 19.65918 58.549805
244.3427 19.65918 58.549805
250.30241 19.65918 58.549805
256.2619 19.65918 58.549805
262.22162 19.65918 58.549805
268.18112 19.65918 58.549805
274.14059 19.65918 58.549805
280.10031 19.65918 58.549805
286.05981 19.65918 58.549805
292.01953 19.65918 58.549805
297.979 19.65918 58.549805
303.93851 19.65918 58.549805
309.89822 19.65918 58.549805
315.8577 19.65918 58.549805
321.81741 19.65918 58.549805
-202.6257 14.17334 56.221191
-196.66609 14.17334 56.221191
-190.70662 14.17334 56.221191
-182.89899 36.238281 28.650635
-176.99901 36.238281 28.650635
-171.09903 36.238281 28.650635
-165.19902 36.238281 28.650635
-159.29916 36.238281 28.650635
-154.94911 14.17334 56.221191
-148.9895 14.17334 56.221191
-143.02991 14.17334 56.221191
-137.0703 14.17334 56.221191
-131.11081 14.17334 56.221191
-123.89933 36.238281 28.650635
-117.99934 36.238281 28.650635
-113.232 14.17334 56.221191
-107.27239 14.17334 56.221191
-101.31291 14.17334 56.221191
-95.35331 14.17334 56.221191
232.42372 14.17334 56.221191
238.38321 14.17334 56.221191
244.3427 14.17334 56.221191
250.30241 14.17334 56.221191
256.2619 14.17334 56.221191
262.22162 14.17334 56.221191
268.18112 14.17334 56.221191
274.14059 14.17334 56.221191
280.10031 14.17334 56.221191
286.05981 14.17334 56.221191
292.01953 14.17334 56.221191
297.979 14.17334 56.221191
303.93851 14.17334 56.221191
309.89822 14.17334 56.221191
315.8577 14.17334 56.221191
321.81741 14.17334 56.221191
-202.6257 8.6875 53.892578
-196.66609 8.6875 53.892578
-190.70662 8.6875 53.892578
-182.89899 30.807129 26.345459
-176.99901 30.807129 26.345459
-171.09903 30.807129 26.345459
-165.19902 30.807129 26.345459
-159.29916 30.807129 26.345459
-153.39915 30.807129 26.345459
-147.49918 30.807129 26.345459
-141.59918 30.807129 26.345459
-135.69919 30.807129 26.345459
-131.11081 8.6875 53.892578
-123.89933 30.807129 26.345459
-117.99934 30.807129 26.345459
-112.09934 30.807129 26.345459
-106.19936 30.807129 26.345459
-101.31291 8.6875 53.892578
-95.35331 8.6875 53.892578
-53.636196 8.6875 53.892578
-47.676598 8.6875 53.892578
-41.717106 8.6875 53.892578
226.464 8.6875 53.892578
232.42372 8.6875 53.892578
238.38321 8.6875 53.892578
244.3427 8.6875 53.892578
250.30241 8.6875 53.892578
256.2619 8.6875 53.892578
262.22162 8.6875 53.892578
268.18112 8.6875 53.892578
274.14059 8.6875 53.892578
280.10031 8.6875 53.892578
286.05981 8.6875 53.892578
292.01953 8.6875 53.892578
297.979 8.6875 53.892578
303.93851 8.6875 53.892578
309.89822 8.6875 53.892578
315.8577 8.6875 53.892578
321.81741 8.6875 53.892578
-244.34282 3.2016602 51.563965
-232.4236 3.2016602 51.563965
-226.464 3.2016602 51.563965
-202.6257 3.2016602 51.563965
-196.66609 3.2016602 51.563965
-190.70662 3.2016602 51.563965
-182.89899 25.376465 24.040039
-176.99901 25.376465 24.040039
-171.09903 25.376465 24.040039
-165.19902 25.376465 24.040039
-159.29916 25.376465 24.040039
-153.39915 25.376465 24.040039
-147.49918 25.376465 24.040039
-141.59918 25.376465 24.040039
-135.69919 25.376465 24.040039
-131.11081 3.2016602 51.563965
-123.89933 25.376465 24.040039
-117.99934 25.376465 24.040039
-112.09934 25.376465 24.040039
-106.19936 25.376465 24.040039
-101.31291 3.2016602 51.563965
-95.35331 3.2016602 51.563965
-89.3937 3.2016602 51.563965
-83.434097 3.2016602 51.563965
-77.474495 3.2016602 51.563965
-53.636196 3.2016602 51.563965
-47.676598 3.2016602 51.563965
-41.717106 3.2016602 51.563965
-35.757504 3.2016602 51.563965
220.50452 3.2016602 51.563965
226.464 3.2016602 51.563965
232.42372 3.2016602 51.563965
238.38321 3.2016602 51.563965
244.3427 3.2016602 51.563965
250.30241 3.2016602 51.563965
256.2619 3.2016602 51.563965
262.22162 3.2016602 51.563965
265.4985 25.376465 24.040039
271.39838 25.376465 24.040039
280.10031 3.2016602 51.563965
286.05981 3.2016602 51.563965
292.01953 3.2016602 51.563965
297.979 3.2016602 51.563965
303.93851 3.2016602 51.563965
309.89822 3.2016602 51.563965
315.8577 3.2016602 51.563965
321.81741 3.2016602 51.563965
327.77692 3.2016602 51.563965
339.69611 3.2016602 51.563965
345.65561 3.2016602 51.563965
-182.89899 19.945312 21.734863
-176.99901 19.945312 21.734863
-171.09903 19.945312 21.734863
-165.19902 19.945312 21.734863
-159.29916 19.945312 21.734863
-153.39915 19.945312 21.734863
-147.49918 19.945312 21.734863
-141.59918 19.945312 21.734863
-135.69919 19.945312 21.734863
-129.79932 19.945312 21.734863
-123.89933 19.945312 21.734863
-117.99934 19.945312 21.734863
-112.09934 19.945312 21.734863
-106.19936 19.945312 21.734863
-100.29948 19.945312 21.734863
259.59863 19.945312 21.734863
265.4985 19.945312 21.734863
271.39838 19.945312 21.734863
-176.99901 14.514404 19.429443
-171.09903 14.514404 19.429443
-165.19902 14.514404 19.429443
-159.29916 14.514404 19.429443
-153.39915 14.514404 19.429443
-147.49918 14.514404 19.429443
-141.59918 14.514404 19.429443
-135.69919 14.514404 19.429443
-129.79932 14.514404 19.429443
-123.89933 14.514404 19.429443
-117.99934 14.514404 19.429443
-112.09934 14.514404 19.429443
-106.19936 14.514404 19.429443
-100.29948 14.514404 19.429443
-94.399498 14.514404 19.429443
-82.59951 14.514404 19.429443
-76.699524 14.514404 19.429443
253.69853 14.514404 19.429443
259.59863 14.514404 19.429443
265.4985 14.514404 19.429443
271.39838 14.514404 19.429443
-235.99867 9.0834961 17.124268
-230.09869 9.0834961 17.124268
-224.19868 9.0834961 17.124268
-218.29883 9.0834961 17.124268
-212.39882 9.0834961 17.124268
-206.49884 9.0834961 17.124268
-200.59886 9.0834961 17.124268
-194.69885 9.0834961 17.124268
-188.799 9.0834961 17.124268
-182.89899 9.0834961 17.124268
-176.99901 9.0834961 17.124268
-171.09903 9.0834961 17.124268
-165.19902 9.0834961 17.124268
-159.29916 9.0834961 17.124268
-153.39915 9.0834961 17.124268
-147.49918 9.0834961 17.124268
-141.59918 9.0834961 17.124268
-135.69919 9.0834961 17.124268
-129.79932 9.0834961 17.124268
-123.89933 9.0834961 17.124268
-117.99934 9.0834961 17.124268
-112.09934 9.0834961 17.124268
-106.19936 9.0834961 17.124268
-100.29948 9.0834961 17.124268
-94.399498 9.0834961 17.124268
-88.499504 9.0834961 17.124268
-82.59951 9.0834961 17.124268
-76.699524 9.0834961 17.124268
-70.799652 9.0834961 17.124268
-64.899658 9.0834961 17.124268
-58.999668 9.0834961 17.124268
-53.099682 9.0834961 17.124268
-47.199688 9.0834961 17.124268
