ply
format ascii 1.0
comment PCL generated
element vertex 1581
property float x
property float y
property float z
element camera 0
property float view_px
property float view_py
property float view_pz
property float x_axisx
property float x_axisy
property float x_axisz
property float y_axisx
property float y_axisy
property float y_axisz
property float z_axisx
property float z_axisy
property float z_axisz
property float focal
property float scalex
property float scaley
property float centerx
property float centery
property int viewportx
property int viewporty
property float k1
property float k2
end_header
96.514038 719.64368 180.77148
102.19124 719.64368 180.77148
107.86867 719.64368 180.77148
114.63293 705.27954 208.35132
120.36449 705.27954 208.35132
124.90051 719.64368 180.77148
130.57771 719.64368 180.77148
137.55962 705.27954 208.35132
143.29117 705.27954 208.35132
149.02272 705.27954 208.35132
156.22206 690.91541 235.9314
162.00795 690.91541 235.9314
167.7941 690.91541 235.9314
173.58 690.91541 235.9314
181.15958 675.62451 265.29077
187.00357 675.62451 265.29077
192.84734 675.62451 265.29077
198.69133 675.62451 265.29077
206.49884 660.79712 293.76025
-129.3679 728.36682 151.88354
-123.7433 728.36682 151.88354
-118.11858 728.36682 151.88354
-112.49387 728.36682 151.88354
-106.86916 728.36682 151.88354
-101.24444 728.36682 151.88354
-95.619835 728.36682 151.88354
-89.995117 728.36682 151.88354
-84.370399 728.36682 151.88354
-78.745689 728.36682 151.88354
-73.120972 728.36682 151.88354
-67.496368 728.36682 151.88354
-61.871651 728.36682 151.88354
-55.720936 742.31604 125.21362
-50.148819 742.31604 125.21362
-44.576702 742.31604 125.21362
-39.0047 742.31604 125.21362
-33.748184 728.36682 151.88354
-27.860468 742.31604 125.21362
-22.288351 742.31604 125.21362
-16.716238 742.31604 125.21362
-11.042537 755.80017 99.433105
-5.5212684 755.80017 99.433105
0 769.28455 73.6521
5.4703169 769.28455 73.6521
10.940842 769.28455 73.6521
16.41116 769.28455 73.6521
21.881683 769.28455 73.6521
27.606234 755.80017 99.433105
33.432476 742.31604 125.21362
39.0047 742.31604 125.21362
44.997505 728.36682 151.88354
50.622326 728.36682 151.88354
56.246937 728.36682 151.88354
62.450146 714.41772 178.55322
68.127563 714.41772 178.55322
73.804771 714.41772 178.55322
79.482201 714.41772 178.55322
85.159401 714.41772 178.55322
90.836609 714.41772 178.55322
96.514038 714.41772 178.55322
102.19124 714.41772 178.55322
108.90137 700.00342 206.11182
114.63293 700.00342 206.11182
120.36449 700.00342 206.11182
126.09628 700.00342 206.11182
131.82784 700.00342 206.11182
137.55962 700.00342 206.11182
143.29117 700.00342 206.11182
150.43591 685.58936 233.67065
156.22206 685.58936 233.67065
162.00795 685.58936 233.67065
167.7941 685.58936 233.67065
173.58 685.58936 233.67065
181.15958 670.24512 263.00732
187.00357 670.24512 263.00732
192.84734 670.24512 263.00732
198.69133 670.24512 263.00732
-129.3679 723.18933 149.68579
-123.7433 723.18933 149.68579
-118.11858 723.18933 149.68579
-112.49387 723.18933 149.68579
-106.86916 723.18933 149.68579
-101.24444 723.18933 149.68579
-95.619835 723.18933 149.68579
-89.995117 723.18933 149.68579
-84.370399 723.18933 149.68579
-78.745689 723.18933 149.68579
-73.120972 723.18933 149.68579
-67.496368 723.18933 149.68579
-61.871651 723.18933 149.68579
-55.720936 737.18689 123.03662
-50.148819 737.18689 123.03662
-44.576702 737.18689 123.03662
-39.0047 737.18689 123.03662
-33.748184 723.18933 149.68579
-27.860468 737.18689 123.03662
-22.288351 737.18689 123.03662
-16.716238 737.18689 123.03662
-11.14423 737.18689 123.03662
-5.5212684 750.7179 97.275635
0 750.7179 97.275635
5.521163 750.7179 97.275635
11.042537 750.7179 97.275635
16.563698 750.7179 97.275635
22.28846 737.18689 123.03662
28.123468 723.18933 149.68579
33.748077 723.18933 149.68579
39.372898 723.18933 149.68579
44.997505 723.18933 149.68579
50.622326 723.18933 149.68579
56.772934 709.19177 176.33496
62.450146 709.19177 176.33496
68.127563 709.19177 176.33496
73.804771 709.19177 176.33496
79.482201 709.19177 176.33496
85.159401 709.19177 176.33496
90.836609 709.19177 176.33496
96.514038 709.19177 176.33496
102.19124 709.19177 176.33496
108.90137 694.72754 203.87231
114.63293 694.72754 203.87231
120.36449 694.72754 203.87231
126.09628 694.72754 203.87231
131.82784 694.72754 203.87231
137.55962 694.72754 203.87231
143.29117 694.72754 203.87231
150.43591 680.26331 231.40991
156.22206 680.26331 231.40991
162.00795 680.26331 231.40991
169.47203 664.86597 260.72388
175.31581 664.86597 260.72388
181.15958 664.86597 260.72388
187.00357 664.86597 260.72388
192.84734 664.86597 260.72388
198.69133 664.86597 260.72388
-129.3679 718.01172 147.48804
-123.7433 718.01172 147.48804
-118.11858 718.01172 147.48804
-112.49387 718.01172 147.48804
-106.86916 718.01172 147.48804
-101.24444 718.01172 147.48804
-94.725632 732.05774 120.85938
-89.153519 732.05774 120.85938
-84.370399 718.01172 147.48804
-78.745689 718.01172 147.48804
-73.120972 718.01172 147.48804
-67.496368 718.01172 147.48804
-61.871651 718.01172 147.48804
-55.720936 732.05774 120.85938
-50.148819 732.05774 120.85938
-44.576702 732.05774 120.85938
-39.0047 732.05774 120.85938
-33.432583 732.05774 120.85938
-27.860468 732.05774 120.85938
-22.288351 732.05774 120.85938
-16.716238 732.05774 120.85938
-11.14423 732.05774 120.85938
-5.5721149 732.05774 120.85938
0 732.05774 120.85938
5.6246076 718.01172 147.48804
11.24943 718.01172 147.48804
16.874039 718.01172 147.48804
22.498859 718.01172 147.48804
28.123468 718.01172 147.48804
33.748077 718.01172 147.48804
39.372898 718.01172 147.48804
44.997505 718.01172 147.48804
50.622326 718.01172 147.48804
56.772934 703.9657 174.11646
62.450146 703.9657 174.11646
68.127563 703.9657 174.11646
73.804771 703.9657 174.11646
79.482201 703.9657 174.11646
85.159401 703.9657 174.11646
90.836609 703.9657 174.11646
96.514038 703.9657 174.11646
103.16959 689.45142 201.63281
108.90137 689.45142 201.63281
114.63293 689.45142 201.63281
120.36449 689.45142 201.63281
126.09628 689.45142 201.63281
131.82784 689.45142 201.63281
137.55962 689.45142 201.63281
144.65001 674.93726 229.14893
150.43591 674.93726 229.14893
156.22206 674.93726 229.14893
162.00795 674.93726 229.14893
169.47203 659.48657 258.44067
175.31581 659.48657 258.44067
181.15958 659.48657 258.44067
187.00357 659.48657 258.44067
192.84734 659.48657 258.44067
-128.15811 726.92871 118.68213
-122.58611 726.92871 118.68213
-118.11858 712.83423 145.29028
-112.49387 712.83423 145.29028
-106.86916 712.83423 145.29028
-101.24444 712.83423 145.29028
-94.725632 726.92871 118.68213
-89.153519 726.92871 118.68213
-84.370399 712.83423 145.29028
-78.745689 712.83423 145.29028
-73.120972 712.83423 145.29028
-67.496368 712.83423 145.29028
-61.293053 726.92871 118.68213
-55.720936 726.92871 118.68213
-50.148819 726.92871 118.68213
-44.576702 726.92871 118.68213
-39.0047 726.92871 118.68213
-33.432583 726.92871 118.68213
-27.860468 726.92871 118.68213
-22.288351 726.92871 118.68213
-16.716238 726.92871 118.68213
-11.14423 726.92871 118.68213
-5.5721149 726.92871 118.68213
0 726.92871 118.68213
5.6246076 712.83423 145.29028
11.24943 712.83423 145.29028
16.874039 712.83423 145.29028
22.498859 712.83423 145.29028
28.123468 712.83423 145.29028
33.748077 712.83423 145.29028
39.372898 712.83423 145.29028
44.997505 712.83423 145.29028
51.095726 698.73975 171.89819
56.772934 698.73975 171.89819
62.450146 698.73975 171.89819
68.127563 698.73975 171.89819
73.804771 698.73975 171.89819
80.243141 684.17554 199.39331
85.974701 684.17554 199.39331
90.836609 698.73975 171.89819
96.514038 698.73975 171.89819
103.16959 684.17554 199.39331
108.90137 684.17554 199.39331
114.63293 684.17554 199.39331
121.50592 669.61133 226.88818
127.29205 669.61133 226.88818
133.07796 669.61133 226.88818
138.86409 669.61133 226.88818
144.65001 669.61133 226.88818
150.43591 669.61133 226.88818
156.22206 669.61133 226.88818
162.00795 669.61133 226.88818
169.47203 654.10742 256.15723
175.31581 654.10742 256.15723
181.15958 654.10742 256.15723
187.00357 654.10742 256.15723
192.84734 654.10742 256.15723
-128.15811 721.79944 116.50488
-122.58611 721.79944 116.50488
-118.11858 707.65662 143.09253
-112.49387 707.65662 143.09253
-106.86916 707.65662 143.09253
-101.24444 707.65662 143.09253
-95.619835 707.65662 143.09253
-89.995117 707.65662 143.09253
-84.370399 707.65662 143.09253
-78.745689 707.65662 143.09253
-73.120972 707.65662 143.09253
-67.496368 707.65662 143.09253
-61.293053 721.79944 116.50488
-55.720936 721.79944 116.50488
-50.148819 721.79944 116.50488
-44.576702 721.79944 116.50488
-39.0047 721.79944 116.50488
-33.432583 721.79944 116.50488
-27.860468 721.79944 116.50488
-22.288351 721.79944 116.50488
-16.716238 721.79944 116.50488
-11.14423 721.79944 116.50488
-5.5721149 721.79944 116.50488
0 721.79944 116.50488
5.6246076 707.65662 143.09253
11.24943 707.65662 143.09253
16.874039 707.65662 143.09253
22.498859 707.65662 143.09253
28.123468 707.65662 143.09253
33.748077 707.65662 143.09253
39.7411 693.51379 169.67993
45.418304 693.51379 169.67993
51.095726 693.51379 169.67993
56.772934 693.51379 169.67993
62.450146 693.51379 169.67993
68.127563 693.51379 169.67993
73.804771 693.51379 169.67993
80.243141 678.89941 197.15381
85.974701 678.89941 197.15381
91.706261 678.89941 197.15381
97.438042 678.89941 197.15381
103.16959 678.89941 197.15381
108.90137 678.89941 197.15381
114.63293 678.89941 197.15381
120.36449 678.89941 197.15381
127.29205 664.28516 224.62744
133.07796 664.28516 224.62744
138.86409 664.28516 224.62744
144.65001 664.28516 224.62744
150.43591 664.28516 224.62744
156.22206 664.28516 224.62744
163.62804 648.72803 253.87378
169.47203 648.72803 253.87378
175.31581 648.72803 253.87378
181.15958 648.72803 253.87378
187.00357 648.72803 253.87378
-123.7433 702.47913 140.89478
-118.11858 702.47913 140.89478
-112.49387 702.47913 140.89478
-106.86916 702.47913 140.89478
-101.24444 702.47913 140.89478
-95.619835 702.47913 140.89478
-89.995117 702.47913 140.89478
-84.370399 702.47913 140.89478
-78.745689 702.47913 140.89478
-72.437172 716.67041 114.32788
-66.865166 716.67041 114.32788
-61.293053 716.67041 114.32788
-55.720936 716.67041 114.32788
-50.148819 716.67041 114.32788
-44.576702 716.67041 114.32788
-39.0047 716.67041 114.32788
-33.432583 716.67041 114.32788
-27.860468 716.67041 114.32788
-22.288351 716.67041 114.32788
-16.716238 716.67041 114.32788
-11.14423 716.67041 114.32788
-5.5721149 716.67041 114.32788
0 702.47913 140.89478
5.6246076 702.47913 140.89478
11.24943 702.47913 140.89478
16.874039 702.47913 140.89478
22.498859 702.47913 140.89478
28.123468 702.47913 140.89478
34.063675 688.28784 167.46167
39.7411 688.28784 167.46167
45.418304 688.28784 167.46167
51.095726 688.28784 167.46167
57.316467 673.62354 194.91431
63.048027 673.62354 194.91431
68.779808 673.62354 194.91431
74.51136 673.62354 194.91431
80.243141 673.62354 194.91431
85.974701 673.62354 194.91431
91.706261 673.62354 194.91431
97.438042 673.62354 194.91431
103.16959 673.62354 194.91431
108.90137 673.62354 194.91431
114.63293 673.62354 194.91431
120.36449 673.62354 194.91431
127.29205 658.95923 222.3667
133.07796 658.95923 222.3667
138.86409 658.95923 222.3667
144.65001 658.95923 222.3667
150.43591 658.95923 222.3667
156.22206 658.95923 222.3667
163.62804 643.34875 251.59058
169.47203 643.34875 251.59058
175.31581 643.34875 251.59058
181.15958 643.34875 251.59058
-124.90051 683.06177 165.24341
-119.22319 683.06177 165.24341
-113.54587 683.06177 165.24341
-106.86916 697.30151 138.69702
-101.24444 697.30151 138.69702
-95.619835 697.30151 138.69702
-89.995117 697.30151 138.69702
-84.370399 697.30151 138.69702
-78.009285 711.54126 112.15063
-72.437172 711.54126 112.15063
-66.865166 711.54126 112.15063
-61.293053 711.54126 112.15063
-55.720936 711.54126 112.15063
-50.148819 711.54126 112.15063
-44.576702 711.54126 112.15063
-39.0047 711.54126 112.15063
-33.748184 697.30151 138.69702
-27.860468 711.54126 112.15063
-22.288351 711.54126 112.15063
-16.716238 711.54126 112.15063
-11.14423 711.54126 112.15063
-5.5721149 711.54126 112.15063
0 697.30151 138.69702
5.6246076 697.30151 138.69702
11.24943 697.30151 138.69702
16.874039 697.30151 138.69702
22.498859 697.30151 138.69702
28.123468 697.30151 138.69702
34.063675 683.06177 165.24341
39.7411 683.06177 165.24341
45.418304 683.06177 165.24341
51.584908 668.34741 192.67456
57.316467 668.34741 192.67456
63.048027 668.34741 192.67456
68.779808 668.34741 192.67456
74.51136 668.34741 192.67456
80.243141 668.34741 192.67456
85.974701 668.34741 192.67456
91.706261 668.34741 192.67456
97.438042 668.34741 192.67456
103.16959 668.34741 192.67456
108.90137 668.34741 192.67456
114.63293 668.34741 192.67456
120.36449 668.34741 192.67456
127.29205 653.63306 220.10596
133.07796 653.63306 220.10596
138.86409 653.63306 220.10596
144.65001 653.63306 220.10596
150.43591 653.63306 220.10596
157.78427 637.96936 249.30713
163.62804 637.96936 249.30713
169.47203 637.96936 249.30713
175.31581 637.96936 249.30713
181.15958 637.96936 249.30713
-124.90051 677.83594 163.02515
-119.22319 677.83594 163.02515
-113.54587 677.83594 163.02515
-107.86855 677.83594 163.02515
-102.19124 677.83594 163.02515
-95.619835 692.12402 136.49951
-89.995117 692.12402 136.49951
-84.370399 692.12402 136.49951
-78.009285 706.41211 109.97339
-72.437172 706.41211 109.97339
-66.865166 706.41211 109.97339
-61.293053 706.41211 109.97339
-55.720936 706.41211 109.97339
-50.148819 706.41211 109.97339
-44.576702 706.41211 109.97339
-39.0047 706.41211 109.97339
-33.748184 692.12402 136.49951
-27.860468 706.41211 109.97339
-22.288351 706.41211 109.97339
-16.716238 706.41211 109.97339
-11.14423 706.41211 109.97339
-5.6247149 692.12402 136.49951
0 692.12402 136.49951
5.6246076 692.12402 136.49951
11.24943 692.12402 136.49951
16.874039 692.12402 136.49951
22.498859 692.12402 136.49951
28.386467 677.83594 163.02515
34.063675 677.83594 163.02515
39.7411 677.83594 163.02515
45.85313 663.07153 190.43506
51.584908 663.07153 190.43506
57.860001 648.30713 217.84521
63.645912 648.30713 217.84521
69.432045 648.30713 217.84521
75.217957 648.30713 217.84521
81.004089 648.30713 217.84521
85.974701 663.07153 190.43506
91.706261 663.07153 190.43506
97.438042 663.07153 190.43506
103.16959 663.07153 190.43506
108.90137 663.07153 190.43506
114.63293 663.07153 190.43506
120.36449 663.07153 190.43506
127.29205 648.30713 217.84521
133.07796 648.30713 217.84521
138.86409 648.30713 217.84521
144.65001 648.30713 217.84521
150.43591 648.30713 217.84521
157.78427 632.59009 247.02368
163.62804 632.59009 247.02368
169.47203 632.59009 247.02368
175.31581 632.59009 247.02368
181.15958 632.59009 247.02368
-131.82784 657.79541 188.19556
-124.90051 672.60986 160.80688
-119.22319 672.60986 160.80688
-113.54587 672.60986 160.80688
-107.86855 672.60986 160.80688
-102.19124 672.60986 160.80688
-95.619835 686.94641 134.30151
-89.995117 686.94641 134.30151
-84.370399 686.94641 134.30151
-78.009285 701.28296 107.79614
-72.437172 701.28296 107.79614
-66.865166 701.28296 107.79614
-61.293053 701.28296 107.79614
-55.720936 701.28296 107.79614
-50.148819 701.28296 107.79614
-44.997505 686.94641 134.30151
-39.372898 686.94641 134.30151
-33.748184 686.94641 134.30151
-27.860468 701.28296 107.79614
-22.288351 701.28296 107.79614
-16.874039 686.94641 134.30151
-11.24943 686.94641 134.30151
-5.6247149 686.94641 134.30151
0 686.94641 134.30151
5.6246076 686.94641 134.30151
11.24943 686.94641 134.30151
16.874039 686.94641 134.30151
22.709261 672.60986 160.80688
28.386467 672.60986 160.80688
34.063675 672.60986 160.80688
40.121571 657.79541 188.19556
45.85313 657.79541 188.19556
52.074093 642.98096 215.58447
57.860001 642.98096 215.58447
63.645912 642.98096 215.58447
69.432045 642.98096 215.58447
75.217957 642.98096 215.58447
81.004089 642.98096 215.58447
86.790001 642.98096 215.58447
91.706261 657.79541 188.19556
97.438042 657.79541 188.19556
103.16959 657.79541 188.19556
108.90137 657.79541 188.19556
114.63293 657.79541 188.19556
120.36449 657.79541 188.19556
127.29205 642.98096 215.58447
133.07796 642.98096 215.58447
138.86409 642.98096 215.58447
144.65001 642.98096 215.58447
151.94028 627.21082 244.74023
157.78427 627.21082 244.74023
163.62804 627.21082 244.74023
169.47203 627.21082 244.74023
175.31581 627.21082 244.74023
-131.82784 652.51953 185.95605
-124.90051 667.38403 158.58838
-119.22319 667.38403 158.58838
-113.54587 667.38403 158.58838
-107.86855 667.38403 158.58838
-102.19124 667.38403 158.58838
-95.619835 681.76892 132.104
-89.995117 681.76892 132.104
-83.581406 696.15381 105.61914
-78.009285 696.15381 105.61914
-72.437172 696.15381 105.61914
-66.865166 696.15381 105.61914
-61.293053 696.15381 105.61914
-55.720936 696.15381 105.61914
-50.148819 696.15381 105.61914
-44.997505 681.76892 132.104
-39.372898 681.76892 132.104
-33.748184 681.76892 132.104
-27.860468 696.15381 105.61914
-22.288351 696.15381 105.61914
-16.874039 681.76892 132.104
-11.24943 681.76892 132.104
-5.6247149 681.76892 132.104
0 681.76892 132.104
5.6246076 681.76892 132.104
11.24943 681.76892 132.104
16.874039 681.76892 132.104
22.709261 667.38403 158.58838
28.386467 667.38403 158.58838
34.389793 652.51953 185.95605
40.121571 652.51953 185.95605
46.28796 637.65503 213.32373
52.59483 621.83154 242.45703
58.438602 621.83154 242.45703
63.645912 637.65503 213.32373
69.432045 637.65503 213.32373
75.217957 637.65503 213.32373
81.004089 637.65503 213.32373
86.790001 637.65503 213.32373
92.57592 637.65503 213.32373
97.438042 652.51953 185.95605
103.16959 652.51953 185.95605
109.93409 637.65503 213.32373
115.72 637.65503 213.32373
121.50592 637.65503 213.32373
127.29205 637.65503 213.32373
133.07796 637.65503 213.32373
138.86409 637.65503 213.32373
144.65001 637.65503 213.32373
151.94028 621.83154 242.45703
157.78427 621.83154 242.45703
163.62804 621.83154 242.45703
169.47203 621.83154 242.45703
176.99901 606.48779 270.70728
-131.82784 647.24341 183.71655
-126.09628 647.24341 183.71655
-120.36461 647.24341 183.71655
-113.54587 662.15796 156.37012
-107.86855 662.15796 156.37012
-102.19124 662.15796 156.37012
-96.514038 662.15796 156.37012
-89.995117 676.59131 129.90625
-83.581406 691.02466 103.44189
-78.009285 691.02466 103.44189
-72.437172 691.02466 103.44189
-66.865166 691.02466 103.44189
-61.293053 691.02466 103.44189
-55.720936 691.02466 103.44189
-50.148819 691.02466 103.44189
-44.576702 691.02466 103.44189
-39.372898 676.59131 129.90625
-33.748184 676.59131 129.90625
-27.860468 691.02466 103.44189
-22.288351 691.02466 103.44189
-16.874039 676.59131 129.90625
-11.24943 676.59131 129.90625
-5.6247149 676.59131 129.90625
0 676.59131 129.90625
5.6246076 676.59131 129.90625
11.24943 676.59131 129.90625
16.874039 676.59131 129.90625
22.709261 662.15796 156.37012
28.386467 662.15796 156.37012
34.389793 647.24341 183.71655
40.502045 632.32898 211.06299
46.750835 616.45215 240.17358
52.59483 616.45215 240.17358
58.438602 616.45215 240.17358
63.645912 632.32898 211.06299
69.432045 632.32898 211.06299
75.217957 632.32898 211.06299
81.004089 632.32898 211.06299
86.790001 632.32898 211.06299
92.57592 632.32898 211.06299
98.362045 632.32898 211.06299
104.14796 632.32898 211.06299
109.93409 632.32898 211.06299
116.8772 616.45215 240.17358
122.72098 616.45215 240.17358
128.56497 616.45215 240.17358
133.07796 632.32898 211.06299
138.86409 632.32898 211.06299
146.09651 616.45215 240.17358
151.94028 616.45215 240.17358
157.78427 616.45215 240.17358
163.62804 616.45215 240.17358
171.09912 601.05664 268.40186
176.99901 601.05664 268.40186
-131.82784 641.96753 181.47705
-126.09628 641.96753 181.47705
-120.36461 641.96753 181.47705
-113.54587 656.93201 154.15186
-107.86855 656.93201 154.15186
-102.19124 656.93201 154.15186
-96.514038 656.93201 154.15186
-89.995117 671.41382 127.7085
-84.370399 671.41382 127.7085
-78.009285 685.89563 101.26465
-72.437172 685.89563 101.26465
-66.865166 685.89563 101.26465
-61.293053 685.89563 101.26465
-55.720936 685.89563 101.26465
-50.148819 685.89563 101.26465
-44.576702 685.89563 101.26465
-39.372898 671.41382 127.7085
-33.748184 671.41382 127.7085
-27.860468 685.89563 101.26465
-22.288351 685.89563 101.26465
-16.874039 671.41382 127.7085
-11.24943 671.41382 127.7085
-5.6247149 671.41382 127.7085
0 671.41382 127.7085
5.6246076 671.41382 127.7085
11.24943 671.41382 127.7085
17.031837 656.93201 154.15186
22.709261 656.93201 154.15186
28.658234 641.96753 181.47705
34.715912 627.00305 208.80225
40.502045 627.00305 208.80225
46.750835 611.073 237.89014
52.59483 611.073 237.89014
58.438602 611.073 237.89014
64.282372 611.073 237.89014
70.126366 611.073 237.89014
75.217957 627.00305 208.80225
81.004089 627.00305 208.80225
86.790001 627.00305 208.80225
92.57592 627.00305 208.80225
98.362045 627.00305 208.80225
104.14796 627.00305 208.80225
109.93409 627.00305 208.80225
116.8772 611.073 237.89014
122.72098 611.073 237.89014
128.56497 611.073 237.89014
134.40874 611.073 237.89014
140.25273 611.073 237.89014
146.09651 611.073 237.89014
151.94028 611.073 237.89014
157.78427 611.073 237.89014
165.19902 595.62585 266.09668
171.09912 595.62585 266.09668
176.99901 595.62585 266.09668
-131.82784 636.69141 179.23755
-126.09628 636.69141 179.23755
-120.36461 636.69141 179.23755
-113.54587 651.70605 151.93359
-107.86855 651.70605 151.93359
-102.19124 651.70605 151.93359
-96.514038 651.70605 151.93359
-89.995117 666.23621 125.51074
-84.370399 666.23621 125.51074
-78.745689 666.23621 125.51074
-72.437172 680.76636 99.087402
-66.865166 680.76636 99.087402
-61.871651 666.23621 125.51074
-56.246937 666.23621 125.51074
-50.622219 666.23621 125.51074
-44.997505 666.23621 125.51074
-39.372898 666.23621 125.51074
-33.748184 666.23621 125.51074
-27.860468 680.76636 99.087402
-22.288351 680.76636 99.087402
-16.874039 666.23621 125.51074
-11.24943 666.23621 125.51074
-5.6247149 666.23621 125.51074
0 666.23621 125.51074
5.6246076 666.23621 125.51074
11.35463 651.70605 151.93359
17.031837 651.70605 151.93359
22.926674 636.69141 179.23755
28.93 621.67688 206.54126
34.715912 621.67688 206.54126
40.907066 605.6936 235.60669
46.750835 605.6936 235.60669
52.59483 605.6936 235.60669
58.438602 605.6936 235.60669
64.282372 605.6936 235.60669
70.126366 605.6936 235.60669
75.970139 605.6936 235.60669
81.814133 605.6936 235.60669
87.657906 605.6936 235.60669
93.501671 605.6936 235.60669
99.345665 605.6936 235.60669
105.18944 605.6936 235.60669
111.03343 605.6936 235.60669
116.8772 605.6936 235.60669
122.72098 605.6936 235.60669
128.56497 605.6936 235.60669
134.40874 605.6936 235.60669
140.25273 605.6936 235.60669
146.09651 605.6936 235.60669
151.94028 605.6936 235.60669
157.78427 605.6936 235.60669
165.19902 590.19482 263.79126
171.09912 590.19482 263.79126
176.99901 590.19482 263.79126
-131.82784 631.41553 176.99805
-126.09628 631.41553 176.99805
-120.36461 631.41553 176.99805
-113.54587 646.4801 149.71533
-107.86855 646.4801 149.71533
-102.19124 646.4801 149.71533
-96.514038 646.4801 149.71533
-89.995117 661.05872 123.31299
-84.370399 661.05872 123.31299
-78.745689 661.05872 123.31299
-72.437172 675.63733 96.9104
-66.865166 675.63733 96.9104
-61.871651 661.05872 123.31299
-56.246937 661.05872 123.31299
-50.622219 661.05872 123.31299
-44.997505 661.05872 123.31299
-39.372898 661.05872 123.31299
-33.748184 661.05872 123.31299
-27.860468 675.63733 96.9104
-22.288351 675.63733 96.9104
-16.716238 675.63733 96.9104
-11.24943 661.05872 123.31299
-5.6247149 661.05872 123.31299
0 661.05872 123.31299
5.6246076 661.05872 123.31299
11.35463 646.4801 149.71533
17.031837 646.4801 149.71533
22.926674 631.41553 176.99805
28.93 616.35095 204.28052
35.063072 600.31445 233.32349
40.907066 600.31445 233.32349
46.750835 600.31445 233.32349
52.59483 600.31445 233.32349
58.438602 600.31445 233.32349
64.282372 600.31445 233.32349
70.126366 600.31445 233.32349
75.970139 600.31445 233.32349
81.814133 600.31445 233.32349
87.657906 600.31445 233.32349
93.501671 600.31445 233.32349
99.345665 600.31445 233.32349
105.18944 600.31445 233.32349
111.03343 600.31445 233.32349
116.8772 600.31445 233.32349
122.72098 600.31445 233.32349
128.56497 600.31445 233.32349
134.40874 600.31445 233.32349
140.25273 600.31445 233.32349
146.09651 600.31445 233.32349
151.94028 600.31445 233.32349
157.78427 600.31445 233.32349
165.19902 584.76392 261.48608
171.09912 584.76392 261.48608
176.99901 584.76392 261.48608
-131.82784 626.1394 174.7583
-126.09628 626.1394 174.7583
-120.36461 626.1394 174.7583
-113.54587 641.25403 147.49707
-107.86855 641.25403 147.49707
-102.19124 641.25403 147.49707
-96.514038 641.25403 147.49707
-90.836716 641.25403 147.49707
-84.370399 655.8811 121.11523
-78.745689 655.8811 121.11523
-73.120972 655.8811 121.11523
-67.496368 655.8811 121.11523
-61.871651 655.8811 121.11523
-55.720936 670.50818 94.733154
-50.148819 670.50818 94.733154
-44.997505 655.8811 121.11523
-39.372898 655.8811 121.11523
-33.748184 655.8811 121.11523
-27.860468 670.50818 94.733154
-22.288351 670.50818 94.733154
-16.716238 670.50818 94.733154
-11.24943 655.8811 121.11523
-5.6247149 655.8811 121.11523
0 655.8811 121.11523
5.6246076 655.8811 121.11523
11.35463 641.25403 147.49707
17.031837 641.25403 147.49707
22.926674 626.1394 174.7583
28.93 611.02478 202.01978
35.063072 594.93506 231.04004
40.907066 594.93506 231.04004
46.750835 594.93506 231.04004
52.59483 594.93506 231.04004
58.438602 594.93506 231.04004
64.282372 594.93506 231.04004
70.126366 594.93506 231.04004
75.970139 594.93506 231.04004
81.814133 594.93506 231.04004
87.657906 594.93506 231.04004
93.501671 594.93506 231.04004
99.345665 594.93506 231.04004
105.18944 594.93506 231.04004
112.09946 579.33301 259.18066
116.8772 594.93506 231.04004
122.72098 594.93506 231.04004
128.56497 594.93506 231.04004
134.40874 594.93506 231.04004
141.5993 579.33301 259.18066
147.49918 579.33301 259.18066
153.39905 579.33301 259.18066
159.29916 579.33301 259.18066
165.19902 579.33301 259.18066
171.09912 579.33301 259.18066
-131.82784 620.86328 172.5188
-126.09628 620.86328 172.5188
-120.36461 620.86328 172.5188
-113.54587 636.02808 145.27881
-107.86855 636.02808 145.27881
-102.19124 636.02808 145.27881
-96.514038 636.02808 145.27881
-90.836716 636.02808 145.27881
-84.370399 650.70349 118.91748
-78.745689 650.70349 118.91748
-73.120972 650.70349 118.91748
-67.496368 650.70349 118.91748
-61.871651 650.70349 118.91748
-55.720936 665.37891 92.555908
-50.148819 665.37891 92.555908
-44.576702 665.37891 92.555908
-39.372898 650.70349 118.91748
-33.748184 650.70349 118.91748
-27.860468 665.37891 92.555908
-22.288351 665.37891 92.555908
-16.716238 665.37891 92.555908
-11.24943 650.70349 118.91748
-5.6247149 650.70349 118.91748
0 650.70349 118.91748
5.6246076 650.70349 118.91748
11.35463 636.02808 145.27881
17.031837 636.02808 145.27881
23.144089 605.69873 199.75903
28.93 605.69873 199.75903
35.063072 589.55566 228.75659
41.299816 573.90186 256.87549
47.199688 573.90186 256.87549
52.59483 589.55566 228.75659
58.438602 589.55566 228.75659
64.282372 589.55566 228.75659
70.126366 589.55566 228.75659
75.970139 589.55566 228.75659
81.814133 589.55566 228.75659
87.657906 589.55566 228.75659
93.501671 589.55566 228.75659
99.345665 589.55566 228.75659
106.19936 573.90186 256.87549
112.09946 573.90186 256.87549
117.99934 573.90186 256.87549
123.89921 573.90186 256.87549
129.79932 573.90186 256.87549
135.69919 573.90186 256.87549
141.5993 573.90186 256.87549
147.49918 573.90186 256.87549
153.39905 573.90186 256.87549
159.29916 573.90186 256.87549
165.19902 573.90186 256.87549
171.09912 573.90186 256.87549
-131.82784 615.5874 170.2793
-126.09628 615.5874 170.2793
-120.36461 615.5874 170.2793
-113.54587 630.80212 143.06055
-107.86855 630.80212 143.06055
-102.19124 630.80212 143.06055
-96.514038 630.80212 143.06055
-90.836716 630.80212 143.06055
-84.370399 645.526 116.71973
-78.745689 645.526 116.71973
-73.120972 645.526 116.71973
-67.496368 645.526 116.71973
-61.871651 645.526 116.71973
-56.246937 645.526 116.71973
-50.148819 660.24988 90.378662
-44.576702 660.24988 90.378662
-39.372898 645.526 116.71973
-33.748184 645.526 116.71973
-27.860468 660.24988 90.378662
-22.288351 660.24988 90.378662
-16.716238 660.24988 90.378662
-11.14423 660.24988 90.378662
-5.5721149 660.24988 90.378662
0 660.24988 90.378662
5.6246076 645.526 116.71973
11.35463 630.80212 143.06055
17.031837 630.80212 143.06055
23.144089 600.3728 197.49829
29.219301 584.17639 226.47339
35.399712 568.47107 254.57007
41.299816 568.47107 254.57007
47.199688 568.47107 254.57007
53.099792 568.47107 254.57007
58.999668 568.47107 254.57007
64.899544 568.47107 254.57007
70.126366 584.17639 226.47339
75.970139 584.17639 226.47339
81.814133 584.17639 226.47339
87.657906 584.17639 226.47339
94.399376 568.47107 254.57007
100.29948 568.47107 254.57007
106.19936 568.47107 254.57007
112.09946 568.47107 254.57007
117.99934 568.47107 254.57007
123.89921 568.47107 254.57007
129.79932 568.47107 254.57007
135.69919 568.47107 254.57007
141.5993 568.47107 254.57007
147.49918 568.47107 254.57007
153.39905 568.47107 254.57007
159.29916 568.47107 254.57007
165.19902 568.47107 254.57007
-131.82784 610.31128 168.03979
-126.09628 610.31128 168.03979
-119.22319 625.57605 140.84204
-113.54587 625.57605 140.84204
-107.86855 625.57605 140.84204
-102.19124 625.57605 140.84204
-96.514038 625.57605 140.84204
-90.836716 625.57605 140.84204
-84.370399 640.34839 114.52197
-78.745689 640.34839 114.52197
-73.120972 640.34839 114.52197
-67.496368 640.34839 114.52197
-61.871651 640.34839 114.52197
-56.246937 640.34839 114.52197
-50.622219 640.34839 114.52197
-44.997505 640.34839 114.52197
-39.372898 640.34839 114.52197
-33.748184 640.34839 114.52197
-27.860468 655.12061 88.201416
-22.288351 655.12061 88.201416
-16.716238 655.12061 88.201416
-11.14423 655.12061 88.201416
-5.5721149 655.12061 88.201416
0 655.12061 88.201416
5.6246076 640.34839 114.52197
11.35463 625.57605 140.84204
17.194897 610.31128 168.03979
23.144089 595.04663 195.23755
29.219301 578.79712 224.18994
35.399712 563.04004 252.26489
41.299816 563.04004 252.26489
47.199688 563.04004 252.26489
53.099792 563.04004 252.26489
58.999668 563.04004 252.26489
64.899544 563.04004 252.26489
70.799652 563.04004 252.26489
76.699524 563.04004 252.26489
82.599632 563.04004 252.26489
88.499504 563.04004 252.26489
94.399376 563.04004 252.26489
100.29948 563.04004 252.26489
106.19936 563.04004 252.26489
112.09946 563.04004 252.26489
117.99934 563.04004 252.26489
123.89921 563.04004 252.26489
129.79932 563.04004 252.26489
135.69919 563.04004 252.26489
141.5993 563.04004 252.26489
147.49918 563.04004 252.26489
153.39905 563.04004 252.26489
159.29916 563.04004 252.26489
165.19902 563.04004 252.26489
-131.82784 605.0354 165.80029
-126.09628 605.0354 165.80029
-119.22319 620.35022 138.62378
-113.54587 620.35022 138.62378
-107.86855 620.35022 138.62378
-102.19124 620.35022 138.62378
-96.514038 620.35022 138.62378
-90.836716 620.35022 138.62378
-85.159401 620.35022 138.62378
-78.745689 635.1709 112.32422
-73.120972 635.1709 112.32422
-67.496368 635.1709 112.32422
-62.450253 620.35022 138.62378
-56.772934 620.35022 138.62378
-50.622219 635.1709 112.32422
-44.997505 635.1709 112.32422
-39.372898 635.1709 112.32422
-33.748184 635.1709 112.32422
-27.860468 649.99158 86.024414
-22.288351 649.99158 86.024414
-16.716238 649.99158 86.024414
-11.14423 649.99158 86.024414
-5.6247149 635.1709 112.32422
0 635.1709 112.32422
5.6246076 635.1709 112.32422
11.35463 620.35022 138.62378
17.194897 605.0354 165.80029
23.144089 589.7207 192.97681
29.219301 573.41785 221.90649
35.399712 557.60913 249.95947
41.717106 540.81226 279.76611
47.676598 540.81226 279.76611
53.099792 557.60913 249.95947
58.999668 557.60913 249.95947
64.899544 557.60913 249.95947
70.799652 557.60913 249.95947
76.699524 557.60913 249.95947
82.599632 557.60913 249.95947
88.499504 557.60913 249.95947
94.399376 557.60913 249.95947
99.345665 573.41785 221.90649
105.18944 573.41785 221.90649
112.09946 557.60913 249.95947
117.99934 557.60913 249.95947
123.89921 557.60913 249.95947
129.79932 557.60913 249.95947
135.69919 557.60913 249.95947
141.5993 557.60913 249.95947
148.9895 540.81226 279.76611
154.94899 540.81226 279.76611
160.90871 540.81226 279.76611
-131.82784 599.75928 163.56079
-126.09628 599.75928 163.56079
-120.36461 599.75928 163.56079
-114.63293 599.75928 163.56079
-107.86855 615.12415 136.40552
-102.19124 615.12415 136.40552
-96.514038 615.12415 136.40552
-90.836716 615.12415 136.40552
-85.159401 615.12415 136.40552
-78.745689 629.99329 110.12646
-73.120972 629.99329 110.12646
-67.496368 629.99329 110.12646
-61.871651 629.99329 110.12646
-56.246937 629.99329 110.12646
-50.622219 629.99329 110.12646
-44.997505 629.99329 110.12646
-39.372898 629.99329 110.12646
-33.748184 629.99329 110.12646
-27.860468 644.86243 83.847168
-22.288351 644.86243 83.847168
-16.716238 644.86243 83.847168
-11.14423 644.86243 83.847168
-5.6247149 629.99329 110.12646
0 629.99329 110.12646
5.6772065 615.12415 136.40552
11.35463 615.12415 136.40552
17.357956 584.39453 190.71582
23.37553 568.03845 219.62305
29.499834 552.1781 247.6543
36.115067 518.47461 307.2207
41.717106 535.32642 277.4375
47.676598 535.32642 277.4375
53.636314 535.32642 277.4375
59.595802 535.32642 277.4375
64.899544 552.1781 247.6543
70.799652 552.1781 247.6543
76.699524 552.1781 247.6543
82.599632 552.1781 247.6543
88.499504 552.1781 247.6543
94.399376 552.1781 247.6543
99.345665 568.03845 219.62305
105.18944 568.03845 219.62305
112.09946 552.1781 247.6543
117.99934 552.1781 247.6543
123.89921 552.1781 247.6543
129.79932 552.1781 247.6543
135.69919 552.1781 247.6543
141.5993 552.1781 247.6543
147.49918 552.1781 247.6543
153.39905 552.1781 247.6543
-131.82784 594.4834 161.32129
-126.09628 594.4834 161.32129
-120.36461 594.4834 161.32129
-113.54587 609.89819 134.18726
-107.86855 609.89819 134.18726
-102.19124 609.89819 134.18726
-96.514038 609.89819 134.18726
-90.836716 609.89819 134.18726
-85.159401 609.89819 134.18726
-78.745689 624.8158 107.92871
-73.120972 624.8158 107.92871
-67.496368 624.8158 107.92871
-61.871651 624.8158 107.92871
-56.246937 624.8158 107.92871
-50.622219 624.8158 107.92871
-44.997505 624.8158 107.92871
-39.372898 624.8158 107.92871
-33.748184 624.8158 107.92871
-27.860468 639.73328 81.669922
-22.288351 639.73328 81.669922
-16.716238 639.73328 81.669922
-11.24943 624.8158 107.92871
-5.6247149 624.8158 107.92871
0 624.8158 107.92871
5.6772065 609.89819 134.18726
11.35463 609.89819 134.18726
17.357956 579.0686 188.45508
23.37553 562.6593 217.33984
29.797901 529.8407 275.10889
36.115067 512.93408 304.8689
42.134399 512.93408 304.8689
48.153503 512.93408 304.8689
54.172836 512.93408 304.8689
59.595802 529.8407 275.10889
65.55529 529.8407 275.10889
70.799652 546.74731 245.34888
76.699524 546.74731 245.34888
82.599632 546.74731 245.34888
88.499504 546.74731 245.34888
94.399376 546.74731 245.34888
99.345665 562.6593 217.33984
105.18944 562.6593 217.33984
112.09946 546.74731 245.34888
117.99934 546.74731 245.34888
123.89921 546.74731 245.34888
129.79932 546.74731 245.34888
135.69919 546.74731 245.34888
141.5993 546.74731 245.34888
147.49918 546.74731 245.34888
153.39905 546.74731 245.34888
-126.09628 589.20728 159.08154
-119.22319 604.67212 131.96899
-113.54587 604.67212 131.96899
-107.86855 604.67212 131.96899
-102.19124 604.67212 131.96899
-96.514038 604.67212 131.96899
-90.836716 604.67212 131.96899
-85.159401 604.67212 131.96899
-78.745689 619.63818 105.73096
-73.120972 619.63818 105.73096
-67.496368 619.63818 105.73096
-61.871651 619.63818 105.73096
-56.246937 619.63818 105.73096
-50.622219 619.63818 105.73096
-44.997505 619.63818 105.73096
-39.372898 619.63818 105.73096
-33.748184 619.63818 105.73096
-28.123468 619.63818 105.73096
-22.498753 619.63818 105.73096
-16.874039 619.63818 105.73096
-11.24943 619.63818 105.73096
-5.6247149 619.63818 105.73096
0 604.67212 131.96899
5.6772065 604.67212 131.96899
11.463337 589.20728 159.08154
17.531536 557.27991 215.0564
23.599957 541.31628 243.0437
29.797901 524.35474 272.78027
36.115067 507.39331 302.51685
42.134399 507.39331 302.51685
48.153503 507.39331 302.51685
54.172836 507.39331 302.51685
60.191936 507.39331 302.51685
65.55529 524.35474 272.78027
71.515007 524.35474 272.78027
76.699524 541.31628 243.0437
82.599632 541.31628 243.0437
88.499504 541.31628 243.0437
94.399376 541.31628 243.0437
99.345665 557.27991 215.0564
105.18944 557.27991 215.0564
112.09946 541.31628 243.0437
117.99934 541.31628 243.0437
123.89921 541.31628 243.0437
129.79932 541.31628 243.0437
135.69919 541.31628 243.0437
141.5993 541.31628 243.0437
147.49918 541.31628 243.0437
-124.90051 599.44629 129.75073
-119.22319 599.44629 129.75073
-113.54587 599.44629 129.75073
-107.86855 599.44629 129.75073
-102.19124 599.44629 129.75073
-96.514038 599.44629 129.75073
-90.836716 599.44629 129.75073
-85.159401 599.44629 129.75073
-78.745689 614.46069 103.5332
-73.120972 614.46069 103.5332
-67.496368 614.46069 103.5332
-62.450253 599.44629 129.75073
-56.772934 599.44629 129.75073
-51.095619 599.44629 129.75073
-45.418304 599.44629 129.75073
-39.7411 599.44629 129.75073
-34.063782 599.44629 129.75073
-28.123468 614.46069 103.5332
-22.498753 614.46069 103.5332
-16.874039 614.46069 103.5332
-11.24943 614.46069 103.5332
-5.6773152 599.44629 129.75073
0 599.44629 129.75073
5.7315598 583.9314 156.84229
11.572044 568.4165 183.93359
17.531536 551.90063 212.77295
23.599957 535.88538 240.73828
29.797901 518.86902 270.4519
36.115067 501.85266 300.16504
42.134399 501.85266 300.16504
48.153503 501.85266 300.16504
54.172836 501.85266 300.16504
60.191936 501.85266 300.16504
65.55529 518.86902 270.4519
71.515007 518.86902 270.4519
76.699524 535.88538 240.73828
82.599632 535.88538 240.73828
88.499504 535.88538 240.73828
94.399376 535.88538 240.73828
100.29948 535.88538 240.73828
106.19936 535.88538 240.73828
112.09946 535.88538 240.73828
117.99934 535.88538 240.73828
123.89921 535.88538 240.73828
129.79932 535.88538 240.73828
135.69919 535.88538 240.73828
141.5993 535.88538 240.73828
147.49918 535.88538 240.73828
-124.90051 594.22021 127.53223
-119.22319 594.22021 127.53223
-113.54587 594.22021 127.53223
-107.86855 594.22021 127.53223
-102.19124 594.22021 127.53223
-96.514038 594.22021 127.53223
-90.836716 594.22021 127.53223
-85.159401 594.22021 127.53223
-78.745689 609.28308 101.33545
-73.120972 609.28308 101.33545
-67.496368 609.28308 101.33545
-62.450253 594.22021 127.53223
-56.772934 594.22021 127.53223
-51.095619 594.22021 127.53223
-45.418304 594.22021 127.53223
-39.372898 609.28308 101.33545
-33.748184 609.28308 101.33545
-28.123468 609.28308 101.33545
-22.498753 609.28308 101.33545
-16.874039 609.28308 101.33545
-11.24943 609.28308 101.33545
-5.6773152 594.22021 127.53223
0 594.22021 127.53223
5.7315598 578.65527 154.60254
11.687765 546.52124 210.48975
17.699856 530.45435 238.43311
23.838413 513.38306 268.12329
30.095968 496.31189 297.81299
36.115067 496.31189 297.81299
42.134399 496.31189 297.81299
48.153503 496.31189 297.81299
54.172836 496.31189 297.81299
60.191936 496.31189 297.81299
65.55529 513.38306 268.12329
71.515007 513.38306 268.12329
76.699524 530.45435 238.43311
82.599632 530.45435 238.43311
88.499504 530.45435 238.43311
94.399376 530.45435 238.43311
100.29948 530.45435 238.43311
106.19936 530.45435 238.43311
112.09946 530.45435 238.43311
117.99934 530.45435 238.43311
123.89921 530.45435 238.43311
129.79932 530.45435 238.43311
135.69919 530.45435 238.43311
143.03001 513.38306 268.12329
-126.09628 573.37939 152.36304
-120.36461 573.37939 152.36304
-113.54587 588.99438 125.31396
-107.86855 588.99438 125.31396
-102.19124 588.99438 125.31396
-96.514038 588.99438 125.31396
-90.836716 588.99438 125.31396
-85.159401 588.99438 125.31396
-78.745689 604.10559 99.137695
-73.120972 604.10559 99.137695
-67.496368 604.10559 99.137695
-62.450253 588.99438 125.31396
-56.772934 588.99438 125.31396
-51.095619 588.99438 125.31396
-45.418304 588.99438 125.31396
-39.372898 604.10559 99.137695
-33.748184 604.10559 99.137695
-28.123468 604.10559 99.137695
-22.498753 604.10559 99.137695
-16.874039 604.10559 99.137695
-11.24943 604.10559 99.137695
-5.6773152 588.99438 125.31396
0 573.37939 152.36304
5.785912 557.7644 179.41211
11.799978 525.02344 236.12769
18.057533 490.77124 295.46118
24.076866 490.77124 295.46118
30.095968 490.77124 295.46118
36.483269 473.1416 326.00024
42.563965 473.1416 326.00024
48.153503 490.77124 295.46118
54.172836 490.77124 295.46118
60.191936 490.77124 295.46118
66.211037 490.77124 295.46118
71.515007 507.89734 265.79468
77.474495 507.89734 265.79468
82.599632 525.02344 236.12769
88.499504 525.02344 236.12769
94.399376 525.02344 236.12769
100.29948 525.02344 236.12769
106.19936 525.02344 236.12769
112.09946 525.02344 236.12769
117.99934 525.02344 236.12769
123.89921 525.02344 236.12769
129.79932 525.02344 236.12769
135.69919 525.02344 236.12769
-126.09628 568.10327 150.12354
-120.36461 568.10327 150.12354
-114.63293 568.10327 150.12354
-107.86855 583.76831 123.0957
-102.19124 583.76831 123.0957
-96.514038 583.76831 123.0957
-90.836716 583.76831 123.0957
-85.159401 583.76831 123.0957
-78.745689 598.92798 96.939941
-73.120972 598.92798 96.939941
-67.496368 598.92798 96.939941
-62.450253 583.76831 123.0957
-56.772934 583.76831 123.0957
-51.095619 583.76831 123.0957
-45.418304 583.76831 123.0957
-39.7411 583.76831 123.0957
-34.063782 583.76831 123.0957
-28.123468 598.92798 96.939941
-22.498753 598.92798 96.939941
-16.874039 598.92798 96.939941
-11.24943 598.92798 96.939941
-5.6773152 583.76831 123.0957
0 583.76831 123.0957
5.7315598 568.10327 150.12354
11.799978 519.59253 233.82251
17.878695 502.4115 263.46606
24.076866 485.23047 293.10938
30.402802 467.54431 323.62451
36.483269 467.54431 323.62451
42.563965 467.54431 323.62451
48.153503 485.23047 293.10938
54.172836 485.23047 293.10938
60.191936 485.23047 293.10938
66.211037 485.23047 293.10938
71.515007 502.4115 263.46606
77.474495 502.4115 263.46606
82.599632 519.59253 233.82251
88.499504 519.59253 233.82251
94.399376 519.59253 233.82251
100.29948 519.59253 233.82251
106.19936 519.59253 233.82251
112.09946 519.59253 233.82251
117.99934 519.59253 233.82251
123.89921 519.59253 233.82251
129.79932 519.59253 233.82251
135.69919 519.59253 233.82251
-126.09628 562.82739 147.88403
-120.36461 562.82739 147.88403
-114.63293 562.82739 147.88403
-107.86855 578.54248 120.87744
-102.19124 578.54248 120.87744
-96.514038 578.54248 120.87744
-90.836716 578.54248 120.87744
-85.159401 578.54248 120.87744
-78.745689 593.75049 94.742188
-73.120972 593.75049 94.742188
-67.496368 593.75049 94.742188
-62.450253 578.54248 120.87744
-56.772934 578.54248 120.87744
-51.095619 578.54248 120.87744
-45.418304 578.54248 120.87744
-39.7411 578.54248 120.87744
-34.063782 578.54248 120.87744
-28.123468 593.75049 94.742188
-22.498753 593.75049 94.742188
-16.874039 593.75049 94.742188
-11.24943 593.75049 94.742188
-5.6773152 578.54248 120.87744
0 578.54248 120.87744
5.7315598 562.82739 147.88403
11.799978 514.16162 231.51709
17.878695 496.92578 261.13745
24.076866 479.68994 290.75757
30.402802 461.94727 321.24854
36.483269 461.94727 321.24854
42.563965 461.94727 321.24854
48.644436 461.94727 321.24854
54.725136 461.94727 321.24854
60.805603 461.94727 321.24854
66.211037 479.68994 290.75757
71.515007 496.92578 261.13745
77.474495 496.92578 261.13745
83.434212 496.92578 261.13745
89.3937 496.92578 261.13745
95.353195 496.92578 261.13745
101.31291 496.92578 261.13745
107.27239 496.92578 261.13745
113.23211 496.92578 261.13745
119.1916 496.92578 261.13745
125.1511 496.92578 261.13745
131.11081 496.92578 261.13745
-126.09628 557.55127 145.64453
-120.36461 557.55127 145.64453
-114.63293 557.55127 145.64453
-107.86855 573.31641 118.65918
-102.19124 573.31641 118.65918
-96.514038 573.31641 118.65918
-90.836716 573.31641 118.65918
-85.159401 573.31641 118.65918
-78.745689 588.57288 92.544434
-73.120972 588.57288 92.544434
-67.496368 588.57288 92.544434
-62.450253 573.31641 118.65918
-56.772934 573.31641 118.65918
-51.095619 573.31641 118.65918
-45.418304 573.31641 118.65918
-39.7411 573.31641 118.65918
-34.063782 573.31641 118.65918
-28.386467 573.31641 118.65918
-22.498753 588.57288 92.544434
-16.874039 588.57288 92.544434
-11.35463 573.31641 118.65918
-5.6773152 573.31641 118.65918
0 557.55127 145.64453
5.785912 541.78625 172.62988
11.919207 491.43994 258.80884
18.057533 474.14917 288.40552
24.076866 474.14917 288.40552
30.402802 456.34998 318.8728
36.483269 456.34998 318.8728
42.563965 456.34998 318.8728
48.644436 456.34998 318.8728
54.725136 456.34998 318.8728
60.805603 456.34998 318.8728
66.211037 474.14917 288.40552
72.23037 474.14917 288.40552
78.249474 474.14917 288.40552
84.268799 474.14917 288.40552
89.3937 491.43994 258.80884
95.353195 491.43994 258.80884
101.31291 491.43994 258.80884
107.27239 491.43994 258.80884
113.23211 491.43994 258.80884
119.1916 491.43994 258.80884
125.1511 491.43994 258.80884
132.4223 474.14917 288.40552
138.44141 474.14917 288.40552
-126.09628 552.27539 143.40503
-120.36461 552.27539 143.40503
-114.63293 552.27539 143.40503
-107.86855 568.09045 116.44092
-102.19124 568.09045 116.44092
-96.514038 568.09045 116.44092
-90.836716 568.09045 116.44092
-85.159401 568.09045 116.44092
-79.482086 568.09045 116.44092
-73.804771 568.09045 116.44092
-68.127563 568.09045 116.44092
-62.450253 568.09045 116.44092
-56.772934 568.09045 116.44092
-51.095619 568.09045 116.44092
-45.418304 568.09045 116.44092
-39.7411 568.09045 116.44092
-34.063782 568.09045 116.44092
-28.386467 568.09045 116.44092
-22.498753 583.39539 90.34668
-16.874039 583.39539 90.34668
-11.35463 568.09045 116.44092
-5.6773152 568.09045 116.44092
0 552.27539 143.40503
5.7315598 552.27539 143.40503
11.919207 485.9541 256.48022
18.057533 468.60852 286.05371
24.076866 468.60852 286.05371
30.402802 450.75281 316.49683
36.483269 450.75281 316.49683
42.563965 450.75281 316.49683
48.644436 450.75281 316.49683
54.725136 450.75281 316.49683
60.805603 450.75281 316.49683
66.211037 468.60852 286.05371
72.23037 468.60852 286.05371
78.249474 468.60852 286.05371
84.268799 468.60852 286.05371
90.287903 468.60852 286.05371
96.307007 468.60852 286.05371
102.32633 468.60852 286.05371
108.34544 468.60852 286.05371
113.23211 485.9541 256.48022
119.1916 485.9541 256.48022
125.1511 485.9541 256.48022
131.11081 485.9541 256.48022
-127.29205 531.13416 168.10815
-121.50603 531.13416 168.10815
-114.63293 546.99927 141.16553
-108.90127 546.99927 141.16553
-103.16959 546.99927 141.16553
-96.514038 562.86438 114.22266
-90.836716 562.86438 114.22266
-85.159401 562.86438 114.22266
-79.482086 562.86438 114.22266
-73.804771 562.86438 114.22266
-68.127563 562.86438 114.22266
-62.450253 562.86438 114.22266
-56.772934 562.86438 114.22266
-51.095619 562.86438 114.22266
-45.418304 562.86438 114.22266
-39.7411 562.86438 114.22266
-34.063782 562.86438 114.22266
-28.386467 562.86438 114.22266
-22.709152 562.86438 114.22266
-17.031837 562.86438 114.22266
-11.35463 562.86438 114.22266
-5.6773152 562.86438 114.22266
0 546.99927 141.16553
5.7315598 546.99927 141.16553
11.919207 480.46826 254.15161
18.057533 463.06775 283.7019
24.322334 445.15552 314.12109
30.709635 427.24341 344.54053
36.851467 427.24341 344.54053
42.563965 445.15552 314.12109
48.644436 445.15552 314.12109
54.725136 445.15552 314.12109
60.805603 445.15552 314.12109
66.88607 445.15552 314.12109
72.966766 445.15552 314.12109
79.047241 445.15552 314.12109
85.12793 445.15552 314.12109
90.287903 463.06775 283.7019
96.307007 463.06775 283.7019
102.32633 463.06775 283.7019
108.34544 463.06775 283.7019
114.36477 463.06775 283.7019
120.38387 463.06775 283.7019
126.40298 463.06775 283.7019
132.4223 463.06775 283.7019
-127.29205 525.80811 165.84741
-120.36461 541.72327 138.92578
-114.63293 541.72327 138.92578
-108.90127 541.72327 138.92578
-103.16959 541.72327 138.92578
-96.514038 557.63843 112.00415
-90.836716 557.63843 112.00415
-85.159401 557.63843 112.00415
-79.482086 557.63843 112.00415
-73.804771 557.63843 112.00415
-68.127563 557.63843 112.00415
-62.450253 557.63843 112.00415
-56.772934 557.63843 112.00415
