ply
format ascii 1.0
comment PCL generated
element vertex 1568
property float x
property float y
property float z
element camera 0
property float view_px
property float view_py
property float view_pz
property float x_axisx
property float x_axisy
property float x_axisz
property float y_axisx
property float y_axisy
property float y_axisz
property float z_axisx
property float z_axisy
property float z_axisz
property float focal
property float scalex
property float scaley
property float centerx
property float centery
property int viewportx
property int viewporty
property float k1
property float k2
end_header
231.89241 1060.7404 228.87256
237.41357 1060.7404 228.87256
245.17221 1050.0645 255.84521
253.11121 1039.0204 283.74805
258.73581 1039.0204 283.74805
264.36063 1039.0204 283.74805
272.51004 1027.9763 311.65088
278.18747 1027.9763 311.65088
292.19302 993.0033 400.01001
300.89819 981.22314 429.77295
306.79831 981.22314 429.77295
312.69821 981.22314 429.77295
318.59833 981.22314 429.77295
324.49817 981.22314 429.77295
330.39804 981.22314 429.77295
336.29816 981.22314 429.77295
342.19806 981.22314 429.77295
348.09814 981.22314 429.77295
353.99802 981.22314 429.77295
359.89789 981.22314 429.77295
365.79797 981.22314 429.77295
371.69788 981.22314 429.77295
377.59799 981.22314 429.77295
383.49783 981.22314 429.77295
389.39771 981.22314 429.77295
395.29782 981.22314 429.77295
401.19772 981.22314 429.77295
407.09781 981.22314 429.77295
-203.59004 1244.2305 -247.28442
-198.96298 1244.2305 -247.28442
-195.80879 1236.8354 -228.69629
-191.14668 1236.8354 -228.69629
-190.97307 1213.1714 -169.21411
-186.19873 1213.1714 -169.21411
-181.42438 1213.1714 -169.21411
-176.65013 1213.1714 -169.21411
-171.87578 1213.1714 -169.21411
-167.10144 1213.1714 -169.21411
-162.3271 1213.1714 -169.21411
-157.55273 1213.1714 -169.21411
-152.7785 1213.1714 -169.21411
-149.14557 1205.4066 -149.69629
-144.33441 1205.4066 -149.69629
-139.52324 1205.4066 -149.69629
-135.84122 1196.9023 -128.32007
-130.98982 1196.9023 -128.32007
-127.14124 1188.7679 -107.8728
-122.25117 1188.7679 -107.8728
-118.32894 1180.2637 -86.496338
-113.39855 1180.2637 -86.496338
-108.46826 1180.2637 -86.496338
-104.38472 1171.7594 -65.119873
-99.414001 1171.7594 -65.119873
-94.443283 1171.7594 -65.119873
-90.230003 1162.8854 -42.814209
-85.2173 1162.8854 -42.814209
-82.280449 1135.5239 25.962402
-79.163002 1107.0532 97.5271
-74.54821 1097.0701 122.62085
-69.838737 1087.0868 147.71509
-64.466599 1087.0868 147.71509
-59.094368 1087.0868 147.71509
-53.722134 1087.0868 147.71509
-48.349903 1087.0868 147.71509
-42.977669 1087.0868 147.71509
-37.605534 1087.0868 147.71509
-31.949263 1097.0701 122.62085
-26.624367 1097.0701 122.62085
-21.110115 1107.0532 97.5271
-15.83256 1107.0532 97.5271
-10.555108 1107.0532 97.5271
-5.277554 1107.0532 97.5271
0 1107.0532 97.5271
5.2774534 1107.0532 97.5271
10.555108 1107.0532 97.5271
15.83256 1107.0532 97.5271
21.110216 1107.0532 97.5271
26.387667 1107.0532 97.5271
31.665119 1107.0532 97.5271
36.942772 1107.0532 97.5271
42.22023 1107.0532 97.5271
47.497883 1107.0532 97.5271
52.775333 1107.0532 97.5271
58.573528 1097.0701 122.62085
63.898525 1097.0701 122.62085
69.223312 1097.0701 122.62085
74.548309 1097.0701 122.62085
80.583206 1087.0868 147.71509
85.955338 1087.0868 147.71509
91.327667 1087.0868 147.71509
96.699806 1087.0868 147.71509
103.00491 1076.7338 173.73877
108.42614 1076.7338 173.73877
113.84736 1076.7338 173.73877
119.26879 1076.7338 173.73877
124.69002 1076.7338 173.73877
130.11145 1076.7338 173.73877
135.53267 1076.7338 173.73877
140.9539 1076.7338 173.73877
146.37532 1076.7338 173.73877
151.79655 1076.7338 173.73877
157.21799 1076.7338 173.73877
162.63921 1076.7338 173.73877
168.06042 1076.7338 173.73877
175.05284 1066.3809 199.76196
180.52318 1066.3809 199.76196
185.9937 1066.3809 199.76196
191.464 1066.3809 199.76196
196.93433 1066.3809 199.76196
202.40485 1066.3809 199.76196
207.87517 1066.3809 199.76196
215.3287 1055.658 226.71509
220.84987 1055.658 226.71509
226.37105 1055.658 226.71509
231.89241 1055.658 226.71509
239.59998 1044.9353 253.66797
245.17221 1044.9353 253.66797
253.11121 1033.8428 281.55029
258.73581 1033.8428 281.55029
264.36063 1033.8428 281.55029
272.51004 1022.7504 309.43262
280.8508 1011.2881 338.24438
292.19302 987.62402 397.72656
300.89819 975.79211 427.46777
306.79831 975.79211 427.46777
312.69821 975.79211 427.46777
318.59833 975.79211 427.46777
324.49817 975.79211 427.46777
330.39804 975.79211 427.46777
336.29816 975.79211 427.46777
342.19806 975.79211 427.46777
348.09814 975.79211 427.46777
353.99802 975.79211 427.46777
359.89789 975.79211 427.46777
365.79797 975.79211 427.46777
371.69788 975.79211 427.46777
377.59799 975.79211 427.46777
383.49783 975.79211 427.46777
389.39771 975.79211 427.46777
395.29782 975.79211 427.46777
401.19772 975.79211 427.46777
407.09781 975.79211 427.46777
-208.2171 1239.9712 -249.09253
-203.59004 1239.9712 -249.09253
-198.96298 1239.9712 -249.09253
-195.80879 1232.5439 -230.51782
-191.14668 1232.5439 -230.51782
-190.97307 1208.7766 -171.07959
-186.19873 1208.7766 -171.07959
-181.42438 1208.7766 -171.07959
-176.65013 1208.7766 -171.07959
-171.87578 1208.7766 -171.07959
-167.10144 1208.7766 -171.07959
-162.3271 1208.7766 -171.07959
-157.55273 1208.7766 -171.07959
-152.7785 1208.7766 -171.07959
-148.00415 1208.7766 -171.07959
-144.33441 1200.978 -151.57617
-139.52324 1200.978 -151.57617
-135.84122 1192.4366 -130.21558
-130.98982 1192.4366 -130.21558
-127.14124 1184.2666 -109.78369
-122.25117 1184.2666 -109.78369
-118.32894 1175.7252 -88.422852
-113.39855 1175.7252 -88.422852
-108.46826 1175.7252 -88.422852
-104.38472 1167.1838 -67.062256
-99.414001 1167.1838 -67.062256
-94.443283 1167.1838 -67.062256
-90.230003 1158.2711 -44.772705
-85.932655 1149.3585 -22.483398
-79.8731 1092.1685 120.54028
-75.210968 1082.1416 145.61621
-69.838737 1082.1416 145.61621
-65.055725 1071.7434 171.62036
-59.634396 1071.7434 171.62036
-54.21307 1071.7434 171.62036
-48.79174 1071.7434 171.62036
-42.977669 1082.1416 145.61621
-37.605534 1082.1416 145.61621
-32.233299 1082.1416 145.61621
-26.624367 1092.1685 120.54028
-21.110115 1102.1952 95.464844
-15.83256 1102.1952 95.464844
-10.555108 1102.1952 95.464844
-5.277554 1102.1952 95.464844
0 1102.1952 95.464844
5.2774534 1102.1952 95.464844
10.555108 1102.1952 95.464844
15.83256 1102.1952 95.464844
21.110216 1102.1952 95.464844
26.387667 1102.1952 95.464844
31.665119 1102.1952 95.464844
36.942772 1102.1952 95.464844
42.22023 1102.1952 95.464844
47.497883 1102.1952 95.464844
52.775333 1102.1952 95.464844
58.573528 1092.1685 120.54028
63.898525 1092.1685 120.54028
69.838737 1082.1416 145.61621
75.211067 1082.1416 145.61621
80.583206 1082.1416 145.61621
86.740829 1071.7434 171.62036
92.162254 1071.7434 171.62036
97.583481 1071.7434 171.62036
103.00491 1071.7434 171.62036
108.42614 1071.7434 171.62036
113.84736 1071.7434 171.62036
119.26879 1071.7434 171.62036
124.69002 1071.7434 171.62036
130.11145 1071.7434 171.62036
135.53267 1071.7434 171.62036
140.9539 1071.7434 171.62036
146.37532 1071.7434 171.62036
151.79655 1071.7434 171.62036
157.21799 1071.7434 171.62036
162.63921 1071.7434 171.62036
168.06042 1071.7434 171.62036
175.05284 1061.3453 197.62451
180.52318 1061.3453 197.62451
185.9937 1061.3453 197.62451
191.464 1061.3453 197.62451
196.93433 1061.3453 197.62451
202.40485 1061.3453 197.62451
209.80733 1050.5757 224.55786
215.3287 1050.5757 224.55786
220.84987 1050.5757 224.55786
226.37105 1050.5757 224.55786
231.89241 1050.5757 224.55786
239.59998 1039.8062 251.49072
245.17221 1039.8062 251.49072
253.11121 1028.6653 279.35254
258.73581 1028.6653 279.35254
266.83286 1017.5243 307.21436
275.11899 1006.0121 336.00488
286.34924 982.24475 395.44336
292.19302 982.24475 395.44336
300.89819 970.36121 425.16235
306.79831 970.36121 425.16235
312.69821 970.36121 425.16235
318.59833 970.36121 425.16235
324.49817 970.36121 425.16235
330.39804 970.36121 425.16235
336.29816 970.36121 425.16235
342.19806 970.36121 425.16235
348.09814 970.36121 425.16235
353.99802 970.36121 425.16235
359.89789 970.36121 425.16235
365.79797 970.36121 425.16235
371.69788 970.36121 425.16235
377.59799 970.36121 425.16235
383.49783 970.36121 425.16235
389.39771 970.36121 425.16235
399.29193 957.73474 456.73926
405.2514 957.73474 456.73926
411.21112 957.73474 456.73926
-209.7951 1228.2524 -232.33936
-205.13297 1228.2524 -232.33936
-200.47086 1228.2524 -232.33936
-195.80879 1228.2524 -232.33936
-192.6563 1220.4199 -212.85059
-190.97307 1204.3818 -172.94507
-186.19873 1204.3818 -172.94507
-181.42438 1204.3818 -172.94507
-176.65013 1204.3818 -172.94507
-171.87578 1204.3818 -172.94507
-167.10144 1204.3818 -172.94507
-162.3271 1204.3818 -172.94507
-157.55273 1204.3818 -172.94507
-152.7785 1204.3818 -172.94507
-148.00415 1204.3818 -172.94507
-144.33441 1196.5493 -153.45605
-139.52324 1196.5493 -153.45605
-134.71207 1196.5493 -153.45605
-130.98982 1187.9708 -132.11133
-126.13833 1187.9708 -132.11133
-122.25117 1179.7653 -111.69434
-118.32894 1171.1868 -90.349365
-113.39855 1171.1868 -90.349365
-108.46826 1171.1868 -90.349365
-104.38472 1162.6083 -69.004395
-99.414001 1162.6083 -69.004395
-94.443283 1162.6083 -69.004395
-90.230003 1153.6569 -46.731445
-85.932655 1144.7054 -24.458496
-79.8731 1087.267 118.45972
-75.210968 1077.1964 143.51709
-69.838737 1077.1964 143.51709
-65.055725 1066.7532 169.5022
-59.634396 1066.7532 169.5022
-54.21307 1066.7532 169.5022
-48.79174 1066.7532 169.5022
-43.370415 1066.7532 169.5022
-37.605534 1077.1964 143.51709
-32.233299 1077.1964 143.51709
-26.624367 1087.267 118.45972
-21.299473 1087.267 118.45972
-15.83256 1097.3373 93.402832
-10.555108 1097.3373 93.402832
-5.277554 1097.3373 93.402832
0 1097.3373 93.402832
5.2774534 1097.3373 93.402832
10.555108 1097.3373 93.402832
15.83256 1097.3373 93.402832
21.110216 1097.3373 93.402832
26.387667 1097.3373 93.402832
31.665119 1097.3373 93.402832
36.942772 1097.3373 93.402832
42.22023 1097.3373 93.402832
47.497883 1097.3373 93.402832
53.248734 1087.267 118.45972
58.573528 1087.267 118.45972
63.898525 1087.267 118.45972
69.838737 1077.1964 143.51709
75.211067 1077.1964 143.51709
81.319603 1066.7532 169.5022
86.740829 1066.7532 169.5022
92.162254 1066.7532 169.5022
97.583481 1066.7532 169.5022
103.00491 1066.7532 169.5022
108.42614 1066.7532 169.5022
113.84736 1066.7532 169.5022
119.26879 1066.7532 169.5022
124.69002 1066.7532 169.5022
130.11145 1066.7532 169.5022
135.53267 1066.7532 169.5022
140.9539 1066.7532 169.5022
146.37532 1066.7532 169.5022
151.79655 1066.7532 169.5022
157.21799 1066.7532 169.5022
162.63921 1066.7532 169.5022
168.06042 1066.7532 169.5022
175.05284 1056.3098 195.48706
180.52318 1056.3098 195.48706
185.9937 1056.3098 195.48706
191.464 1056.3098 195.48706
196.93433 1056.3098 195.48706
202.40485 1056.3098 195.48706
209.80733 1045.4934 222.40039
215.3287 1045.4934 222.40039
220.84987 1045.4934 222.40039
226.37105 1045.4934 222.40039
234.02797 1034.677 249.31372
239.59998 1034.677 249.31372
247.4866 1023.4877 277.15503
253.11121 1023.4877 277.15503
258.73581 1023.4877 277.15503
264.36063 1023.4877 277.15503
275.11899 1000.7361 333.76514
286.34924 976.86548 393.15991
292.19302 976.86548 393.15991
300.89819 964.9303 422.85718
306.79831 964.9303 422.85718
312.69821 964.9303 422.85718
318.59833 964.9303 422.85718
324.49817 964.9303 422.85718
330.39804 964.9303 422.85718
336.29816 964.9303 422.85718
342.19806 964.9303 422.85718
348.09814 964.9303 422.85718
353.99802 964.9303 422.85718
359.89789 964.9303 422.85718
365.79797 964.9303 422.85718
371.69788 964.9303 422.85718
377.59799 964.9303 422.85718
387.37271 952.24902 454.41064
393.33218 952.24902 454.41064
399.29193 952.24902 454.41064
409.30511 939.56763 485.96411
415.32443 939.56763 485.96411
-209.7951 1223.9609 -234.16113
-205.13297 1223.9609 -234.16113
-200.47086 1223.9609 -234.16113
-197.35524 1216.0945 -214.68677
-192.6563 1216.0945 -214.68677
-190.97307 1199.9871 -174.81055
-186.19873 1199.9871 -174.81055
-181.42438 1199.9871 -174.81055
-176.65013 1199.9871 -174.81055
-171.87578 1199.9871 -174.81055
-167.10144 1199.9871 -174.81055
-162.3271 1199.9871 -174.81055
-157.55273 1199.9871 -174.81055
-152.7785 1199.9871 -174.81055
-148.00415 1199.9871 -174.81055
-143.22981 1199.9871 -174.81055
-139.52324 1192.1206 -155.33594
-134.71207 1192.1206 -155.33594
-130.98982 1183.505 -134.00684
-126.13833 1183.505 -134.00684
-122.25117 1175.264 -113.60498
-118.32894 1166.6484 -92.275879
-113.39855 1166.6484 -92.275879
-108.46826 1166.6484 -92.275879
-104.38472 1158.0328 -70.946533
-99.414001 1158.0328 -70.946533
-94.443283 1158.0328 -70.946533
-90.230003 1149.0426 -48.690186
-85.932655 1140.0525 -26.433594
-80.583206 1072.2513 141.41797
-75.898277 1061.7628 167.38403
-70.476952 1061.7628 167.38403
-65.055725 1061.7628 167.38403
-59.634396 1061.7628 167.38403
-54.21307 1061.7628 167.38403
-48.79174 1061.7628 167.38403
-43.370415 1061.7628 167.38403
-37.605534 1072.2513 141.41797
-32.233299 1072.2513 141.41797
-26.861067 1072.2513 141.41797
-21.299473 1082.3654 116.37915
-15.97458 1082.3654 116.37915
-10.649788 1082.3654 116.37915
-5.277554 1092.4792 91.34082
0 1092.4792 91.34082
5.2774534 1092.4792 91.34082
10.555108 1092.4792 91.34082
15.83256 1092.4792 91.34082
21.110216 1092.4792 91.34082
26.387667 1092.4792 91.34082
31.665119 1092.4792 91.34082
36.942772 1092.4792 91.34082
42.598946 1082.3654 116.37915
47.923943 1082.3654 116.37915
53.248734 1082.3654 116.37915
58.573528 1082.3654 116.37915
64.466599 1072.2513 141.41797
69.838737 1072.2513 141.41797
75.211067 1072.2513 141.41797
81.319603 1061.7628 167.38403
86.740829 1061.7628 167.38403
92.162254 1061.7628 167.38403
97.583481 1061.7628 167.38403
103.00491 1061.7628 167.38403
108.42614 1061.7628 167.38403
113.84736 1061.7628 167.38403
119.26879 1061.7628 167.38403
124.69002 1061.7628 167.38403
130.11145 1061.7628 167.38403
135.53267 1061.7628 167.38403
140.9539 1061.7628 167.38403
146.37532 1061.7628 167.38403
151.79655 1061.7628 167.38403
157.21799 1061.7628 167.38403
162.63921 1061.7628 167.38403
168.06042 1061.7628 167.38403
175.05284 1051.2743 193.34961
180.52318 1051.2743 193.34961
185.9937 1051.2743 193.34961
191.464 1051.2743 193.34961
196.93433 1051.2743 193.34961
202.40485 1051.2743 193.34961
207.87517 1051.2743 193.34961
213.34569 1051.2743 193.34961
220.84987 1040.411 220.24316
226.37105 1040.411 220.24316
234.02797 1029.5479 247.13647
239.59998 1029.5479 247.13647
247.4866 1018.3102 274.95728
253.11121 1018.3102 274.95728
258.73581 1018.3102 274.95728
264.36063 1018.3102 274.95728
272.51004 1007.0724 302.77759
280.8508 995.46008 331.52563
292.19302 971.48621 390.87646
298.03677 971.48621 390.87646
303.8808 971.48621 390.87646
312.69821 959.49927 420.55176
318.59833 959.49927 420.55176
324.49817 959.49927 420.55176
330.39804 959.49927 420.55176
336.29816 959.49927 420.55176
342.19806 959.49927 420.55176
348.09814 959.49927 420.55176
353.99802 959.49927 420.55176
359.89789 959.49927 420.55176
365.79797 959.49927 420.55176
371.69788 959.49927 420.55176
377.59799 959.49927 420.55176
387.37271 946.76318 452.08203
393.33218 946.76318 452.08203
399.29193 946.76318 452.08203
405.2514 946.76318 452.08203
411.21112 946.76318 452.08203
417.17062 946.76318 452.08203
-216.15096 1211.769 -216.52271
-209.7951 1219.6694 -235.98267
-205.13297 1219.6694 -235.98267
-202.05411 1211.769 -216.52271
-197.35524 1211.769 -216.52271
-194.16591 1203.8689 -197.06274
-190.97307 1195.5923 -176.67603
-186.19873 1195.5923 -176.67603
-181.42438 1195.5923 -176.67603
-176.65013 1195.5923 -176.67603
-171.87578 1195.5923 -176.67603
-167.10144 1195.5923 -176.67603
-162.3271 1195.5923 -176.67603
-157.55273 1195.5923 -176.67603
-152.7785 1195.5923 -176.67603
-148.00415 1195.5923 -176.67603
-143.22981 1195.5923 -176.67603
-139.52324 1187.6919 -157.21582
-134.71207 1187.6919 -157.21582
-130.98982 1179.0392 -135.90259
-126.13833 1179.0392 -135.90259
-122.25117 1170.7627 -115.51562
-118.32894 1162.11 -94.202148
-113.39855 1162.11 -94.202148
-108.46826 1162.11 -94.202148
-104.38472 1153.4573 -72.888672
-99.414001 1153.4573 -72.888672
-94.443283 1153.4573 -72.888672
-90.98745 1135.3994 -28.408691
-89.718109 1087.6213 89.278564
-84.440552 1087.6213 89.278564
-80.583206 1067.3062 139.31885
-75.898277 1056.7725 165.26562
-70.476952 1056.7725 165.26562
-65.055725 1056.7725 165.26562
-59.634396 1056.7725 165.26562
-54.21307 1056.7725 165.26562
-48.79174 1056.7725 165.26562
-43.370415 1056.7725 165.26562
-37.605534 1067.3062 139.31885
-32.233299 1067.3062 139.31885
-26.861067 1067.3062 139.31885
-21.299473 1077.4637 114.29858
-15.97458 1077.4637 114.29858
-10.649788 1077.4637 114.29858
-5.277554 1087.6213 89.278564
0 1087.6213 89.278564
5.2774534 1087.6213 89.278564
10.555108 1087.6213 89.278564
15.83256 1087.6213 89.278564
21.110216 1087.6213 89.278564
26.387667 1087.6213 89.278564
31.665119 1087.6213 89.278564
36.942772 1087.6213 89.278564
42.598946 1077.4637 114.29858
47.923943 1077.4637 114.29858
53.248734 1077.4637 114.29858
58.573528 1077.4637 114.29858
64.466599 1067.3062 139.31885
69.838737 1067.3062 139.31885
75.211067 1067.3062 139.31885
81.319603 1056.7725 165.26562
86.740829 1056.7725 165.26562
92.162254 1056.7725 165.26562
97.583481 1056.7725 165.26562
103.00491 1056.7725 165.26562
108.42614 1056.7725 165.26562
113.84736 1056.7725 165.26562
119.26879 1056.7725 165.26562
124.69002 1056.7725 165.26562
130.11145 1056.7725 165.26562
135.53267 1056.7725 165.26562
140.9539 1056.7725 165.26562
146.37532 1056.7725 165.26562
151.79655 1056.7725 165.26562
157.21799 1056.7725 165.26562
162.63921 1056.7725 165.26562
168.06042 1056.7725 165.26562
175.05284 1046.2388 191.21216
180.52318 1046.2388 191.21216
185.9937 1046.2388 191.21216
191.464 1046.2388 191.21216
196.93433 1046.2388 191.21216
202.40485 1046.2388 191.21216
207.87517 1046.2388 191.21216
213.34569 1046.2388 191.21216
220.84987 1035.3287 218.08594
226.37105 1035.3287 218.08594
234.02797 1024.4187 244.95923
239.59998 1024.4187 244.95923
247.4866 1013.1326 272.75952
253.11121 1013.1326 272.75952
258.73581 1013.1326 272.75952
266.83286 1001.8464 300.55933
272.51004 1001.8464 300.55933
280.8508 990.18408 329.28613
292.19302 966.10681 388.59326
298.03677 966.10681 388.59326
303.8808 966.10681 388.59326
312.69821 954.06836 418.24658
318.59833 954.06836 418.24658
324.49817 954.06836 418.24658
330.39804 954.06836 418.24658
336.29816 954.06836 418.24658
342.19806 954.06836 418.24658
348.09814 954.06836 418.24658
353.99802 954.06836 418.24658
359.89789 954.06836 418.24658
365.79797 954.06836 418.24658
371.69788 954.06836 418.24658
377.59799 954.06836 418.24658
387.37271 941.27734 449.75342
393.33218 941.27734 449.75342
399.29193 941.27734 449.75342
405.2514 941.27734 449.75342
411.21112 941.27734 449.75342
421.34354 928.48633 481.26025
427.36264 928.48633 481.26025
-220.84991 1207.4437 -218.35864
-216.15096 1207.4437 -218.35864
-211.45201 1207.4437 -218.35864
-206.75305 1207.4437 -218.35864
-202.05411 1207.4437 -218.35864
-198.90169 1199.5095 -198.91309
-194.16591 1199.5095 -198.91309
-190.97307 1191.1975 -178.5415
-186.19873 1191.1975 -178.5415
-181.42438 1191.1975 -178.5415
-176.65013 1191.1975 -178.5415
-171.87578 1191.1975 -178.5415
-167.10144 1191.1975 -178.5415
-162.3271 1191.1975 -178.5415
-157.55273 1191.1975 -178.5415
-152.7785 1191.1975 -178.5415
-148.00415 1191.1975 -178.5415
-144.33441 1183.2632 -159.0957
-139.52324 1183.2632 -159.0957
-134.71207 1183.2632 -159.0957
-130.98982 1174.5734 -137.7981
-126.13833 1174.5734 -137.7981
-122.25117 1166.2614 -117.42627
-117.36111 1166.2614 -117.42627
-113.39855 1157.5715 -96.128662
-108.46826 1157.5715 -96.128662
-103.53786 1157.5715 -96.128662
-98.607468 1157.5715 -96.128662
-94.443283 1148.8817 -74.831055
-89.472572 1148.8817 -74.831055
-90.522888 1072.5623 112.21802
-85.197998 1072.5623 112.21802
-80.583206 1062.3611 137.21973
-75.898277 1051.7821 163.14746
-70.476952 1051.7821 163.14746
-65.055725 1051.7821 163.14746
-59.634396 1051.7821 163.14746
-54.21307 1051.7821 163.14746
-48.79174 1051.7821 163.14746
-43.370415 1051.7821 163.14746
-37.605534 1062.3611 137.21973
-32.233299 1062.3611 137.21973
-26.861067 1062.3611 137.21973
-21.299473 1072.5623 112.21802
-15.97458 1072.5623 112.21802
-10.649788 1072.5623 112.21802
-5.324894 1072.5623 112.21802
0 1072.5623 112.21802
5.2774534 1082.7633 87.216553
10.555108 1082.7633 87.216553
15.83256 1082.7633 87.216553
21.110216 1082.7633 87.216553
26.387667 1082.7633 87.216553
31.94916 1072.5623 112.21802
37.274155 1072.5623 112.21802
42.598946 1072.5623 112.21802
47.923943 1072.5623 112.21802
53.248734 1072.5623 112.21802
59.094265 1062.3611 137.21973
64.466599 1062.3611 137.21973
69.838737 1062.3611 137.21973
75.211067 1062.3611 137.21973
81.319603 1051.7821 163.14746
86.740829 1051.7821 163.14746
92.162254 1051.7821 163.14746
97.583481 1051.7821 163.14746
103.00491 1051.7821 163.14746
108.42614 1051.7821 163.14746
113.84736 1051.7821 163.14746
119.26879 1051.7821 163.14746
124.69002 1051.7821 163.14746
130.11145 1051.7821 163.14746
135.53267 1051.7821 163.14746
140.9539 1051.7821 163.14746
146.37532 1051.7821 163.14746
151.79655 1051.7821 163.14746
157.21799 1051.7821 163.14746
162.63921 1051.7821 163.14746
168.06042 1051.7821 163.14746
175.05284 1041.2032 189.07471
180.52318 1041.2032 189.07471
185.9937 1041.2032 189.07471
191.464 1041.2032 189.07471
196.93433 1041.2032 189.07471
204.28618 1030.2463 215.92847
207.87517 1041.2032 189.07471
213.34569 1041.2032 189.07471
220.84987 1030.2463 215.92847
226.37105 1030.2463 215.92847
234.02797 1019.2897 242.78198
241.86177 1007.9551 270.56177
247.4866 1007.9551 270.56177
253.11121 1007.9551 270.56177
258.73581 1007.9551 270.56177
266.83286 996.62048 298.34106
275.11899 984.90808 327.04663
286.34924 960.72754 386.30981
294.99835 948.63745 415.94116
300.89819 948.63745 415.94116
306.79831 948.63745 415.94116
312.69821 948.63745 415.94116
318.59833 948.63745 415.94116
324.49817 948.63745 415.94116
330.39804 948.63745 415.94116
336.29816 948.63745 415.94116
342.19806 948.63745 415.94116
348.09814 948.63745 415.94116
353.99802 948.63745 415.94116
359.89789 948.63745 415.94116
365.79797 948.63745 415.94116
371.69788 948.63745 415.94116
377.59799 948.63745 415.94116
387.37271 935.7915 447.4248
393.33218 935.7915 447.4248
403.28604 922.94556 478.90845
409.30511 922.94556 478.90845
415.32443 922.94556 478.90845
421.34354 922.94556 478.90845
427.36264 922.94556 478.90845
437.80038 909.72192 511.31763
-220.84991 1203.1183 -220.19482
-216.15096 1203.1183 -220.19482
-211.45201 1203.1183 -220.19482
-206.75305 1203.1183 -220.19482
-203.63736 1195.1503 -200.76343
-198.90169 1195.1503 -200.76343
-194.16591 1195.1503 -200.76343
-190.97307 1186.8027 -180.40698
-186.19873 1186.8027 -180.40698
-181.42438 1186.8027 -180.40698
-176.65013 1186.8027 -180.40698
-171.87578 1186.8027 -180.40698
-167.10144 1186.8027 -180.40698
-162.3271 1186.8027 -180.40698
-157.55273 1186.8027 -180.40698
-152.7785 1186.8027 -180.40698
-148.00415 1186.8027 -180.40698
-144.33441 1178.8345 -160.97559
-139.52324 1178.8345 -160.97559
-135.84122 1170.1075 -139.69385
-130.98982 1170.1075 -139.69385
-126.13833 1170.1075 -139.69385
-121.28683 1170.1075 -139.69385
-117.36111 1161.76 -119.33716
-113.39855 1153.0331 -98.055176
-108.46826 1153.0331 -98.055176
-103.53786 1153.0331 -98.055176
-98.607468 1153.0331 -98.055176
-94.443283 1144.306 -76.773193
-89.472572 1144.306 -76.773193
-90.522888 1067.6605 110.13745
-85.197998 1067.6605 110.13745
-80.583206 1057.4158 135.12061
-75.898277 1046.7917 161.02905
-70.476952 1046.7917 161.02905
-65.055725 1046.7917 161.02905
-59.634396 1046.7917 161.02905
-54.21307 1046.7917 161.02905
-48.79174 1046.7917 161.02905
-43.370415 1046.7917 161.02905
-37.605534 1057.4158 135.12061
-32.233299 1057.4158 135.12061
-26.861067 1057.4158 135.12061
-21.299473 1067.6605 110.13745
-15.97458 1067.6605 110.13745
-10.649788 1067.6605 110.13745
-5.324894 1067.6605 110.13745
0 1067.6605 110.13745
5.3247924 1067.6605 110.13745
10.555108 1077.9053 85.154297
15.83256 1077.9053 85.154297
21.110216 1077.9053 85.154297
26.387667 1077.9053 85.154297
31.94916 1067.6605 110.13745
37.274155 1067.6605 110.13745
42.598946 1067.6605 110.13745
47.923943 1067.6605 110.13745
53.248734 1067.6605 110.13745
59.094265 1057.4158 135.12061
64.466599 1057.4158 135.12061
69.838737 1057.4158 135.12061
75.211067 1057.4158 135.12061
81.319603 1046.7917 161.02905
86.740829 1046.7917 161.02905
92.162254 1046.7917 161.02905
97.583481 1046.7917 161.02905
103.00491 1046.7917 161.02905
108.42614 1046.7917 161.02905
113.84736 1046.7917 161.02905
119.26879 1046.7917 161.02905
124.69002 1046.7917 161.02905
130.11145 1046.7917 161.02905
135.53267 1046.7917 161.02905
140.9539 1046.7917 161.02905
146.37532 1046.7917 161.02905
151.79655 1046.7917 161.02905
157.21799 1046.7917 161.02905
162.63921 1046.7917 161.02905
168.06042 1046.7917 161.02905
173.48186 1046.7917 161.02905
178.90309 1046.7917 161.02905
185.9937 1036.1676 186.93726
191.464 1036.1676 186.93726
196.93433 1036.1676 186.93726
202.40485 1036.1676 186.93726
207.87517 1036.1676 186.93726
213.34569 1036.1676 186.93726
220.84987 1025.1639 213.77124
226.37105 1025.1639 213.77124
234.02797 1014.1604 240.60474
241.86177 1002.7775 268.36401
247.4866 1002.7775 268.36401
253.11121 1002.7775 268.36401
258.73581 1002.7775 268.36401
266.83286 991.39441 296.1228
272.51004 991.39441 296.1228
278.18747 991.39441 296.1228
283.86469 991.39441 296.1228
300.89819 943.20642 413.63599
306.79831 943.20642 413.63599
312.69821 943.20642 413.63599
318.59833 943.20642 413.63599
324.49817 943.20642 413.63599
330.39804 943.20642 413.63599
336.29816 943.20642 413.63599
342.19806 943.20642 413.63599
348.09814 943.20642 413.63599
353.99802 943.20642 413.63599
359.89789 943.20642 413.63599
369.49402 930.30566 445.09619
375.45349 930.30566 445.09619
381.41324 930.30566 445.09619
387.37271 930.30566 445.09619
393.33218 930.30566 445.09619
403.28604 917.40479 476.5564
409.30511 917.40479 476.5564
415.32443 917.40479 476.5564
421.34354 917.40479 476.5564
427.36264 917.40479 476.5564
437.80038 904.12476 508.94189
-222.58046 1190.7909 -202.61377
-217.84467 1190.7909 -202.61377
-211.45201 1198.793 -222.03076
-206.75305 1198.793 -222.03076
-203.63736 1190.7909 -202.61377
-198.90169 1190.7909 -202.61377
-194.16591 1190.7909 -202.61377
-189.43015 1190.7909 -202.61377
-186.19873 1182.408 -182.27246
-181.42438 1182.408 -182.27246
-176.65013 1182.408 -182.27246
-171.87578 1182.408 -182.27246
-167.10144 1182.408 -182.27246
-162.3271 1182.408 -182.27246
-157.55273 1182.408 -182.27246
-152.7785 1182.408 -182.27246
-148.00415 1182.408 -182.27246
-144.33441 1174.4058 -162.85522
-139.52324 1174.4058 -162.85522
-134.71207 1174.4058 -162.85522
-129.901 1174.4058 -162.85522
-125.08984 1174.4058 -162.85522
-121.28683 1165.6417 -141.58936
-116.43534 1165.6417 -141.58936
-112.47104 1157.2587 -121.2478
-108.46826 1148.4946 -99.981689
-103.53786 1148.4946 -99.981689
-98.607468 1148.4946 -99.981689
-103.00481 1041.8014 158.91089
-96.699806 1052.4707 133.02148
-91.327667 1052.4707 133.02148
-85.955437 1052.4707 133.02148
-81.319603 1041.8014 158.91089
-75.898277 1041.8014 158.91089
-70.476952 1041.8014 158.91089
-65.055725 1041.8014 158.91089
-59.634396 1041.8014 158.91089
-54.21307 1041.8014 158.91089
-48.79174 1041.8014 158.91089
-43.370415 1041.8014 158.91089
-37.949188 1041.8014 158.91089
-32.527863 1041.8014 158.91089
-27.106535 1041.8014 158.91089
-21.299473 1062.759 108.05688
-15.97458 1062.759 108.05688
-10.649788 1062.759 108.05688
-5.324894 1062.759 108.05688
0 1062.759 108.05688
5.3247924 1062.759 108.05688
10.649788 1062.759 108.05688
15.97458 1062.759 108.05688
21.299576 1062.759 108.05688
26.624367 1062.759 108.05688
31.94916 1062.759 108.05688
37.274155 1062.759 108.05688
42.598946 1062.759 108.05688
47.923943 1062.759 108.05688
53.248734 1062.759 108.05688
59.094265 1052.4707 133.02148
64.466599 1052.4707 133.02148
69.838737 1052.4707 133.02148
75.211067 1052.4707 133.02148
80.583206 1052.4707 133.02148
85.955338 1052.4707 133.02148
92.162254 1041.8014 158.91089
97.583481 1041.8014 158.91089
103.00491 1041.8014 158.91089
108.42614 1041.8014 158.91089
113.84736 1041.8014 158.91089
119.26879 1041.8014 158.91089
124.69002 1041.8014 158.91089
130.11145 1041.8014 158.91089
135.53267 1041.8014 158.91089
140.9539 1041.8014 158.91089
146.37532 1041.8014 158.91089
151.79655 1041.8014 158.91089
157.21799 1041.8014 158.91089
162.63921 1041.8014 158.91089
168.06042 1041.8014 158.91089
173.48186 1041.8014 158.91089
178.90309 1041.8014 158.91089
185.9937 1031.1321 184.7998
191.464 1031.1321 184.7998
196.93433 1031.1321 184.7998
202.40485 1031.1321 184.7998
207.87517 1031.1321 184.7998
213.34569 1031.1321 184.7998
220.84987 1020.0817 211.61377
226.37105 1020.0817 211.61377
234.02797 1009.0312 238.42773
241.86177 997.59985 266.16626
247.4866 997.59985 266.16626
253.11121 997.59985 266.16626
258.73581 997.59985 266.16626
266.83286 986.16846 293.90454
272.51004 986.16846 293.90454
278.18747 986.16846 293.90454
306.79831 937.77551 411.33057
312.69821 937.77551 411.33057
318.59833 937.77551 411.33057
327.77692 924.81982 442.76758
330.39804 937.77551 411.33057
336.29816 937.77551 411.33057
342.19806 937.77551 411.33057
348.09814 937.77551 411.33057
353.99802 937.77551 411.33057
359.89789 937.77551 411.33057
369.49402 924.81982 442.76758
375.45349 924.81982 442.76758
381.41324 924.81982 442.76758
387.37271 924.81982 442.76758
393.33218 924.81982 442.76758
403.28604 911.86414 474.20459
409.30511 911.86414 474.20459
415.32443 911.86414 474.20459
421.34354 911.86414 474.20459
427.36264 911.86414 474.20459
433.38199 911.86414 474.20459
439.40106 911.86414 474.20459
-222.58046 1186.4316 -204.46436
-217.84467 1186.4316 -204.46436
-211.45201 1194.4675 -223.8667
-206.75305 1194.4675 -223.8667
-202.05411 1194.4675 -223.8667
-198.90169 1186.4316 -204.46436
-194.16591 1186.4316 -204.46436
-189.43015 1186.4316 -204.46436
-184.69438 1186.4316 -204.46436
-181.42438 1178.0131 -184.13794
-176.65013 1178.0131 -184.13794
-171.87578 1178.0131 -184.13794
-167.10144 1178.0131 -184.13794
-162.3271 1178.0131 -184.13794
-157.55273 1178.0131 -184.13794
-152.7785 1178.0131 -184.13794
-148.00415 1178.0131 -184.13794
-143.22981 1178.0131 -184.13794
-139.52324 1169.9772 -164.73511
-134.71207 1169.9772 -164.73511
-129.901 1169.9772 -164.73511
-125.08984 1169.9772 -164.73511
-121.28683 1161.1759 -143.48511
-116.43534 1161.1759 -143.48511
-112.47104 1152.7574 -123.15845
-108.46826 1143.9562 -101.90796
-103.53786 1143.9562 -101.90796
-98.607468 1143.9562 -101.90796
-103.00481 1036.811 156.79248
-97.583481 1036.811 156.79248
-92.162254 1036.811 156.79248
-86.740929 1036.811 156.79248
-81.319603 1036.811 156.79248
-76.585587 1026.0966 182.66235
-71.115158 1026.0966 182.66235
-65.644844 1026.0966 182.66235
-60.174423 1026.0966 182.66235
-54.21307 1036.811 156.79248
-48.79174 1036.811 156.79248
-43.370415 1036.811 156.79248
-37.949188 1036.811 156.79248
-32.527863 1036.811 156.79248
-27.106535 1036.811 156.79248
-21.299473 1057.8574 105.97632
-15.97458 1057.8574 105.97632
-10.649788 1057.8574 105.97632
-5.324894 1057.8574 105.97632
0 1057.8574 105.97632
5.3247924 1057.8574 105.97632
10.649788 1057.8574 105.97632
15.97458 1057.8574 105.97632
21.299576 1057.8574 105.97632
26.624367 1057.8574 105.97632
31.94916 1057.8574 105.97632
37.274155 1057.8574 105.97632
42.598946 1057.8574 105.97632
47.923943 1057.8574 105.97632
53.248734 1057.8574 105.97632
59.094265 1047.5255 130.92236
64.466599 1047.5255 130.92236
69.838737 1047.5255 130.92236
75.211067 1047.5255 130.92236
80.583206 1047.5255 130.92236
85.955338 1047.5255 130.92236
92.162254 1036.811 156.79248
97.583481 1036.811 156.79248
103.00491 1036.811 156.79248
108.42614 1036.811 156.79248
113.84736 1036.811 156.79248
119.26879 1036.811 156.79248
124.69002 1036.811 156.79248
130.11145 1036.811 156.79248
135.53267 1036.811 156.79248
140.9539 1036.811 156.79248
146.37532 1036.811 156.79248
151.79655 1036.811 156.79248
157.21799 1036.811 156.79248
162.63921 1036.811 156.79248
168.06042 1036.811 156.79248
173.48186 1036.811 156.79248
178.90309 1036.811 156.79248
185.9937 1026.0966 182.66235
191.464 1026.0966 182.66235
198.7648 1014.9993 209.45654
204.28618 1014.9993 209.45654
209.80733 1014.9993 209.45654
217.31174 1003.9021 236.25049
222.88374 1003.9021 236.25049
228.45575 1003.9021 236.25049
236.23717 992.42236 263.96851
241.86177 992.42236 263.96851
247.4866 992.42236 263.96851
253.11121 992.42236 263.96851
258.73581 992.42236 263.96851
264.36063 992.42236 263.96851
269.98526 992.42236 263.96851
327.77692 919.33398 440.43921
333.73639 919.33398 440.43921
336.29816 932.34448 409.02539
342.19806 932.34448 409.02539
348.09814 932.34448 409.02539
353.99802 932.34448 409.02539
359.89789 932.34448 409.02539
369.49402 919.33398 440.43921
375.45349 919.33398 440.43921
381.41324 919.33398 440.43921
387.37271 919.33398 440.43921
397.26669 906.32349 471.85278
403.28604 906.32349 471.85278
409.30511 906.32349 471.85278
415.32443 906.32349 471.85278
421.34354 906.32349 471.85278
427.36264 906.32349 471.85278
433.38199 906.32349 471.85278
439.40106 906.32349 471.85278
445.42041 906.32349 471.85278
-225.54877 1190.1421 -225.70288
-220.84991 1190.1421 -225.70288
-216.15096 1190.1421 -225.70288
-209.7951 1198.2119 -245.09082
-205.13297 1198.2119 -245.09082
-202.05411 1190.1421 -225.70288
-197.35524 1190.1421 -225.70288
-194.16591 1182.0724 -206.3147
-189.43015 1182.0724 -206.3147
-184.69438 1182.0724 -206.3147
-181.42438 1173.6183 -186.00342
-176.65013 1173.6183 -186.00342
-171.87578 1173.6183 -186.00342
-167.10144 1173.6183 -186.00342
-162.3271 1173.6183 -186.00342
-157.55273 1173.6183 -186.00342
-152.7785 1173.6183 -186.00342
-148.00415 1173.6183 -186.00342
-143.22981 1173.6183 -186.00342
-139.52324 1165.5485 -166.61499
-134.71207 1165.5485 -166.61499
-129.901 1165.5485 -166.61499
-125.08984 1165.5485 -166.61499
-121.28683 1156.7101 -145.38062
-116.43534 1156.7101 -145.38062
-111.58385 1156.7101 -145.38062
-108.46826 1139.4177 -103.83447
-103.53786 1139.4177 -103.83447
-109.408 1021.061 180.5249
-103.00481 1031.8207 154.67432
-97.583481 1031.8207 154.67432
-92.162254 1031.8207 154.67432
-86.740929 1031.8207 154.67432
-81.319603 1031.8207 154.67432
-75.898277 1031.8207 154.67432
-71.115158 1021.061 180.5249
-65.644844 1021.061 180.5249
-59.634396 1031.8207 154.67432
-54.21307 1031.8207 154.67432
-48.79174 1031.8207 154.67432
-43.370415 1031.8207 154.67432
-37.949188 1031.8207 154.67432
-32.527863 1031.8207 154.67432
-26.861067 1042.5803 128.82324
-21.488834 1042.5803 128.82324
-16.116598 1042.5803 128.82324
-10.744469 1042.5803 128.82324
-5.324894 1052.9559 103.89551
0 1052.9559 103.89551
5.3247924 1052.9559 103.89551
10.744469 1042.5803 128.82324
15.97458 1052.9559 103.89551
21.299576 1052.9559 103.89551
26.624367 1052.9559 103.89551
31.94916 1052.9559 103.89551
37.274155 1052.9559 103.89551
42.598946 1052.9559 103.89551
47.923943 1052.9559 103.89551
53.248734 1052.9559 103.89551
59.094265 1042.5803 128.82324
64.466599 1042.5803 128.82324
69.838737 1042.5803 128.82324
75.211067 1042.5803 128.82324
80.583206 1042.5803 128.82324
85.955338 1042.5803 128.82324
91.327667 1042.5803 128.82324
97.583481 1031.8207 154.67432
103.00491 1031.8207 154.67432
108.42614 1031.8207 154.67432
113.84736 1031.8207 154.67432
119.26879 1031.8207 154.67432
124.69002 1031.8207 154.67432
130.11145 1031.8207 154.67432
135.53267 1031.8207 154.67432
140.9539 1031.8207 154.67432
146.37532 1031.8207 154.67432
151.79655 1031.8207 154.67432
157.21799 1031.8207 154.67432
162.63921 1031.8207 154.67432
168.06042 1031.8207 154.67432
173.48186 1031.8207 154.67432
178.90309 1031.8207 154.67432
185.9937 1021.061 180.5249
191.464 1021.061 180.5249
198.7648 1009.917 207.29932
204.28618 1009.917 207.29932
209.80733 1009.917 207.29932
215.3287 1009.917 207.29932
222.88374 998.77295 234.07324
228.45575 998.77295 234.07324
234.02797 998.77295 234.07324
241.86177 987.24475 261.77075
247.4866 987.24475 261.77075
253.11121 987.24475 261.77075
258.73581 987.24475 261.77075
264.36063 987.24475 261.77075
333.73639 913.84814 438.1106
333.1001 939.21033 377.17627
338.94382 939.21033 377.17627
344.78784 939.21033 377.17627
353.99802 926.91357 406.71997
359.89789 926.91357 406.71997
369.49402 913.84814 438.1106
375.45349 913.84814 438.1106
381.41324 913.84814 438.1106
387.37271 913.84814 438.1106
397.26669 900.78271 469.50073
403.28604 900.78271 469.50073
409.30511 900.78271 469.50073
415.32443 900.78271 469.50073
421.34354 900.78271 469.50073
427.36264 900.78271 469.50073
433.38199 900.78271 469.50073
439.40106 900.78271 469.50073
445.42041 900.78271 469.50073
-225.54877 1185.8168 -227.53882
-220.84991 1185.8168 -227.53882
-216.15096 1185.8168 -227.53882
-209.7951 1193.9204 -246.9126
-205.13297 1193.9204 -246.9126
-202.05411 1185.8168 -227.53882
-197.35524 1185.8168 -227.53882
-192.6563 1185.8168 -227.53882
-189.43015 1177.7131 -208.16504
-184.69438 1177.7131 -208.16504
-179.9586 1177.7131 -208.16504
-176.65013 1169.2235 -187.8689
-171.87578 1169.2235 -187.8689
-167.10144 1169.2235 -187.8689
-162.3271 1169.2235 -187.8689
-157.55273 1169.2235 -187.8689
-152.7785 1169.2235 -187.8689
-148.00415 1169.2235 -187.8689
-143.22981 1169.2235 -187.8689
-139.52324 1161.1198 -168.49487
-134.71207 1161.1198 -168.49487
-129.901 1161.1198 -168.49487
-125.08984 1161.1198 -168.49487
-121.28683 1152.2444 -147.27637
-116.43534 1152.2444 -147.27637
-111.58385 1152.2444 -147.27637
-106.73246 1152.2444 -147.27637
-101.88097 1152.2444 -147.27637
-109.408 1016.0255 178.38745
-103.93758 1016.0255 178.38745
-97.583481 1026.8303 152.55591
-92.162254 1026.8303 152.55591
-86.740929 1026.8303 152.55591
-81.319603 1026.8303 152.55591
-75.898277 1026.8303 152.55591
-71.115158 1016.0255 178.38745
-65.644844 1016.0255 178.38745
-59.634396 1026.8303 152.55591
-54.21307 1026.8303 152.55591
-48.79174 1026.8303 152.55591
-43.370415 1026.8303 152.55591
-37.949188 1026.8303 152.55591
-32.527863 1026.8303 152.55591
-26.861067 1037.6353 126.72437
-21.488834 1037.6353 126.72437
-16.116598 1037.6353 126.72437
-10.744469 1037.6353 126.72437
-5.324894 1048.0543 101.81494
0 1048.0543 101.81494
5.3247924 1048.0543 101.81494
10.744469 1037.6353 126.72437
16.116598 1037.6353 126.72437
21.488937 1037.6353 126.72437
26.624367 1048.0543 101.81494
31.94916 1048.0543 101.81494
37.274155 1048.0543 101.81494
42.598946 1048.0543 101.81494
47.923943 1048.0543 101.81494
53.248734 1048.0543 101.81494
59.094265 1037.6353 126.72437
65.055725 1026.8303 152.55591
69.838737 1037.6353 126.72437
75.211067 1037.6353 126.72437
80.583206 1037.6353 126.72437
85.955338 1037.6353 126.72437
91.327667 1037.6353 126.72437
97.583481 1026.8303 152.55591
103.00491 1026.8303 152.55591
108.42614 1026.8303 152.55591
113.84736 1026.8303 152.55591
119.26879 1026.8303 152.55591
124.69002 1026.8303 152.55591
130.11145 1026.8303 152.55591
135.53267 1026.8303 152.55591
140.9539 1026.8303 152.55591
146.37532 1026.8303 152.55591
151.79655 1026.8303 152.55591
157.21799 1026.8303 152.55591
162.63921 1026.8303 152.55591
168.06042 1026.8303 152.55591
173.48186 1026.8303 152.55591
178.90309 1026.8303 152.55591
185.9937 1016.0255 178.38745
191.464 1016.0255 178.38745
198.7648 1004.8346 205.14185
204.28618 1004.8346 205.14185
209.80733 1004.8346 205.14185
215.3287 1004.8346 205.14185
222.88374 993.64392 231.896
228.45575 993.64392 231.896
234.02797 993.64392 231.896
241.86177 982.06726 259.573
247.4866 982.06726 259.573
253.11121 982.06726 259.573
258.73581 982.06726 259.573
264.36063 982.06726 259.573
333.1001 933.83105 374.89282
338.94382 933.83105 374.89282
344.78784 933.83105 374.89282
353.99802 921.48267 404.41479
359.89789 921.48267 404.41479
369.49402 908.3623 435.78198
375.45349 908.3623 435.78198
381.41324 908.3623 435.78198
387.37271 908.3623 435.78198
397.26669 895.24207 467.14893
403.28604 895.24207 467.14893
409.30511 895.24207 467.14893
415.32443 895.24207 467.14893
421.34354 895.24207 467.14893
427.36264 895.24207 467.14893
433.38199 895.24207 467.14893
439.40106 895.24207 467.14893
445.42041 895.24207 467.14893
-225.54877 1181.4913 -229.37476
-220.84991 1181.4913 -229.37476
-214.45724 1189.6289 -248.73413
-209.7951 1189.6289 -248.73413
-205.13297 1189.6289 -248.73413
-202.05411 1181.4913 -229.37476
-197.35524 1181.4913 -229.37476
-192.6563 1181.4913 -229.37476
-187.95734 1181.4913 -229.37476
-184.69438 1173.3538 -210.01538
-179.9586 1173.3538 -210.01538
-176.65013 1164.8287 -189.73438
-171.87578 1164.8287 -189.73438
-167.10144 1164.8287 -189.73438
-162.3271 1164.8287 -189.73438
-157.55273 1164.8287 -189.73438
-152.7785 1164.8287 -189.73438
-148.00415 1164.8287 -189.73438
-144.33441 1156.691 -170.37476
-139.52324 1156.691 -170.37476
-134.71207 1156.691 -170.37476
-129.901 1156.691 -170.37476
-125.08984 1156.691 -170.37476
-121.28683 1147.7786 -149.17188
-115.46751 1156.691 -170.37476
-110.65634 1156.691 -170.37476
-105.84527 1156.691 -170.37476
-109.408 1010.99 176.25
-103.93758 1010.99 176.25
-97.583481 1021.8401 150.43774
-92.162254 1021.8401 150.43774
-86.740929 1021.8401 150.43774
-81.319603 1021.8401 150.43774
-76.585587 1010.99 176.25
-71.115158 1010.99 176.25
-65.644844 1010.99 176.25
-60.174423 1010.99 176.25
-54.704002 1010.99 176.25
-49.233582 1010.99 176.25
-43.370415 1021.8401 150.43774
-37.949188 1021.8401 150.43774
-32.527863 1021.8401 150.43774
-27.106535 1021.8401 150.43774
-21.488834 1032.6901 124.62524
-16.116598 1032.6901 124.62524
-10.744469 1032.6901 124.62524
-5.324894 1043.1527 99.734375
0 1043.1527 99.734375
5.3247924 1043.1527 99.734375
10.744469 1032.6901 124.62524
16.116598 1032.6901 124.62524
21.488937 1032.6901 124.62524
26.624367 1043.1527 99.734375
31.94916 1043.1527 99.734375
37.605534 1032.6901 124.62524
42.977669 1032.6901 124.62524
48.350006 1032.6901 124.62524
53.722134 1032.6901 124.62524
59.094265 1032.6901 124.62524
65.055725 1021.8401 150.43774
70.476952 1021.8401 150.43774
75.898376 1021.8401 150.43774
80.583206 1032.6901 124.62524
85.955338 1032.6901 124.62524
92.162254 1021.8401 150.43774
97.583481 1021.8401 150.43774
103.00491 1021.8401 150.43774
108.42614 1021.8401 150.43774
113.84736 1021.8401 150.43774
119.26879 1021.8401 150.43774
124.69002 1021.8401 150.43774
130.11145 1021.8401 150.43774
135.53267 1021.8401 150.43774
140.9539 1021.8401 150.43774
146.37532 1021.8401 150.43774
151.79655 1021.8401 150.43774
157.21799 1021.8401 150.43774
162.63921 1021.8401 150.43774
168.06042 1021.8401 150.43774
173.48186 1021.8401 150.43774
178.90309 1021.8401 150.43774
185.9937 1010.99 176.25
191.464 1010.99 176.25
198.7648 999.75232 202.98462
204.28618 999.75232 202.98462
209.80733 999.75232 202.98462
215.3287 999.75232 202.98462
222.88374 988.51477 229.71899
228.45575 988.51477 229.71899
234.02797 988.51477 229.71899
241.86177 976.88965 257.37524
247.4866 976.88965 257.37524
253.11121 976.88965 257.37524
258.73581 976.88965 257.37524
264.36063 976.88965 257.37524
353.99802 916.05176 402.10938
359.89789 916.05176 402.10938
369.49402 902.87659 433.45337
375.45349 902.87659 433.45337
381.41324 902.87659 433.45337
387.37271 902.87659 433.45337
397.26669 889.70142 464.79712
403.28604 889.70142 464.79712
409.30511 889.70142 464.79712
415.32443 889.70142 464.79712
421.34354 889.70142 464.79712
427.36264 889.70142 464.79712
433.38199 889.70142 464.79712
439.40106 889.70142 464.79712
445.42041 889.70142 464.79712
-225.54877 1177.166 -231.21094
-219.11937 1185.3374 -250.55591
-214.45724 1185.3374 -250.55591
-209.7951 1185.3374 -250.55591
-205.13297 1185.3374 -250.55591
-200.47086 1185.3374 -250.55591
-195.80879 1185.3374 -250.55591
-192.6563 1177.166 -231.21094
-187.95734 1177.166 -231.21094
-183.25839 1177.166 -231.21094
-178.55943 1177.166 -231.21094
-176.65013 1160.434 -191.59985
-171.87578 1160.434 -191.59985
-167.10144 1160.434 -191.59985
-162.3271 1160.434 -191.59985
-157.55273 1160.434 -191.59985
-152.7785 1160.434 -191.59985
-149.14557 1152.2625 -172.25464
-144.33441 1152.2625 -172.25464
-139.52324 1152.2625 -172.25464
-134.71207 1152.2625 -172.25464
-129.901 1152.2625 -172.25464
-125.08984 1152.2625 -172.25464
-121.28683 1143.3127 -151.06763
-115.46751 1152.2625 -172.25464
-110.65634 1152.2625 -172.25464
-109.408 1005.9545 174.11255
-103.93758 1005.9545 174.11255
-98.467163 1005.9545 174.11255
-92.162254 1016.8497 148.31934
-86.740929 1016.8497 148.31934
-81.319603 1016.8497 148.31934
-76.585587 1005.9545 174.11255
-71.115158 1005.9545 174.11255
-65.644844 1005.9545 174.11255
-60.174423 1005.9545 174.11255
-54.704002 1005.9545 174.11255
-49.233582 1005.9545 174.11255
-43.763157 1005.9545 174.11255
-37.949188 1016.8497 148.31934
-32.527863 1016.8497 148.31934
-27.106535 1016.8497 148.31934
-21.488834 1027.745 122.52612
-16.116598 1027.745 122.52612
-10.744469 1027.745 122.52612
-5.324894 1038.2512 97.653809
0 1038.2512 97.653809
5.3247924 1038.2512 97.653809
10.744469 1027.745 122.52612
16.116598 1027.745 122.52612
21.488937 1027.745 122.52612
26.861067 1027.745 122.52612
32.233196 1027.745 122.52612
37.605534 1027.745 122.52612
42.977669 1027.745 122.52612
48.350006 1027.745 122.52612
53.722134 1027.745 122.52612
59.094265 1027.745 122.52612
65.055725 1016.8497 148.31934
69.838737 1027.745 122.52612
75.211067 1027.745 122.52612
81.319603 1016.8497 148.31934
86.740829 1016.8497 148.31934
92.162254 1016.8497 148.31934
97.583481 1016.8497 148.31934
103.00491 1016.8497 148.31934
108.42614 1016.8497 148.31934
113.84736 1016.8497 148.31934
119.26879 1016.8497 148.31934
124.69002 1016.8497 148.31934
130.11145 1016.8497 148.31934
135.53267 1016.8497 148.31934
140.9539 1016.8497 148.31934
146.37532 1016.8497 148.31934
151.79655 1016.8497 148.31934
157.21799 1016.8497 148.31934
162.63921 1016.8497 148.31934
168.06042 1016.8497 148.31934
173.48186 1016.8497 148.31934
178.90309 1016.8497 148.31934
185.9937 1005.9545 174.11255
191.464 1005.9545 174.11255
198.7648 994.66992 200.82715
204.28618 994.66992 200.82715
209.80733 994.66992 200.82715
215.3287 994.66992 200.82715
222.88374 983.38562 227.54175
228.45575 983.38562 227.54175
236.23717 971.71216 255.17749
241.86177 971.71216 255.17749
247.4866 971.71216 255.17749
253.11121 971.71216 255.17749
258.73581 971.71216 255.17749
264.36063 971.71216 255.17749
353.99802 910.62073 399.8042
359.89789 910.62073 399.8042
365.79797 910.62073 399.8042
375.45349 897.39075 431.12476
381.41324 897.39075 431.12476
387.37271 897.39075 431.12476
397.26669 884.16064 462.44507
403.28604 884.16064 462.44507
409.30511 884.16064 462.44507
415.32443 884.16064 462.44507
421.34354 884.16064 462.44507
431.7197 870.54163 494.68677
437.80038 870.54163 494.68677
443.88083 870.54163 494.68677
449.96155 870.54163 494.68677
456.04202 870.54163 494.68677
-225.54877 1172.8406 -233.04688
-219.11937 1181.0459 -252.37744
-214.45724 1181.0459 -252.37744
-209.7951 1181.0459 -252.37744
-205.13297 1181.0459 -252.37744
-200.47086 1181.0459 -252.37744
-195.80879 1181.0459 -252.37744
-191.14668 1181.0459 -252.37744
-187.95734 1172.8406 -233.04688
-183.25839 1172.8406 -233.04688
-178.55943 1172.8406 -233.04688
-173.86058 1172.8406 -233.04688
-170.48714 1164.6353 -213.71631
-167.10144 1156.0392 -193.46533
-162.3271 1156.0392 -193.46533
-157.55273 1156.0392 -193.46533
-152.7785 1156.0392 -193.46533
-149.14557 1147.8337 -174.13452
-144.33441 1147.8337 -174.13452
-139.52324 1147.8337 -174.13452
-134.71207 1147.8337 -174.13452
-129.901 1147.8337 -174.13452
-125.08984 1147.8337 -174.13452
-121.28683 1138.8469 -152.96313
-103.93758 1000.9189 171.9751
-98.467163 1000.9189 171.9751
-92.996849 1000.9189 171.9751
-87.526421 1000.9189 171.9751
-82.056 1000.9189 171.9751
-77.297432 989.58765 198.66992
-71.115158 1000.9189 171.9751
-65.644844 1000.9189 171.9751
-60.174423 1000.9189 171.9751
-54.704002 1000.9189 171.9751
-49.233582 1000.9189 171.9751
-43.763157 1000.9189 171.9751
-37.949188 1011.8594 146.20117
-32.527863 1011.8594 146.20117
-27.106535 1011.8594 146.20117
-21.488834 1022.7998 120.427
-16.116598 1022.7998 120.427
