ply
format ascii 1.0
comment PCL generated
element vertex 1571
property float x
property float y
property float z
element camera 0
property float view_px
property float view_py
property float view_pz
property float x_axisx
property float x_axisy
property float x_axisz
property float y_axisx
property float y_axisy
property float y_axisz
property float z_axisx
property float z_axisy
property float z_axisz
property float focal
property float scalex
property float scaley
property float centerx
property float centery
property int viewportx
property int viewporty
property float k1
property float k2
end_header
-138.45546 980.24756 -268.08447
-133.68112 980.24756 -268.08447
-128.90686 980.24756 -268.08447
-124.13252 980.24756 -268.08447
-118.39384 990.26392 -287.73242
-113.65807 990.26392 -287.73242
-108.92229 990.26392 -287.73242
-104.18661 990.26392 -287.73242
-99.450844 990.26392 -287.73242
-94.715073 990.26392 -287.73242
-89.979301 990.26392 -287.73242
-85.937851 980.24756 -268.08447
-96.514038 745.77368 191.86304
-90.836716 745.77368 191.86304
-85.159401 745.77368 191.86304
-79.482086 745.77368 191.86304
-73.804771 745.77368 191.86304
-68.127563 745.77368 191.86304
-62.450253 745.77368 191.86304
-56.772934 745.77368 191.86304
-51.095619 745.77368 191.86304
-45.418304 745.77368 191.86304
-39.7411 745.77368 191.86304
-34.063782 745.77368 191.86304
-28.123468 759.43225 165.07007
-22.498753 759.43225 165.07007
-16.874039 759.43225 165.07007
-11.24943 759.43225 165.07007
-5.6247149 759.43225 165.07007
0 759.43225 165.07007
5.6246076 759.43225 165.07007
11.24943 759.43225 165.07007
16.874039 759.43225 165.07007
22.498859 759.43225 165.07007
28.123468 759.43225 165.07007
33.748077 759.43225 165.07007
39.372898 759.43225 165.07007
45.418304 745.77368 191.86304
51.095726 745.77368 191.86304
56.772934 745.77368 191.86304
62.450146 745.77368 191.86304
68.779808 731.65967 219.54907
75.217957 717.54565 247.23535
81.004089 717.54565 247.23535
86.790001 717.54565 247.23535
92.57592 717.54565 247.23535
98.362045 717.54565 247.23535
104.14796 717.54565 247.23535
109.93409 717.54565 247.23535
115.72 717.54565 247.23535
122.72098 702.52112 276.70752
128.56497 702.52112 276.70752
134.40874 702.52112 276.70752
141.5993 687.9519 305.28687
147.49918 687.9519 305.28687
154.94899 672.47205 335.65234
-172.56308 935.18823 -190.52466
-166.26157 945.69702 -211.05029
-158.76782 966.25769 -251.20898
-153.95673 966.25769 -251.20898
-148.00415 975.85278 -269.94995
-143.22981 975.85278 -269.94995
-138.45546 975.85278 -269.94995
-133.68112 975.85278 -269.94995
-128.90686 975.85278 -269.94995
-124.13252 975.85278 -269.94995
-119.35817 975.85278 -269.94995
-114.58382 975.85278 -269.94995
-109.80948 975.85278 -269.94995
-105.03522 975.85278 -269.94995
-100.26089 975.85278 -269.94995
-94.715073 985.90454 -289.58301
-89.979301 985.90454 -289.58301
-85.243523 985.90454 -289.58301
-80.507851 985.90454 -289.58301
-90.836716 740.54761 189.64453
-85.159401 740.54761 189.64453
-79.482086 740.54761 189.64453
-73.804771 740.54761 189.64453
-68.127563 740.54761 189.64453
-62.450253 740.54761 189.64453
-56.772934 740.54761 189.64453
-51.095619 740.54761 189.64453
-45.418304 740.54761 189.64453
-39.7411 740.54761 189.64453
-34.063782 740.54761 189.64453
-28.123468 754.25464 162.87231
-22.498753 754.25464 162.87231
-16.874039 754.25464 162.87231
-11.24943 754.25464 162.87231
-5.6247149 754.25464 162.87231
0 754.25464 162.87231
5.6246076 754.25464 162.87231
11.24943 754.25464 162.87231
17.031837 740.54761 189.64453
22.709261 740.54761 189.64453
28.386467 740.54761 189.64453
34.063675 740.54761 189.64453
39.7411 740.54761 189.64453
45.85313 726.38354 217.30957
51.584908 726.38354 217.30957
57.316467 726.38354 217.30957
63.048027 726.38354 217.30957
69.432045 712.2196 244.97437
75.217957 712.2196 244.97437
81.004089 712.2196 244.97437
86.790001 712.2196 244.97437
92.57592 712.2196 244.97437
98.362045 712.2196 244.97437
104.14796 712.2196 244.97437
109.93409 712.2196 244.97437
116.8772 697.14172 274.42432
122.72098 697.14172 274.42432
128.56497 697.14172 274.42432
134.40874 697.14172 274.42432
141.5993 682.52087 302.98145
147.49918 682.52087 302.98145
154.94899 666.98621 333.32373
-157.55273 971.45801 -271.81543
-152.7785 971.45801 -271.81543
-148.00415 971.45801 -271.81543
-143.22981 971.45801 -271.81543
-138.45546 971.45801 -271.81543
-133.68112 971.45801 -271.81543
-128.90686 971.45801 -271.81543
-124.13252 971.45801 -271.81543
-119.35817 971.45801 -271.81543
-114.58382 971.45801 -271.81543
-109.80948 971.45801 -271.81543
-104.18661 981.54541 -291.43335
-99.450844 981.54541 -291.43335
-94.715073 981.54541 -291.43335
-89.979301 981.54541 -291.43335
-85.243523 981.54541 -291.43335
-80.507851 981.54541 -291.43335
-90.836716 735.32166 187.42627
-85.159401 735.32166 187.42627
-79.482086 735.32166 187.42627
-73.804771 735.32166 187.42627
-68.127563 735.32166 187.42627
-62.450253 735.32166 187.42627
-56.772934 735.32166 187.42627
-51.095619 735.32166 187.42627
-45.85313 721.10767 215.07007
-40.121571 721.10767 215.07007
-34.389904 721.10767 215.07007
-28.386467 735.32166 187.42627
-22.709152 735.32166 187.42627
-17.031837 735.32166 187.42627
-11.35463 735.32166 187.42627
-5.6247149 749.07715 160.67456
0 749.07715 160.67456
5.6772065 735.32166 187.42627
11.35463 735.32166 187.42627
17.031837 735.32166 187.42627
22.709261 735.32166 187.42627
28.386467 735.32166 187.42627
34.063675 735.32166 187.42627
39.7411 735.32166 187.42627
45.85313 721.10767 215.07007
52.074093 706.89368 242.71362
57.860001 706.89368 242.71362
63.645912 706.89368 242.71362
69.432045 706.89368 242.71362
75.217957 706.89368 242.71362
81.004089 706.89368 242.71362
86.790001 706.89368 242.71362
92.57592 706.89368 242.71362
98.362045 706.89368 242.71362
104.14796 706.89368 242.71362
111.03343 691.76245 272.14087
116.8772 691.76245 272.14087
122.72098 691.76245 272.14087
128.56497 691.76245 272.14087
134.40874 691.76245 272.14087
141.5993 677.09009 300.67627
147.49918 677.09009 300.67627
154.94899 661.50049 330.99536
-157.55273 967.06323 -273.68091
-152.7785 967.06323 -273.68091
-148.00415 967.06323 -273.68091
-143.22981 967.06323 -273.68091
-138.45546 967.06323 -273.68091
-133.68112 967.06323 -273.68091
-128.90686 967.06323 -273.68091
-124.13252 967.06323 -273.68091
-119.35817 967.06323 -273.68091
-114.58382 967.06323 -273.68091
-109.80948 967.06323 -273.68091
-104.18661 977.18604 -293.28369
-99.450844 977.18604 -293.28369
-94.715073 977.18604 -293.28369
-89.979301 977.18604 -293.28369
-85.243523 977.18604 -293.28369
-80.507851 977.18604 -293.28369
-89.995117 743.89954 158.47681
-85.159401 730.0957 185.20801
-79.482086 730.0957 185.20801
-73.804771 730.0957 185.20801
-68.127563 730.0957 185.20801
-62.450253 730.0957 185.20801
-56.772934 730.0957 185.20801
-51.095619 730.0957 185.20801
-45.85313 715.83154 212.83057
-40.121571 715.83154 212.83057
-34.389904 715.83154 212.83057
-28.386467 730.0957 185.20801
-22.709152 730.0957 185.20801
-17.031837 730.0957 185.20801
-11.35463 730.0957 185.20801
-5.6773152 730.0957 185.20801
0 730.0957 185.20801
5.6772065 730.0957 185.20801
11.35463 730.0957 185.20801
17.031837 730.0957 185.20801
22.709261 730.0957 185.20801
28.658234 715.83154 212.83057
34.389793 715.83154 212.83057
40.121571 715.83154 212.83057
45.85313 715.83154 212.83057
52.074093 701.5675 240.45288
57.860001 701.5675 240.45288
63.048027 715.83154 212.83057
68.779808 715.83154 212.83057
75.217957 701.5675 240.45288
81.004089 701.5675 240.45288
86.790001 701.5675 240.45288
92.57592 701.5675 240.45288
98.362045 701.5675 240.45288
104.14796 701.5675 240.45288
111.03343 686.38318 269.85742
116.8772 686.38318 269.85742
122.72098 686.38318 269.85742
128.56497 686.38318 269.85742
134.40874 686.38318 269.85742
141.5993 671.65906 298.37085
147.49918 671.65906 298.37085
154.94899 656.01453 328.6665
-152.7785 962.66846 -275.54639
-148.00415 962.66846 -275.54639
-143.22981 962.66846 -275.54639
-138.45546 962.66846 -275.54639
-133.68112 962.66846 -275.54639
-128.90686 962.66846 -275.54639
-124.13252 962.66846 -275.54639
-119.35817 962.66846 -275.54639
-114.58382 962.66846 -275.54639
-109.80948 962.66846 -275.54639
-105.03522 962.66846 -275.54639
-100.26089 962.66846 -275.54639
-94.715073 972.82678 -295.13428
-89.979301 972.82678 -295.13428
-102.19124 724.86975 182.98975
-95.619835 738.72205 156.27905
-89.995117 738.72205 156.27905
-85.159401 724.86975 182.98975
-79.482086 724.86975 182.98975
-73.804771 724.86975 182.98975
-68.127563 724.86975 182.98975
-62.450253 724.86975 182.98975
-56.772934 724.86975 182.98975
-51.095619 724.86975 182.98975
-45.85313 710.55566 210.59106
-40.121571 710.55566 210.59106
-34.389904 710.55566 210.59106
-28.386467 724.86975 182.98975
-22.709152 724.86975 182.98975
-17.031837 724.86975 182.98975
-11.35463 724.86975 182.98975
-5.6773152 724.86975 182.98975
0 724.86975 182.98975
5.6772065 724.86975 182.98975
11.35463 724.86975 182.98975
17.031837 724.86975 182.98975
22.926674 710.55566 210.59106
28.658234 710.55566 210.59106
34.389793 710.55566 210.59106
40.121571 710.55566 210.59106
45.85313 710.55566 210.59106
51.584908 710.55566 210.59106
57.316467 710.55566 210.59106
63.048027 710.55566 210.59106
68.779808 710.55566 210.59106
75.217957 696.24158 238.19214
81.004089 696.24158 238.19214
86.790001 696.24158 238.19214
92.57592 696.24158 238.19214
98.362045 696.24158 238.19214
104.14796 696.24158 238.19214
111.03343 681.00391 267.57422
116.8772 681.00391 267.57422
122.72098 681.00391 267.57422
128.56497 681.00391 267.57422
134.40874 681.00391 267.57422
141.5993 666.22815 296.06567
147.49918 666.22815 296.06567
153.39905 666.22815 296.06567
160.90871 650.52881 326.33813
-148.00415 958.27356 -277.41187
-143.22981 958.27356 -277.41187
-138.45546 958.27356 -277.41187
-133.68112 958.27356 -277.41187
-128.90686 958.27356 -277.41187
-124.13252 958.27356 -277.41187
-119.35817 958.27356 -277.41187
-114.58382 958.27356 -277.41187
-109.80948 958.27356 -277.41187
-105.03522 958.27356 -277.41187
-100.26089 958.27356 -277.41187
-94.715073 968.46753 -296.98462
-89.979301 968.46753 -296.98462
-101.24444 733.54443 154.0813
-95.619835 733.54443 154.0813
-89.995117 733.54443 154.0813
-84.370399 733.54443 154.0813
-79.482086 719.64368 180.77148
-73.804771 719.64368 180.77148
-68.127563 719.64368 180.77148
-62.450253 719.64368 180.77148
-56.772934 719.64368 180.77148
-51.095619 719.64368 180.77148
-45.85313 705.27954 208.35132
-40.121571 705.27954 208.35132
-34.389904 705.27954 208.35132
-28.386467 719.64368 180.77148
-22.709152 719.64368 180.77148
-17.031837 719.64368 180.77148
-11.35463 719.64368 180.77148
-5.6773152 719.64368 180.77148
0 719.64368 180.77148
5.6772065 719.64368 180.77148
11.35463 719.64368 180.77148
17.031837 719.64368 180.77148
22.926674 705.27954 208.35132
28.658234 705.27954 208.35132
34.389793 705.27954 208.35132
40.121571 705.27954 208.35132
45.85313 705.27954 208.35132
51.584908 705.27954 208.35132
57.316467 705.27954 208.35132
63.048027 705.27954 208.35132
69.432045 690.91541 235.9314
75.217957 690.91541 235.9314
81.004089 690.91541 235.9314
86.790001 690.91541 235.9314
92.57592 690.91541 235.9314
98.362045 690.91541 235.9314
104.14796 690.91541 235.9314
111.03343 675.62451 265.29077
116.8772 675.62451 265.29077
122.72098 675.62451 265.29077
128.56497 675.62451 265.29077
134.40874 675.62451 265.29077
141.5993 660.79712 293.76025
147.49918 660.79712 293.76025
153.39905 660.79712 293.76025
160.90871 645.04297 324.00952
-148.00415 953.87878 -279.27734
-143.22981 953.87878 -279.27734
-138.45546 953.87878 -279.27734
-133.68112 953.87878 -279.27734
-128.90686 953.87878 -279.27734
-124.13252 953.87878 -279.27734
-119.35817 953.87878 -279.27734
-114.58382 953.87878 -279.27734
-109.80948 953.87878 -279.27734
-104.18661 964.10815 -298.83496
-99.450844 964.10815 -298.83496
-94.715073 964.10815 -298.83496
-89.979301 964.10815 -298.83496
-101.24444 728.36682 151.88354
-95.619835 728.36682 151.88354
-89.995117 728.36682 151.88354
-84.370399 728.36682 151.88354
-79.482086 714.41772 178.55322
-73.804771 714.41772 178.55322
-68.127563 714.41772 178.55322
-62.450253 714.41772 178.55322
-56.772934 714.41772 178.55322
-51.095619 714.41772 178.55322
-45.85313 700.00342 206.11182
-40.121571 700.00342 206.11182
-34.389904 700.00342 206.11182
-28.386467 714.41772 178.55322
-22.709152 714.41772 178.55322
-17.031837 714.41772 178.55322
-11.35463 714.41772 178.55322
-5.6773152 714.41772 178.55322
0 714.41772 178.55322
5.6772065 714.41772 178.55322
11.35463 714.41772 178.55322
17.031837 714.41772 178.55322
22.926674 700.00342 206.11182
28.658234 700.00342 206.11182
34.389793 700.00342 206.11182
40.121571 700.00342 206.11182
45.85313 700.00342 206.11182
51.584908 700.00342 206.11182
57.860001 685.58936 233.67065
63.645912 685.58936 233.67065
69.432045 685.58936 233.67065
75.217957 685.58936 233.67065
81.004089 685.58936 233.67065
86.790001 685.58936 233.67065
92.57592 685.58936 233.67065
98.362045 685.58936 233.67065
105.18944 670.24512 263.00732
111.03343 670.24512 263.00732
116.8772 670.24512 263.00732
122.72098 670.24512 263.00732
129.79932 655.36621 291.45483
135.69919 655.36621 291.45483
141.5993 655.36621 291.45483
147.49918 655.36621 291.45483
153.39905 655.36621 291.45483
159.29916 655.36621 291.45483
-142.0726 959.7489 -300.6853
-137.33684 959.7489 -300.6853
-133.68112 949.48401 -281.14282
-128.90686 949.48401 -281.14282
-124.13252 949.48401 -281.14282
-119.35817 949.48401 -281.14282
-114.58382 949.48401 -281.14282
-108.92229 959.7489 -300.6853
-104.18661 959.7489 -300.6853
-99.450844 959.7489 -300.6853
-95.486534 949.48401 -281.14282
-106.86916 723.18933 149.68579
-101.24444 723.18933 149.68579
-95.619835 723.18933 149.68579
-89.995117 723.18933 149.68579
-85.159401 709.19177 176.33496
-79.482086 709.19177 176.33496
-73.804771 709.19177 176.33496
-68.127563 709.19177 176.33496
-62.450253 709.19177 176.33496
-56.772934 709.19177 176.33496
-51.095619 709.19177 176.33496
-45.85313 694.72754 203.87231
-40.121571 694.72754 203.87231
-34.389904 694.72754 203.87231
-28.386467 709.19177 176.33496
-22.709152 709.19177 176.33496
-17.031837 709.19177 176.33496
-11.35463 709.19177 176.33496
-5.6773152 709.19177 176.33496
0 709.19177 176.33496
5.6772065 709.19177 176.33496
11.35463 709.19177 176.33496
17.031837 709.19177 176.33496
22.926674 694.72754 203.87231
28.658234 694.72754 203.87231
34.389793 694.72754 203.87231
40.121571 694.72754 203.87231
45.85313 694.72754 203.87231
51.584908 694.72754 203.87231
57.860001 680.26331 231.40991
63.645912 680.26331 231.40991
69.432045 680.26331 231.40991
75.217957 680.26331 231.40991
81.004089 680.26331 231.40991
87.657906 664.86597 260.72388
93.501671 664.86597 260.72388
99.345665 664.86597 260.72388
105.18944 664.86597 260.72388
111.03343 664.86597 260.72388
116.8772 664.86597 260.72388
123.89921 649.9353 289.14966
128.56497 664.86597 260.72388
134.40874 664.86597 260.72388
141.5993 649.9353 289.14966
147.49918 649.9353 289.14966
153.39905 649.9353 289.14966
159.29916 649.9353 289.14966
-142.0726 955.38953 -302.53589
-136.26906 965.2218 -321.17578
-131.5701 965.2218 -321.17578
-127.86538 955.38953 -302.53589
-123.12961 955.38953 -302.53589
-119.35817 945.08911 -283.0083
-114.58382 945.08911 -283.0083
-108.92229 955.38953 -302.53589
-104.18661 955.38953 -302.53589
-119.22319 703.9657 174.11646
-113.54587 703.9657 174.11646
-106.86916 718.01172 147.48804
-101.24444 718.01172 147.48804
-95.619835 718.01172 147.48804
-90.836716 703.9657 174.11646
-85.159401 703.9657 174.11646
-79.482086 703.9657 174.11646
-73.804771 703.9657 174.11646
-68.127563 703.9657 174.11646
-62.450253 703.9657 174.11646
-56.772934 703.9657 174.11646
-51.095619 703.9657 174.11646
-45.418304 703.9657 174.11646
-39.7411 703.9657 174.11646
-34.389904 689.45142 201.63281
-28.386467 703.9657 174.11646
-22.709152 703.9657 174.11646
-17.031837 703.9657 174.11646
-11.35463 703.9657 174.11646
-5.6773152 703.9657 174.11646
0 689.45142 201.63281
5.7315598 689.45142 201.63281
11.463337 689.45142 201.63281
17.194897 689.45142 201.63281
22.926674 689.45142 201.63281
28.658234 689.45142 201.63281
34.389793 689.45142 201.63281
40.121571 689.45142 201.63281
45.85313 689.45142 201.63281
51.584908 689.45142 201.63281
57.860001 674.93726 229.14893
63.645912 674.93726 229.14893
69.432045 674.93726 229.14893
75.217957 674.93726 229.14893
81.004089 674.93726 229.14893
87.657906 659.48657 258.44067
93.501671 659.48657 258.44067
99.345665 659.48657 258.44067
105.18944 659.48657 258.44067
111.03343 659.48657 258.44067
116.8772 659.48657 258.44067
123.89921 644.50427 286.84424
128.56497 659.48657 258.44067
134.40874 659.48657 258.44067
141.5993 644.50427 286.84424
147.49918 644.50427 286.84424
153.39905 644.50427 286.84424
159.29916 644.50427 286.84424
-142.0726 951.0304 -304.38623
-136.26906 960.89648 -323.01172
-131.5701 960.89648 -323.01172
-127.86538 951.0304 -304.38623
-123.12961 951.0304 -304.38623
-119.35817 940.69446 -284.87378
-114.58382 940.69446 -284.87378
-131.82784 684.17554 199.39331
-124.90051 698.73975 171.89819
-119.22319 698.73975 171.89819
-113.54587 698.73975 171.89819
-107.86855 698.73975 171.89819
-101.24444 712.83423 145.29028
-95.619835 712.83423 145.29028
-90.836716 698.73975 171.89819
-85.159401 698.73975 171.89819
-79.482086 698.73975 171.89819
-73.804771 698.73975 171.89819
-68.127563 698.73975 171.89819
-62.450253 698.73975 171.89819
-56.772934 698.73975 171.89819
-51.095619 698.73975 171.89819
-45.418304 698.73975 171.89819
-39.7411 698.73975 171.89819
-34.063782 698.73975 171.89819
-28.386467 698.73975 171.89819
-22.709152 698.73975 171.89819
-17.031837 698.73975 171.89819
-11.35463 698.73975 171.89819
-5.6773152 698.73975 171.89819
0 684.17554 199.39331
5.7315598 684.17554 199.39331
11.463337 684.17554 199.39331
17.194897 684.17554 199.39331
22.926674 684.17554 199.39331
28.658234 684.17554 199.39331
34.389793 684.17554 199.39331
40.121571 684.17554 199.39331
45.85313 684.17554 199.39331
51.584908 684.17554 199.39331
57.860001 669.61133 226.88818
63.645912 669.61133 226.88818
69.432045 669.61133 226.88818
75.217957 669.61133 226.88818
81.814133 654.10742 256.15723
87.657906 654.10742 256.15723
93.501671 654.10742 256.15723
99.345665 654.10742 256.15723
105.18944 654.10742 256.15723
111.03343 654.10742 256.15723
116.8772 654.10742 256.15723
123.89921 639.07336 284.53906
129.79932 639.07336 284.53906
135.69919 639.07336 284.53906
141.5993 639.07336 284.53906
147.49918 639.07336 284.53906
153.39905 639.07336 284.53906
159.29916 639.07336 284.53906
-142.0726 946.67102 -306.23657
-137.33684 946.67102 -306.23657
-158.96417 693.51379 169.67993
-153.28697 693.51379 169.67993
-147.60965 693.51379 169.67993
-141.93234 693.51379 169.67993
-136.25502 693.51379 169.67993
-130.57771 693.51379 169.67993
-124.90051 693.51379 169.67993
-119.22319 693.51379 169.67993
-113.54587 693.51379 169.67993
-107.86855 693.51379 169.67993
-101.24444 707.65662 143.09253
-95.619835 707.65662 143.09253
-90.836716 693.51379 169.67993
-85.159401 693.51379 169.67993
-79.482086 693.51379 169.67993
-73.804771 693.51379 169.67993
-68.127563 693.51379 169.67993
-62.450253 693.51379 169.67993
-56.772934 693.51379 169.67993
-51.095619 693.51379 169.67993
-45.418304 693.51379 169.67993
-39.7411 693.51379 169.67993
-34.063782 693.51379 169.67993
-28.123468 707.65662 143.09253
-22.498753 707.65662 143.09253
-17.031837 693.51379 169.67993
-11.35463 693.51379 169.67993
-5.6773152 693.51379 169.67993
0 678.89941 197.15381
5.7315598 678.89941 197.15381
11.463337 678.89941 197.15381
17.194897 678.89941 197.15381
22.926674 678.89941 197.15381
28.658234 678.89941 197.15381
34.389793 678.89941 197.15381
40.121571 678.89941 197.15381
45.85313 678.89941 197.15381
51.584908 678.89941 197.15381
57.860001 664.28516 224.62744
63.645912 664.28516 224.62744
69.432045 664.28516 224.62744
75.217957 664.28516 224.62744
81.814133 648.72803 253.87378
87.657906 648.72803 253.87378
93.501671 648.72803 253.87378
99.345665 648.72803 253.87378
105.18944 648.72803 253.87378
111.03343 648.72803 253.87378
116.8772 648.72803 253.87378
122.72098 648.72803 253.87378
129.79932 633.64233 282.23364
135.69919 633.64233 282.23364
141.5993 633.64233 282.23364
146.09651 648.72803 253.87378
151.94028 648.72803 253.87378
159.29916 633.64233 282.23364
-170.3188 688.28784 167.46167
-164.64149 688.28784 167.46167
-158.96417 688.28784 167.46167
-153.28697 688.28784 167.46167
-147.60965 688.28784 167.46167
-141.93234 688.28784 167.46167
-136.25502 688.28784 167.46167
-130.57771 688.28784 167.46167
-124.90051 688.28784 167.46167
-119.22319 688.28784 167.46167
-113.54587 688.28784 167.46167
-107.86855 688.28784 167.46167
-102.19124 688.28784 167.46167
-96.514038 688.28784 167.46167
-90.836716 688.28784 167.46167
-85.159401 688.28784 167.46167
-79.482086 688.28784 167.46167
-73.804771 688.28784 167.46167
-68.127563 688.28784 167.46167
-62.450253 688.28784 167.46167
-56.772934 688.28784 167.46167
-51.095619 688.28784 167.46167
-45.418304 688.28784 167.46167
-39.7411 688.28784 167.46167
-34.063782 688.28784 167.46167
-28.123468 702.47913 140.89478
-22.498753 702.47913 140.89478
-17.031837 688.28784 167.46167
-11.35463 688.28784 167.46167
-5.6773152 688.28784 167.46167
0 673.62354 194.91431
5.7315598 673.62354 194.91431
11.463337 673.62354 194.91431
17.194897 673.62354 194.91431
23.144089 658.95923 222.3667
28.93 658.95923 222.3667
34.389793 673.62354 194.91431
40.121571 673.62354 194.91431
45.85313 673.62354 194.91431
51.584908 673.62354 194.91431
57.860001 658.95923 222.3667
63.645912 658.95923 222.3667
69.432045 658.95923 222.3667
75.970139 643.34875 251.59058
81.814133 643.34875 251.59058
87.657906 643.34875 251.59058
93.501671 643.34875 251.59058
99.345665 643.34875 251.59058
105.18944 643.34875 251.59058
111.03343 643.34875 251.59058
116.8772 643.34875 251.59058
122.72098 643.34875 251.59058
129.79932 628.21143 279.92847
135.69919 628.21143 279.92847
141.5993 628.21143 279.92847
146.09651 643.34875 251.59058
151.94028 643.34875 251.59058
159.29916 628.21143 279.92847
-170.3188 683.06177 165.24341
-164.64149 683.06177 165.24341
-158.96417 683.06177 165.24341
-153.28697 683.06177 165.24341
-147.60965 683.06177 165.24341
-143.29117 668.34741 192.67456
-136.25502 683.06177 165.24341
-130.57771 683.06177 165.24341
-124.90051 683.06177 165.24341
-119.22319 683.06177 165.24341
-113.54587 683.06177 165.24341
-107.86855 683.06177 165.24341
-102.19124 683.06177 165.24341
-96.514038 683.06177 165.24341
-90.836716 683.06177 165.24341
-85.159401 683.06177 165.24341
-79.482086 683.06177 165.24341
-73.804771 683.06177 165.24341
-68.127563 683.06177 165.24341
-62.450253 683.06177 165.24341
-56.772934 683.06177 165.24341
-51.095619 683.06177 165.24341
-45.418304 683.06177 165.24341
-39.7411 683.06177 165.24341
-34.063782 683.06177 165.24341
-28.123468 697.30151 138.69702
-22.498753 697.30151 138.69702
-17.031837 683.06177 165.24341
-11.35463 683.06177 165.24341
-5.7316685 668.34741 192.67456
0 668.34741 192.67456
5.785912 653.63306 220.10596
11.572044 653.63306 220.10596
17.357956 653.63306 220.10596
23.144089 653.63306 220.10596
28.93 653.63306 220.10596
34.715912 653.63306 220.10596
40.502045 653.63306 220.10596
46.28796 653.63306 220.10596
52.074093 653.63306 220.10596
58.438602 637.96936 249.30713
64.282372 637.96936 249.30713
70.126366 637.96936 249.30713
75.970139 637.96936 249.30713
81.814133 637.96936 249.30713
87.657906 637.96936 249.30713
93.501671 637.96936 249.30713
99.345665 637.96936 249.30713
105.18944 637.96936 249.30713
111.03343 637.96936 249.30713
116.8772 637.96936 249.30713
122.72098 637.96936 249.30713
129.79932 622.78052 277.62305
135.69919 622.78052 277.62305
141.5993 622.78052 277.62305
147.49918 622.78052 277.62305
153.39905 622.78052 277.62305
159.29916 622.78052 277.62305
-177.68108 663.07153 190.43506
-171.9494 663.07153 190.43506
-166.21774 663.07153 190.43506
-158.96417 677.83594 163.02515
-153.28697 677.83594 163.02515
-147.60965 677.83594 163.02515
-141.93234 677.83594 163.02515
-136.25502 677.83594 163.02515
-130.57771 677.83594 163.02515
-124.90051 677.83594 163.02515
-119.22319 677.83594 163.02515
-113.54587 677.83594 163.02515
-107.86855 677.83594 163.02515
-102.19124 677.83594 163.02515
-96.514038 677.83594 163.02515
-90.836716 677.83594 163.02515
-85.159401 677.83594 163.02515
-79.482086 677.83594 163.02515
-73.804771 677.83594 163.02515
-68.127563 677.83594 163.02515
-62.450253 677.83594 163.02515
-56.772934 677.83594 163.02515
-51.095619 677.83594 163.02515
-45.418304 677.83594 163.02515
-39.7411 677.83594 163.02515
-34.063782 677.83594 163.02515
-28.386467 677.83594 163.02515
-22.709152 677.83594 163.02515
-17.031837 677.83594 163.02515
-11.35463 677.83594 163.02515
-5.7316685 663.07153 190.43506
0 663.07153 190.43506
5.785912 648.30713 217.84521
11.572044 648.30713 217.84521
17.357956 648.30713 217.84521
23.144089 648.30713 217.84521
28.93 648.30713 217.84521
34.715912 648.30713 217.84521
40.502045 648.30713 217.84521
46.28796 648.30713 217.84521
52.59483 632.59009 247.02368
58.438602 632.59009 247.02368
64.282372 632.59009 247.02368
70.126366 632.59009 247.02368
75.970139 632.59009 247.02368
81.814133 632.59009 247.02368
87.657906 632.59009 247.02368
93.501671 632.59009 247.02368
99.345665 632.59009 247.02368
105.18944 632.59009 247.02368
111.03343 632.59009 247.02368
116.8772 632.59009 247.02368
122.72098 632.59009 247.02368
129.79932 617.34961 275.31787
135.69919 617.34961 275.31787
141.5993 617.34961 275.31787
147.49918 617.34961 275.31787
153.39905 617.34961 275.31787
159.29916 617.34961 275.31787
-177.68108 657.79541 188.19556
-171.9494 657.79541 188.19556
-166.21774 657.79541 188.19556
-158.96417 672.60986 160.80688
-153.28697 672.60986 160.80688
-147.60965 672.60986 160.80688
-141.93234 672.60986 160.80688
-136.25502 672.60986 160.80688
-130.57771 672.60986 160.80688
-124.90051 672.60986 160.80688
-119.22319 672.60986 160.80688
-113.54587 672.60986 160.80688
-107.86855 672.60986 160.80688
-102.19124 672.60986 160.80688
-96.514038 672.60986 160.80688
-90.836716 672.60986 160.80688
-85.159401 672.60986 160.80688
-79.482086 672.60986 160.80688
-73.804771 672.60986 160.80688
-68.127563 672.60986 160.80688
-62.450253 672.60986 160.80688
-56.772934 672.60986 160.80688
-51.095619 672.60986 160.80688
-45.418304 672.60986 160.80688
-39.7411 672.60986 160.80688
-34.389904 657.79541 188.19556
-28.386467 672.60986 160.80688
-22.709152 672.60986 160.80688
-17.031837 672.60986 160.80688
-11.463337 657.79541 188.19556
-5.7316685 657.79541 188.19556
0 642.98096 215.58447
5.785912 642.98096 215.58447
11.572044 642.98096 215.58447
17.357956 642.98096 215.58447
23.144089 642.98096 215.58447
28.93 642.98096 215.58447
34.715912 642.98096 215.58447
40.502045 642.98096 215.58447
46.28796 642.98096 215.58447
52.59483 627.21082 244.74023
58.438602 627.21082 244.74023
64.282372 627.21082 244.74023
70.126366 627.21082 244.74023
75.970139 627.21082 244.74023
81.814133 627.21082 244.74023
87.657906 627.21082 244.74023
93.501671 627.21082 244.74023
99.345665 627.21082 244.74023
105.18944 627.21082 244.74023
111.03343 627.21082 244.74023
116.8772 627.21082 244.74023
122.72098 627.21082 244.74023
129.79932 611.91858 273.01245
135.69919 611.91858 273.01245
141.5993 611.91858 273.01245
147.49918 611.91858 273.01245
153.39905 611.91858 273.01245
160.90871 595.67041 303.052
-171.9494 652.51953 185.95605
-166.21774 652.51953 185.95605
-158.96417 667.38403 158.58838
-153.28697 667.38403 158.58838
-147.60965 667.38403 158.58838
-141.93234 667.38403 158.58838
-136.25502 667.38403 158.58838
-130.57771 667.38403 158.58838
-124.90051 667.38403 158.58838
-119.22319 667.38403 158.58838
-113.54587 667.38403 158.58838
-107.86855 667.38403 158.58838
-102.19124 667.38403 158.58838
-96.514038 667.38403 158.58838
-90.836716 667.38403 158.58838
-85.159401 667.38403 158.58838
-79.482086 667.38403 158.58838
-73.804771 667.38403 158.58838
-68.127563 667.38403 158.58838
-62.450253 667.38403 158.58838
-56.772934 667.38403 158.58838
-51.095619 667.38403 158.58838
-45.418304 667.38403 158.58838
-39.7411 667.38403 158.58838
-34.389904 652.51953 185.95605
-28.386467 667.38403 158.58838
-22.709152 667.38403 158.58838
-17.194897 652.51953 185.95605
-11.463337 652.51953 185.95605
-5.7860222 637.65503 213.32373
0 637.65503 213.32373
5.785912 637.65503 213.32373
11.572044 637.65503 213.32373
17.531536 621.83154 242.45703
23.37553 621.83154 242.45703
29.219301 621.83154 242.45703
35.063072 621.83154 242.45703
40.907066 621.83154 242.45703
46.750835 621.83154 242.45703
52.59483 621.83154 242.45703
58.438602 621.83154 242.45703
64.282372 621.83154 242.45703
70.126366 621.83154 242.45703
75.970139 621.83154 242.45703
81.814133 621.83154 242.45703
87.657906 621.83154 242.45703
93.501671 621.83154 242.45703
99.345665 621.83154 242.45703
105.18944 621.83154 242.45703
111.03343 621.83154 242.45703
116.8772 621.83154 242.45703
122.72098 621.83154 242.45703
129.79932 606.48779 270.70728
135.69919 606.48779 270.70728
141.5993 606.48779 270.70728
147.49918 606.48779 270.70728
153.39905 606.48779 270.70728
160.90871 590.18469 300.72363
-171.9494 647.24341 183.71655
-166.21774 647.24341 183.71655
-158.96417 662.15796 156.37012
-153.28697 662.15796 156.37012
-147.60965 662.15796 156.37012
-141.93234 662.15796 156.37012
-136.25502 662.15796 156.37012
-130.57771 662.15796 156.37012
-124.90051 662.15796 156.37012
-119.22319 662.15796 156.37012
-113.54587 662.15796 156.37012
-107.86855 662.15796 156.37012
-102.19124 662.15796 156.37012
-96.514038 662.15796 156.37012
-90.836716 662.15796 156.37012
-85.159401 662.15796 156.37012
-79.482086 662.15796 156.37012
-73.804771 662.15796 156.37012
-68.127563 662.15796 156.37012
-62.450253 662.15796 156.37012
-56.772934 662.15796 156.37012
-51.095619 662.15796 156.37012
-45.85313 647.24341 183.71655
-40.121571 647.24341 183.71655
-34.389904 647.24341 183.71655
-28.658234 647.24341 183.71655
-22.926565 647.24341 183.71655
-17.357956 632.32898 211.06299
-11.572044 632.32898 211.06299
-5.8438826 616.45215 240.17358
0 616.45215 240.17358
5.843771 616.45215 240.17358
11.687765 616.45215 240.17358
17.531536 616.45215 240.17358
23.37553 616.45215 240.17358
29.219301 616.45215 240.17358
35.063072 616.45215 240.17358
40.907066 616.45215 240.17358
46.750835 616.45215 240.17358
52.59483 616.45215 240.17358
58.438602 616.45215 240.17358
64.282372 616.45215 240.17358
70.126366 616.45215 240.17358
75.970139 616.45215 240.17358
81.814133 616.45215 240.17358
87.657906 616.45215 240.17358
93.501671 616.45215 240.17358
99.345665 616.45215 240.17358
105.18944 616.45215 240.17358
111.03343 616.45215 240.17358
116.8772 616.45215 240.17358
122.72098 616.45215 240.17358
129.79932 601.05664 268.40186
135.69919 601.05664 268.40186
141.5993 601.05664 268.40186
147.49918 601.05664 268.40186
153.39905 601.05664 268.40186
160.90871 584.69885 298.39502
-177.68108 641.96753 181.47705
-171.9494 641.96753 181.47705
-166.21774 641.96753 181.47705
-158.96417 656.93201 154.15186
-153.28697 656.93201 154.15186
-147.60965 656.93201 154.15186
-141.93234 656.93201 154.15186
-136.25502 656.93201 154.15186
-130.57771 656.93201 154.15186
-124.90051 656.93201 154.15186
-119.22319 656.93201 154.15186
-113.54587 656.93201 154.15186
-107.86855 656.93201 154.15186
-102.19124 656.93201 154.15186
-96.514038 656.93201 154.15186
-90.836716 656.93201 154.15186
-85.159401 656.93201 154.15186
-79.482086 656.93201 154.15186
-73.804771 656.93201 154.15186
-68.127563 656.93201 154.15186
-62.450253 656.93201 154.15186
-56.772934 656.93201 154.15186
-51.095619 656.93201 154.15186
-45.85313 641.96753 181.47705
-40.121571 641.96753 181.47705
-34.716022 627.00305 208.80225
-28.658234 641.96753 181.47705
-22.926565 641.96753 181.47705
-17.357956 627.00305 208.80225
-11.687765 611.073 237.89014
-5.8438826 611.073 237.89014
0 611.073 237.89014
5.843771 611.073 237.89014
11.687765 611.073 237.89014
17.531536 611.073 237.89014
23.37553 611.073 237.89014
29.219301 611.073 237.89014
35.063072 611.073 237.89014
40.907066 611.073 237.89014
46.750835 611.073 237.89014
52.59483 611.073 237.89014
58.438602 611.073 237.89014
64.282372 611.073 237.89014
70.126366 611.073 237.89014
75.970139 611.073 237.89014
81.814133 611.073 237.89014
87.657906 611.073 237.89014
93.501671 611.073 237.89014
99.345665 611.073 237.89014
105.18944 611.073 237.89014
111.03343 611.073 237.89014
116.8772 611.073 237.89014
122.72098 611.073 237.89014
129.79932 595.62585 266.09668
135.69919 595.62585 266.09668
141.5993 595.62585 266.09668
147.49918 595.62585 266.09668
153.39905 595.62585 266.09668
160.90871 579.21313 296.06641
-175.99611 651.70605 151.93359
-170.3188 651.70605 151.93359
-164.64149 651.70605 151.93359
-158.96417 651.70605 151.93359
-153.28697 651.70605 151.93359
-147.60965 651.70605 151.93359
-141.93234 651.70605 151.93359
-136.25502 651.70605 151.93359
-130.57771 651.70605 151.93359
-124.90051 651.70605 151.93359
-119.22319 651.70605 151.93359
-113.54587 651.70605 151.93359
-107.86855 651.70605 151.93359
-102.19124 651.70605 151.93359
-96.514038 651.70605 151.93359
-90.836716 651.70605 151.93359
-85.159401 651.70605 151.93359
-79.482086 651.70605 151.93359
-73.804771 651.70605 151.93359
-68.127563 651.70605 151.93359
-62.450253 651.70605 151.93359
-56.772934 651.70605 151.93359
-51.095619 651.70605 151.93359
-45.85313 636.69141 179.23755
-40.121571 636.69141 179.23755
-34.716022 621.67688 206.54126
-28.93 621.67688 206.54126
-23.14398 621.67688 206.54126
-17.357956 621.67688 206.54126
-11.687765 605.6936 235.60669
-5.8438826 605.6936 235.60669
0 605.6936 235.60669
5.843771 605.6936 235.60669
11.687765 605.6936 235.60669
17.531536 605.6936 235.60669
23.37553 605.6936 235.60669
29.219301 605.6936 235.60669
35.063072 605.6936 235.60669
40.907066 605.6936 235.60669
46.750835 605.6936 235.60669
52.59483 605.6936 235.60669
58.438602 605.6936 235.60669
64.282372 605.6936 235.60669
70.126366 605.6936 235.60669
75.970139 605.6936 235.60669
81.814133 605.6936 235.60669
87.657906 605.6936 235.60669
93.501671 605.6936 235.60669
99.345665 605.6936 235.60669
105.18944 605.6936 235.60669
111.03343 605.6936 235.60669
117.99934 590.19482 263.79126
123.89921 590.19482 263.79126
129.79932 590.19482 263.79126
135.69919 590.19482 263.79126
141.5993 590.19482 263.79126
147.49918 590.19482 263.79126
153.39905 590.19482 263.79126
160.90871 573.72717 293.73779
-175.99611 646.4801 149.71533
-170.3188 646.4801 149.71533
-164.64149 646.4801 149.71533
-158.96417 646.4801 149.71533
-153.28697 646.4801 149.71533
-147.60965 646.4801 149.71533
-141.93234 646.4801 149.71533
-136.25502 646.4801 149.71533
-130.57771 646.4801 149.71533
-124.90051 646.4801 149.71533
-119.22319 646.4801 149.71533
-113.54587 646.4801 149.71533
-107.86855 646.4801 149.71533
-102.19124 646.4801 149.71533
-96.514038 646.4801 149.71533
-90.836716 646.4801 149.71533
-85.159401 646.4801 149.71533
-79.482086 646.4801 149.71533
-73.804771 646.4801 149.71533
-68.127563 646.4801 149.71533
-62.450253 646.4801 149.71533
-56.772934 646.4801 149.71533
-51.095619 646.4801 149.71533
-45.85313 631.41553 176.99805
-40.121571 631.41553 176.99805
-34.389904 631.41553 176.99805
-28.658234 631.41553 176.99805
-22.926565 631.41553 176.99805
-17.357956 616.35095 204.28052
-11.687765 600.31445 233.32349
-5.8438826 600.31445 233.32349
0 600.31445 233.32349
5.843771 600.31445 233.32349
11.687765 600.31445 233.32349
17.531536 600.31445 233.32349
23.37553 600.31445 233.32349
29.219301 600.31445 233.32349
35.063072 600.31445 233.32349
40.907066 600.31445 233.32349
47.199688 584.76392 261.48608
53.099792 584.76392 261.48608
58.999668 584.76392 261.48608
64.899544 584.76392 261.48608
70.799652 584.76392 261.48608
76.699524 584.76392 261.48608
82.599632 584.76392 261.48608
88.499504 584.76392 261.48608
94.399376 584.76392 261.48608
100.29948 584.76392 261.48608
106.19936 584.76392 261.48608
112.09946 584.76392 261.48608
117.99934 584.76392 261.48608
123.89921 584.76392 261.48608
129.79932 584.76392 261.48608
135.69919 584.76392 261.48608
141.5993 584.76392 261.48608
147.49918 584.76392 261.48608
153.39905 584.76392 261.48608
160.90871 568.24146 291.40918
-175.99611 641.25403 147.49707
-170.3188 641.25403 147.49707
-164.64149 641.25403 147.49707
-158.96417 641.25403 147.49707
-153.28697 641.25403 147.49707
-147.60965 641.25403 147.49707
-141.93234 641.25403 147.49707
-136.25502 641.25403 147.49707
-130.57771 641.25403 147.49707
-124.90051 641.25403 147.49707
-119.22319 641.25403 147.49707
-113.54587 641.25403 147.49707
-107.86855 641.25403 147.49707
-102.19124 641.25403 147.49707
-96.514038 641.25403 147.49707
-90.836716 641.25403 147.49707
-85.159401 641.25403 147.49707
-79.482086 641.25403 147.49707
-73.804771 641.25403 147.49707
-68.127563 641.25403 147.49707
-62.450253 641.25403 147.49707
-56.772934 641.25403 147.49707
-51.584797 626.1394 174.7583
-45.85313 626.1394 174.7583
-40.121571 626.1394 174.7583
-34.389904 626.1394 174.7583
-28.658234 626.1394 174.7583
-22.926565 626.1394 174.7583
-17.357956 611.02478 202.01978
-11.687765 594.93506 231.04004
-5.8999891 579.33301 259.18066
0 579.33301 259.18066
5.8998771 579.33301 259.18066
11.799978 579.33301 259.18066
17.699856 579.33301 259.18066
23.599957 579.33301 259.18066
29.499834 579.33301 259.18066
35.399712 579.33301 259.18066
41.299816 579.33301 259.18066
47.199688 579.33301 259.18066
53.099792 579.33301 259.18066
58.999668 579.33301 259.18066
64.899544 579.33301 259.18066
70.799652 579.33301 259.18066
76.699524 579.33301 259.18066
82.599632 579.33301 259.18066
88.499504 579.33301 259.18066
94.399376 579.33301 259.18066
100.29948 579.33301 259.18066
106.19936 579.33301 259.18066
112.09946 579.33301 259.18066
117.99934 579.33301 259.18066
123.89921 579.33301 259.18066
129.79932 579.33301 259.18066
135.69919 579.33301 259.18066
141.5993 579.33301 259.18066
148.9895 562.75562 289.08057
-175.99611 636.02808 145.27881
-170.3188 636.02808 145.27881
-164.64149 636.02808 145.27881
-160.48607 620.86328 172.5188
-153.28697 636.02808 145.27881
-147.60965 636.02808 145.27881
-141.93234 636.02808 145.27881
-136.25502 636.02808 145.27881
-130.57771 636.02808 145.27881
-124.90051 636.02808 145.27881
-119.22319 636.02808 145.27881
-113.54587 636.02808 145.27881
-107.86855 636.02808 145.27881
-102.19124 636.02808 145.27881
-96.514038 636.02808 145.27881
-90.836716 636.02808 145.27881
-85.159401 636.02808 145.27881
-79.482086 636.02808 145.27881
-73.804771 636.02808 145.27881
-68.127563 636.02808 145.27881
-62.450253 636.02808 145.27881
-57.316467 620.86328 172.5188
-51.584797 620.86328 172.5188
-45.85313 620.86328 172.5188
-40.121571 620.86328 172.5188
-34.389904 620.86328 172.5188
-28.93 605.69873 199.75903
-23.14398 605.69873 199.75903
-17.531536 589.55566 228.75659
-11.799978 573.90186 256.87549
-5.8999891 573.90186 256.87549
0 573.90186 256.87549
5.8998771 573.90186 256.87549
11.799978 573.90186 256.87549
17.699856 573.90186 256.87549
23.599957 573.90186 256.87549
29.499834 573.90186 256.87549
35.399712 573.90186 256.87549
41.299816 573.90186 256.87549
47.199688 573.90186 256.87549
53.099792 573.90186 256.87549
58.999668 573.90186 256.87549
64.899544 573.90186 256.87549
70.799652 573.90186 256.87549
76.699524 573.90186 256.87549
82.599632 573.90186 256.87549
88.499504 573.90186 256.87549
94.399376 573.90186 256.87549
100.29948 573.90186 256.87549
107.27239 557.26965 286.75195
112.09946 573.90186 256.87549
117.99934 573.90186 256.87549
123.89921 573.90186 256.87549
129.79932 573.90186 256.87549
135.69919 573.90186 256.87549
141.5993 573.90186 256.87549
-185.15205 600.3728 197.49829
-177.68108 615.5874 170.2793
-171.9494 615.5874 170.2793
-166.21774 615.5874 170.2793
-158.96417 630.80212 143.06055
-153.28697 630.80212 143.06055
-147.60965 630.80212 143.06055
-141.93234 630.80212 143.06055
-136.25502 630.80212 143.06055
-130.57771 630.80212 143.06055
-124.90051 630.80212 143.06055
-119.22319 630.80212 143.06055
-113.54587 630.80212 143.06055
-107.86855 630.80212 143.06055
-102.19124 630.80212 143.06055
-96.514038 630.80212 143.06055
-90.836716 630.80212 143.06055
-85.159401 630.80212 143.06055
-79.482086 630.80212 143.06055
-73.804771 630.80212 143.06055
-68.127563 630.80212 143.06055
-63.048141 615.5874 170.2793
-57.316467 615.5874 170.2793
-51.584797 615.5874 170.2793
-45.85313 615.5874 170.2793
-40.121571 615.5874 170.2793
-34.389904 615.5874 170.2793
-28.93 600.3728 197.49829
-23.14398 600.3728 197.49829
-17.531536 584.17639 226.47339
-11.799978 568.47107 254.57007
-5.8999891 568.47107 254.57007
0 568.47107 254.57007
5.8998771 568.47107 254.57007
11.799978 568.47107 254.57007
17.699856 568.47107 254.57007
23.599957 568.47107 254.57007
29.499834 568.47107 254.57007
35.399712 568.47107 254.57007
41.299816 568.47107 254.57007
47.199688 568.47107 254.57007
53.099792 568.47107 254.57007
58.999668 568.47107 254.57007
64.899544 568.47107 254.57007
70.799652 568.47107 254.57007
76.699524 568.47107 254.57007
82.599632 568.47107 254.57007
88.499504 568.47107 254.57007
94.399376 568.47107 254.57007
100.29948 568.47107 254.57007
107.27239 551.78394 284.42334
112.09946 568.47107 254.57007
117.99934 568.47107 254.57007
123.89921 568.47107 254.57007
129.79932 568.47107 254.57007
135.69919 568.47107 254.57007
141.5993 568.47107 254.57007
-185.15205 595.04663 195.23755
-179.36603 595.04663 195.23755
-171.9494 610.31128 168.03979
-166.21774 610.31128 168.03979
-158.96417 625.57605 140.84204
-153.28697 625.57605 140.84204
-147.60965 625.57605 140.84204
-141.93234 625.57605 140.84204
-136.25502 625.57605 140.84204
-130.57771 625.57605 140.84204
-124.90051 625.57605 140.84204
-119.22319 625.57605 140.84204
-113.54587 625.57605 140.84204
-107.86855 625.57605 140.84204
-102.19124 625.57605 140.84204
-96.514038 625.57605 140.84204
-90.836716 625.57605 140.84204
-85.159401 625.57605 140.84204
-79.482086 625.57605 140.84204
-73.804771 625.57605 140.84204
-68.127563 625.57605 140.84204
-63.048141 610.31128 168.03979
-57.316467 610.31128 168.03979
-51.584797 610.31128 168.03979
-45.85313 610.31128 168.03979
-40.121571 610.31128 168.03979
-34.389904 610.31128 168.03979
-28.93 595.04663 195.23755
-23.14398 595.04663 195.23755
-17.878695 546.2981 282.09473
-11.919207 546.2981 282.09473
-5.9596033 546.2981 282.09473
0 529.55603 311.92432
5.8998771 563.04004 252.26489
11.799978 563.04004 252.26489
17.699856 563.04004 252.26489
23.599957 563.04004 252.26489
29.499834 563.04004 252.26489
35.399712 563.04004 252.26489
41.299816 563.04004 252.26489
47.676598 546.2981 282.09473
53.099792 563.04004 252.26489
58.999668 563.04004 252.26489
64.899544 563.04004 252.26489
70.799652 563.04004 252.26489
76.699524 563.04004 252.26489
82.599632 563.04004 252.26489
88.499504 563.04004 252.26489
94.399376 563.04004 252.26489
100.29948 563.04004 252.26489
107.27239 546.2981 282.09473
113.23211 546.2981 282.09473
119.1916 546.2981 282.09473
125.1511 546.2981 282.09473
129.79932 563.04004 252.26489
135.69919 563.04004 252.26489
-185.15205 589.7207 192.97681
-179.36603 589.7207 192.97681
-171.9494 605.0354 165.80029
-166.21774 605.0354 165.80029
-158.96417 620.35022 138.62378
-153.28697 620.35022 138.62378
-147.60965 620.35022 138.62378
-141.93234 620.35022 138.62378
-136.25502 620.35022 138.62378
-130.57771 620.35022 138.62378
-124.90051 620.35022 138.62378
-119.22319 620.35022 138.62378
-113.54587 620.35022 138.62378
-107.86855 620.35022 138.62378
-102.19124 620.35022 138.62378
-96.514038 620.35022 138.62378
-90.836716 620.35022 138.62378
-85.159401 620.35022 138.62378
-79.482086 620.35022 138.62378
-73.804771 620.35022 138.62378
-68.127563 620.35022 138.62378
-63.048141 605.0354 165.80029
-57.316467 605.0354 165.80029
-51.584797 605.0354 165.80029
-45.85313 605.0354 165.80029
-39.7411 620.35022 138.62378
-34.063782 620.35022 138.62378
-28.658234 605.0354 165.80029
-22.926565 605.0354 165.80029
-17.878695 540.81226 279.76611
-11.919207 540.81226 279.76611
-5.9596033 540.81226 279.76611
0 524.01538 309.57251
5.9594893 540.81226 279.76611
11.919207 540.81226 279.76611
17.878695 540.81226 279.76611
23.838413 540.81226 279.76611
29.797901 540.81226 279.76611
35.757389 540.81226 279.76611
41.717106 540.81226 279.76611
47.676598 540.81226 279.76611
53.636314 540.81226 279.76611
59.595802 540.81226 279.76611
64.899544 557.60913 249.95947
70.799652 557.60913 249.95947
76.699524 557.60913 249.95947
82.599632 557.60913 249.95947
88.499504 557.60913 249.95947
94.399376 557.60913 249.95947
100.29948 557.60913 249.95947
107.27239 540.81226 279.76611
113.23211 540.81226 279.76611
119.1916 540.81226 279.76611
125.1511 540.81226 279.76611
129.79932 557.60913 249.95947
135.69919 557.60913 249.95947
-177.68108 599.75928 163.56079
-171.9494 599.75928 163.56079
-166.21774 599.75928 163.56079
-158.96417 615.12415 136.40552
-153.28697 615.12415 136.40552
-147.60965 615.12415 136.40552
-141.93234 615.12415 136.40552
-136.25502 615.12415 136.40552
-130.57771 615.12415 136.40552
-124.90051 615.12415 136.40552
-119.22319 615.12415 136.40552
-113.54587 615.12415 136.40552
-107.86855 615.12415 136.40552
-102.19124 615.12415 136.40552
-96.514038 615.12415 136.40552
-90.836716 615.12415 136.40552
-85.159401 615.12415 136.40552
-79.482086 615.12415 136.40552
-73.804771 615.12415 136.40552
-68.127563 615.12415 136.40552
-63.048141 599.75928 163.56079
-57.316467 599.75928 163.56079
-51.584797 599.75928 163.56079
-45.85313 599.75928 163.56079
-39.7411 615.12415 136.40552
-34.063782 615.12415 136.40552
-28.658234 599.75928 163.56079
-22.926565 599.75928 163.56079
-17.194897 599.75928 163.56079
-12.038433 518.47461 307.2207
-6.0192165 518.47461 307.2207
0 518.47461 307.2207
6.0191016 518.47461 307.2207
12.038433 518.47461 307.2207
18.057533 518.47461 307.2207
23.838413 535.32642 277.4375
29.797901 535.32642 277.4375
35.757389 535.32642 277.4375
41.717106 535.32642 277.4375
47.676598 535.32642 277.4375
53.636314 535.32642 277.4375
59.595802 535.32642 277.4375
64.899544 552.1781 247.6543
70.799652 552.1781 247.6543
76.699524 552.1781 247.6543
82.599632 552.1781 247.6543
88.499504 552.1781 247.6543
94.399376 552.1781 247.6543
100.29948 552.1781 247.6543
107.27239 535.32642 277.4375
113.23211 535.32642 277.4375
119.1916 535.32642 277.4375
125.1511 535.32642 277.4375
131.11081 535.32642 277.4375
137.0703 535.32642 277.4375
-177.68108 594.4834 161.32129
-171.9494 594.4834 161.32129
-166.21774 594.4834 161.32129
-158.96417 609.89819 134.18726
-153.28697 609.89819 134.18726
-147.60965 609.89819 134.18726
-141.93234 609.89819 134.18726
-136.25502 609.89819 134.18726
-130.57771 609.89819 134.18726
-124.90051 609.89819 134.18726
-119.22319 609.89819 134.18726
-113.54587 609.89819 134.18726
-107.86855 609.89819 134.18726
-102.19124 609.89819 134.18726
-96.514038 609.89819 134.18726
-90.836716 609.89819 134.18726
-85.159401 609.89819 134.18726
-79.482086 609.89819 134.18726
-73.804771 609.89819 134.18726
-68.127563 609.89819 134.18726
-62.450253 609.89819 134.18726
-57.316467 594.4834 161.32129
-51.584797 594.4834 161.32129
-45.85313 594.4834 161.32129
-40.121571 594.4834 161.32129
-34.389904 594.4834 161.32129
-28.658234 594.4834 161.32129
-22.926565 594.4834 161.32129
-12.161167 495.53027 335.50391
-6.0805836 495.53027 335.50391
0 512.93408 304.8689
6.0191016 512.93408 304.8689
12.038433 512.93408 304.8689
18.057533 512.93408 304.8689
24.076866 512.93408 304.8689
30.095968 512.93408 304.8689
35.757389 529.8407 275.10889
41.717106 529.8407 275.10889
47.676598 529.8407 275.10889
53.636314 529.8407 275.10889
59.595802 529.8407 275.10889
64.899544 546.74731 245.34888
70.799652 546.74731 245.34888
76.699524 546.74731 245.34888
82.599632 546.74731 245.34888
88.499504 546.74731 245.34888
94.399376 546.74731 245.34888
101.31291 529.8407 275.10889
107.27239 529.8407 275.10889
113.23211 529.8407 275.10889
119.1916 529.8407 275.10889
125.1511 529.8407 275.10889
132.4223 512.93408 304.8689
138.44141 512.93408 304.8689
-171.9494 589.20728 159.08154
-164.64149 604.67212 131.96899
-158.96417 604.67212 131.96899
-153.28697 604.67212 131.96899
-147.60965 604.67212 131.96899
