ply
format ascii 1.0
comment PCL generated
element vertex 1601
property float x
property float y
property float z
element camera 0
property float view_px
property float view_py
property float view_pz
property float x_axisx
property float x_axisy
property float x_axisz
property float y_axisx
property float y_axisy
property float y_axisz
property float z_axisx
property float z_axisy
property float z_axisz
property float focal
property float scalex
property float scaley
property float centerx
property float centery
property int viewportx
property int viewporty
property float k1
property float k2
end_header
200.54623 1141.0592 111.96167
205.8239 1141.0592 111.96167
211.10133 1141.0592 111.96167
216.37878 1141.0592 111.96167
221.65645 1141.0592 111.96167
226.93391 1141.0592 111.96167
230.20573 1150.379 87.672363
235.43761 1150.379 87.672363
240.66948 1150.379 87.672363
245.90155 1150.379 87.672363
248.94525 1159.6986 63.383057
254.13171 1159.6986 63.383057
261.59735 1150.379 87.672363
266.82922 1150.379 87.672363
272.06128 1150.379 87.672363
274.87704 1159.6986 63.383057
280.06351 1159.6986 63.383057
285.24982 1159.6986 63.383057
290.4361 1159.6986 63.383057
295.62256 1159.6986 63.383057
300.80887 1159.6986 63.383057
308.68497 1150.379 87.672363
313.91681 1150.379 87.672363
319.14865 1150.379 87.672363
324.38077 1150.379 87.672363
329.61261 1150.379 87.672363
334.8447 1150.379 87.672363
340.07654 1150.379 87.672363
348.31714 1141.0592 111.96167
353.59479 1141.0592 111.96167
358.87225 1141.0592 111.96167
-350.0899 958.68872 570.12549
-343.94791 958.68872 570.12549
-341.27759 945.7262 603.73242
-335.07254 945.7262 603.73242
-325.52206 958.68872 570.12549
-319.38025 958.68872 570.12549
-316.4574 945.7262 603.73242
-307.09634 958.68872 570.12549
-300.95441 958.68872 570.12549
-294.81244 958.68872 570.12549
-288.67062 958.68872 570.12549
-285.43219 945.7262 603.73242
-279.22711 945.7262 603.73242
-270.24475 958.68872 570.12549
-264.10281 958.68872 570.12549
-257.96097 958.68872 570.12549
-11.35463 1054.1062 322.74243
-5.6773152 1054.1062 322.74243
0 1054.1062 322.74243
5.6772065 1054.1062 322.74243
11.35463 1054.1062 322.74243
16.874039 1064.9081 294.73682
22.498859 1064.9081 294.73682
28.123468 1064.9081 294.73682
33.748077 1064.9081 294.73682
39.372898 1064.9081 294.73682
44.16993 1086.152 239.65894
49.233688 1096.594 212.58667
54.704002 1096.594 212.58667
59.634293 1106.6758 186.44824
64.466599 1116.7576 160.30981
69.838737 1116.7576 160.30981
75.211067 1116.7576 160.30981
80.583206 1116.7576 160.30981
85.197891 1126.4795 135.10449
90.522888 1126.4795 135.10449
95.847679 1126.4795 135.10449
101.17268 1126.4795 135.10449
105.55067 1136.2012 109.89966
110.82812 1136.2012 109.89966
116.10578 1136.2012 109.89966
121.38322 1136.2012 109.89966
126.66088 1136.2012 109.89966
131.93834 1136.2012 109.89966
137.21579 1136.2012 109.89966
142.49345 1136.2012 109.89966
147.7709 1136.2012 109.89966
153.04855 1136.2012 109.89966
158.326 1136.2012 109.89966
163.60345 1136.2012 109.89966
168.8811 1136.2012 109.89966
174.15857 1136.2012 109.89966
179.43622 1136.2012 109.89966
184.71367 1136.2012 109.89966
189.99112 1136.2012 109.89966
195.26877 1136.2012 109.89966
200.54623 1136.2012 109.89966
205.8239 1136.2012 109.89966
211.10133 1136.2012 109.89966
216.37878 1136.2012 109.89966
221.65645 1136.2012 109.89966
226.93391 1136.2012 109.89966
232.21156 1136.2012 109.89966
235.43761 1145.563 85.62793
240.66948 1145.563 85.62793
245.90155 1145.563 85.62793
248.94525 1154.9246 61.356445
254.13171 1154.9246 61.356445
259.31802 1154.9246 61.356445
264.5043 1154.9246 61.356445
269.69077 1154.9246 61.356445
274.87704 1154.9246 61.356445
280.06351 1154.9246 61.356445
285.24982 1154.9246 61.356445
290.4361 1154.9246 61.356445
295.62256 1154.9246 61.356445
303.45288 1145.563 85.62793
308.68497 1145.563 85.62793
313.91681 1145.563 85.62793
319.14865 1145.563 85.62793
324.38077 1145.563 85.62793
329.61261 1145.563 85.62793
334.8447 1145.563 85.62793
340.07654 1145.563 85.62793
348.31714 1136.2012 109.89966
353.59479 1136.2012 109.89966
358.87225 1136.2012 109.89966
364.14987 1136.2012 109.89966
-356.23169 953.03503 567.72583
-350.0899 953.03503 567.72583
-347.48264 940.0144 601.30786
-341.27759 940.0144 601.30786
-335.07254 940.0144 601.30786
-328.86743 940.0144 601.30786
-322.66248 940.0144 601.30786
-316.4574 940.0144 601.30786
-307.09634 953.03503 567.72583
-300.95441 953.03503 567.72583
-294.81244 953.03503 567.72583
-288.67062 953.03503 567.72583
-285.43219 940.0144 601.30786
-279.22711 940.0144 601.30786
-270.24475 953.03503 567.72583
-264.10281 953.03503 567.72583
-260.61203 940.0144 601.30786
-5.6773152 1048.8801 320.52393
0 1048.8801 320.52393
5.6772065 1048.8801 320.52393
11.35463 1048.8801 320.52393
16.874039 1059.7306 292.53906
22.498859 1059.7306 292.53906
28.123468 1059.7306 292.53906
33.748077 1059.7306 292.53906
39.0047 1070.5809 264.55396
44.16993 1081.0697 237.50171
49.233688 1091.5585 210.44922
54.704002 1091.5585 210.44922
59.634293 1101.6854 184.33008
64.466599 1111.8125 158.21069
69.838737 1111.8125 158.21069
75.211067 1111.8125 158.21069
80.583206 1111.8125 158.21069
85.955338 1111.8125 158.21069
90.522888 1121.5779 133.02393
95.847679 1121.5779 133.02393
101.17268 1121.5779 133.02393
105.55067 1131.3431 107.8374
110.82812 1131.3431 107.8374
116.10578 1131.3431 107.8374
121.38322 1131.3431 107.8374
126.66088 1131.3431 107.8374
131.93834 1131.3431 107.8374
137.21579 1131.3431 107.8374
142.49345 1131.3431 107.8374
147.7709 1131.3431 107.8374
153.04855 1131.3431 107.8374
158.326 1131.3431 107.8374
163.60345 1131.3431 107.8374
168.8811 1131.3431 107.8374
174.15857 1131.3431 107.8374
179.43622 1131.3431 107.8374
184.71367 1131.3431 107.8374
189.99112 1131.3431 107.8374
195.26877 1131.3431 107.8374
202.34515 1121.5779 133.02393
207.67015 1121.5779 133.02393
211.10133 1131.3431 107.8374
216.37878 1131.3431 107.8374
221.65645 1131.3431 107.8374
226.93391 1131.3431 107.8374
232.21156 1131.3431 107.8374
235.43761 1140.7469 83.58374
240.66948 1140.7469 83.58374
245.90155 1140.7469 83.58374
248.94525 1150.1505 59.330078
254.13171 1150.1505 59.330078
259.31802 1150.1505 59.330078
264.5043 1150.1505 59.330078
269.69077 1150.1505 59.330078
274.87704 1150.1505 59.330078
280.06351 1150.1505 59.330078
287.75708 1140.7469 83.58374
292.98892 1140.7469 83.58374
298.22101 1140.7469 83.58374
303.45288 1140.7469 83.58374
308.68497 1140.7469 83.58374
313.91681 1140.7469 83.58374
319.14865 1140.7469 83.58374
324.38077 1140.7469 83.58374
329.61261 1140.7469 83.58374
334.8447 1140.7469 83.58374
340.07654 1140.7469 83.58374
348.31714 1131.3431 107.8374
353.59479 1131.3431 107.8374
358.87225 1131.3431 107.8374
364.14987 1131.3431 107.8374
-356.23169 947.38135 565.32593
-350.0899 947.38135 565.32593
-347.48264 934.30273 598.8833
-341.27759 934.30273 598.8833
-335.07254 934.30273 598.8833
-328.86743 934.30273 598.8833
-322.66248 934.30273 598.8833
-316.4574 934.30273 598.8833
-307.09634 947.38135 565.32593
-300.95441 947.38135 565.32593
-294.81244 947.38135 565.32593
-288.67062 947.38135 565.32593
-285.43219 934.30273 598.8833
-279.22711 934.30273 598.8833
-11.35463 1043.6542 318.30566
-5.6773152 1043.6542 318.30566
0 1043.6542 318.30566
5.6772065 1043.6542 318.30566
11.35463 1043.6542 318.30566
16.874039 1054.553 290.34131
22.498859 1054.553 290.34131
28.123468 1054.553 290.34131
33.748077 1054.553 290.34131
39.0047 1065.4518 262.37671
44.16993 1075.9873 235.34448
49.233688 1086.5229 208.31177
54.704002 1086.5229 208.31177
59.634293 1096.6952 182.21191
65.055725 1096.6952 182.21191
69.838737 1106.8673 156.11157
75.211067 1106.8673 156.11157
80.583206 1106.8673 156.11157
85.955338 1106.8673 156.11157
90.522888 1116.6763 130.94336
95.847679 1116.6763 130.94336
101.17268 1116.6763 130.94336
106.49747 1116.6763 130.94336
110.82812 1126.4852 105.77539
116.10578 1126.4852 105.77539
121.38322 1126.4852 105.77539
126.66088 1126.4852 105.77539
131.93834 1126.4852 105.77539
137.21579 1126.4852 105.77539
142.49345 1126.4852 105.77539
147.7709 1126.4852 105.77539
153.04855 1126.4852 105.77539
158.326 1126.4852 105.77539
163.60345 1126.4852 105.77539
168.8811 1126.4852 105.77539
174.15857 1126.4852 105.77539
179.43622 1126.4852 105.77539
184.71367 1126.4852 105.77539
189.99112 1126.4852 105.77539
197.02036 1116.6763 130.94336
202.34515 1116.6763 130.94336
207.67015 1116.6763 130.94336
212.99493 1116.6763 130.94336
218.31973 1116.6763 130.94336
221.65645 1126.4852 105.77539
226.93391 1126.4852 105.77539
234.29451 1116.6763 130.94336
237.48901 1126.4852 105.77539
240.66948 1135.9309 81.539551
245.90155 1135.9309 81.539551
251.13341 1135.9309 81.539551
256.36548 1135.9309 81.539551
259.31802 1145.3765 57.303467
264.5043 1145.3765 57.303467
269.69077 1145.3765 57.303467
274.87704 1145.3765 57.303467
280.06351 1145.3765 57.303467
287.75708 1135.9309 81.539551
292.98892 1135.9309 81.539551
298.22101 1135.9309 81.539551
303.45288 1135.9309 81.539551
308.68497 1135.9309 81.539551
313.91681 1135.9309 81.539551
319.14865 1135.9309 81.539551
324.38077 1135.9309 81.539551
329.61261 1135.9309 81.539551
334.8447 1135.9309 81.539551
340.07654 1135.9309 81.539551
345.30841 1135.9309 81.539551
350.5405 1135.9309 81.539551
358.87225 1126.4852 105.77539
364.14987 1126.4852 105.77539
-353.68771 928.59094 596.45874
-347.48264 928.59094 596.45874
-341.27759 928.59094 596.45874
-335.07254 928.59094 596.45874
-328.86743 928.59094 596.45874
-322.66248 928.59094 596.45874
-316.4574 928.59094 596.45874
-307.09634 941.72766 562.92603
-300.95441 941.72766 562.92603
-294.81244 941.72766 562.92603
-288.67062 941.72766 562.92603
-285.43219 928.59094 596.45874
-279.22711 928.59094 596.45874
-11.35463 1038.4282 316.0874
-5.6773152 1038.4282 316.0874
0 1038.4282 316.0874
5.6772065 1038.4282 316.0874
11.24943 1049.3755 288.14355
16.874039 1049.3755 288.14355
22.28846 1060.3228 260.19946
27.860468 1060.3228 260.19946
33.432476 1060.3228 260.19946
38.648773 1070.905 233.18701
44.16993 1070.905 233.18701
49.233688 1081.4874 206.17432
54.21307 1091.7048 180.09351
59.634293 1091.7048 180.09351
65.055725 1091.7048 180.09351
69.838737 1101.9221 154.01245
75.211067 1101.9221 154.01245
80.583206 1101.9221 154.01245
85.955338 1101.9221 154.01245
90.522888 1111.7748 128.86279
95.847679 1111.7748 128.86279
101.17268 1111.7748 128.86279
106.49747 1111.7748 128.86279
110.82812 1121.6272 103.71338
116.10578 1121.6272 103.71338
121.38322 1121.6272 103.71338
126.66088 1121.6272 103.71338
131.93834 1121.6272 103.71338
137.21579 1121.6272 103.71338
142.49345 1121.6272 103.71338
147.7709 1121.6272 103.71338
153.04855 1121.6272 103.71338
158.326 1121.6272 103.71338
163.60345 1121.6272 103.71338
170.396 1111.7748 128.86279
175.72078 1111.7748 128.86279
181.04578 1111.7748 128.86279
186.37057 1111.7748 128.86279
191.69536 1111.7748 128.86279
197.02036 1111.7748 128.86279
204.14407 1101.9221 154.01245
207.67015 1111.7748 128.86279
212.99493 1111.7748 128.86279
218.31973 1111.7748 128.86279
223.64473 1111.7748 128.86279
228.96953 1111.7748 128.86279
234.29451 1111.7748 128.86279
237.48901 1121.6272 103.71338
240.66948 1131.1149 79.495117
245.90155 1131.1149 79.495117
251.13341 1131.1149 79.495117
254.13171 1140.6024 55.2771
259.31802 1140.6024 55.2771
262.2688 1149.7251 31.990234
267.41144 1149.7251 31.990234
274.87704 1140.6024 55.2771
280.06351 1140.6024 55.2771
287.75708 1131.1149 79.495117
292.98892 1131.1149 79.495117
298.22101 1131.1149 79.495117
303.45288 1131.1149 79.495117
308.68497 1131.1149 79.495117
313.91681 1131.1149 79.495117
319.14865 1131.1149 79.495117
324.38077 1131.1149 79.495117
329.61261 1131.1149 79.495117
334.8447 1131.1149 79.495117
340.07654 1131.1149 79.495117
345.30841 1131.1149 79.495117
350.5405 1131.1149 79.495117
358.87225 1121.6272 103.71338
364.14987 1121.6272 103.71338
-357.3855 909.31787 628.47314
-347.48264 922.87915 594.03442
-341.27759 922.87915 594.03442
-335.07254 922.87915 594.03442
-328.86743 922.87915 594.03442
-322.66248 922.87915 594.03442
-316.4574 922.87915 594.03442
-310.25235 922.87915 594.03442
-304.0473 922.87915 594.03442
-297.84219 922.87915 594.03442
-291.63724 922.87915 594.03442
-285.43219 922.87915 594.03442
-279.22711 922.87915 594.03442
-11.35463 1033.2023 313.86914
-5.6773152 1033.2023 313.86914
0 1033.2023 313.86914
5.6246076 1044.1979 285.9458
11.24943 1044.1979 285.9458
16.716238 1055.1936 258.02246
22.085073 1065.8226 231.02979
27.606234 1065.8226 231.02979
33.127396 1065.8226 231.02979
38.292843 1076.4519 204.03687
43.763157 1076.4519 204.03687
48.791843 1086.7145 177.97534
54.21307 1086.7145 177.97534
59.634293 1086.7145 177.97534
65.055725 1086.7145 177.97534
69.838737 1096.9771 151.91333
75.211067 1096.9771 151.91333
80.583206 1096.9771 151.91333
85.955338 1096.9771 151.91333
91.327667 1096.9771 151.91333
95.847679 1106.8732 126.78223
101.17268 1106.8732 126.78223
106.49747 1106.8732 126.78223
110.82812 1116.7692 101.65112
116.10578 1116.7692 101.65112
121.38322 1116.7692 101.65112
126.66088 1116.7692 101.65112
131.93834 1116.7692 101.65112
137.21579 1116.7692 101.65112
142.49345 1116.7692 101.65112
147.7709 1116.7692 101.65112
153.04855 1116.7692 101.65112
158.326 1116.7692 101.65112
163.60345 1116.7692 101.65112
170.396 1106.8732 126.78223
175.72078 1106.8732 126.78223
181.04578 1106.8732 126.78223
186.37057 1106.8732 126.78223
191.69536 1106.8732 126.78223
197.02036 1106.8732 126.78223
202.34515 1106.8732 126.78223
207.67015 1106.8732 126.78223
212.99493 1106.8732 126.78223
218.31973 1106.8732 126.78223
223.64473 1106.8732 126.78223
228.96953 1106.8732 126.78223
234.29451 1106.8732 126.78223
237.48901 1116.7692 101.65112
242.76645 1116.7692 101.65112
248.04411 1116.7692 101.65112
251.13341 1126.2988 77.450928
254.13171 1135.8284 53.250488
259.31802 1135.8284 53.250488
262.2688 1144.9915 29.980957
267.41144 1144.9915 29.980957
274.87704 1135.8284 53.250488
280.06351 1135.8284 53.250488
287.75708 1126.2988 77.450928
292.98892 1126.2988 77.450928
298.22101 1126.2988 77.450928
303.45288 1126.2988 77.450928
308.68497 1126.2988 77.450928
313.91681 1126.2988 77.450928
319.14865 1126.2988 77.450928
324.38077 1126.2988 77.450928
329.61261 1126.2988 77.450928
334.8447 1126.2988 77.450928
340.07654 1126.2988 77.450928
345.30841 1126.2988 77.450928
353.59479 1116.7692 101.65112
358.87225 1116.7692 101.65112
364.14987 1116.7692 101.65112
-347.48264 917.16736 591.60986
-341.27759 917.16736 591.60986
-335.07254 917.16736 591.60986
-328.86743 917.16736 591.60986
-322.66248 917.16736 591.60986
-316.4574 917.16736 591.60986
-310.25235 917.16736 591.60986
-304.0473 917.16736 591.60986
-297.84219 917.16736 591.60986
-291.63724 917.16736 591.60986
-285.43219 917.16736 591.60986
-11.35463 1027.9763 311.65088
-5.6773152 1027.9763 311.65088
0 1039.0204 283.74805
5.6246076 1039.0204 283.74805
11.24943 1039.0204 283.74805
16.716238 1050.0645 255.84521
22.085073 1060.7404 228.87256
27.352001 1071.4164 201.89941
32.822319 1071.4164 201.89941
38.292843 1071.4164 201.89941
43.370415 1081.7241 175.85693
48.791843 1081.7241 175.85693
54.21307 1081.7241 175.85693
59.634293 1081.7241 175.85693
65.055725 1081.7241 175.85693
70.476952 1081.7241 175.85693
75.898376 1081.7241 175.85693
80.583206 1092.0319 149.81421
85.955338 1092.0319 149.81421
91.327667 1092.0319 149.81421
95.847679 1101.9717 124.70166
101.17268 1101.9717 124.70166
106.49747 1101.9717 124.70166
110.82812 1111.9113 99.589111
116.10578 1111.9113 99.589111
121.38322 1111.9113 99.589111
126.66088 1111.9113 99.589111
131.93834 1111.9113 99.589111
137.21579 1111.9113 99.589111
142.49345 1111.9113 99.589111
147.7709 1111.9113 99.589111
153.04855 1111.9113 99.589111
158.326 1111.9113 99.589111
165.071 1101.9717 124.70166
170.396 1101.9717 124.70166
175.72078 1101.9717 124.70166
181.04578 1101.9717 124.70166
186.37057 1101.9717 124.70166
191.69536 1101.9717 124.70166
197.02036 1101.9717 124.70166
202.34515 1101.9717 124.70166
207.67015 1101.9717 124.70166
212.99493 1101.9717 124.70166
218.31973 1101.9717 124.70166
223.64473 1101.9717 124.70166
228.96953 1101.9717 124.70166
236.37747 1092.0319 149.81421
239.61931 1101.9717 124.70166
242.76645 1111.9113 99.589111
248.04411 1111.9113 99.589111
251.13341 1121.4828 75.406494
254.13171 1131.0543 51.224121
259.31802 1131.0543 51.224121
264.5043 1131.0543 51.224121
269.69077 1131.0543 51.224121
277.29312 1121.4828 75.406494
282.52521 1121.4828 75.406494
287.75708 1121.4828 75.406494
292.98892 1121.4828 75.406494
298.22101 1121.4828 75.406494
303.45288 1121.4828 75.406494
308.68497 1121.4828 75.406494
313.91681 1121.4828 75.406494
319.14865 1121.4828 75.406494
324.38077 1121.4828 75.406494
329.61261 1121.4828 75.406494
334.8447 1121.4828 75.406494
340.07654 1121.4828 75.406494
345.30841 1121.4828 75.406494
353.59479 1111.9113 99.589111
358.87225 1111.9113 99.589111
364.14987 1111.9113 99.589111
-344.84561 897.7749 623.57349
-335.07254 911.45557 589.1853
-328.86743 911.45557 589.1853
-322.66248 911.45557 589.1853
-316.4574 911.45557 589.1853
-310.25235 911.45557 589.1853
-304.0473 911.45557 589.1853
-297.84219 911.45557 589.1853
-294.68631 897.7749 623.57349
-11.35463 1022.7504 309.43262
-5.6773152 1022.7504 309.43262
0 1033.8428 281.55029
5.6246076 1033.8428 281.55029
11.14423 1044.9353 253.66797
16.563698 1055.658 226.71509
21.881683 1066.3809 199.76196
27.352001 1066.3809 199.76196
32.822319 1066.3809 199.76196
37.949188 1076.7338 173.73877
43.370415 1076.7338 173.73877
48.791843 1076.7338 173.73877
54.21307 1076.7338 173.73877
59.634293 1076.7338 173.73877
65.055725 1076.7338 173.73877
70.476952 1076.7338 173.73877
75.898376 1076.7338 173.73877
81.319603 1076.7338 173.73877
85.955338 1087.0868 147.71509
91.327667 1087.0868 147.71509
95.847679 1097.0701 122.62085
101.17268 1097.0701 122.62085
106.49747 1097.0701 122.62085
110.82812 1107.0532 97.5271
116.10578 1107.0532 97.5271
121.38322 1107.0532 97.5271
126.66088 1107.0532 97.5271
131.93834 1107.0532 97.5271
137.21579 1107.0532 97.5271
142.49345 1107.0532 97.5271
149.09642 1097.0701 122.62085
154.42142 1097.0701 122.62085
159.7462 1097.0701 122.62085
165.071 1097.0701 122.62085
170.396 1097.0701 122.62085
175.72078 1097.0701 122.62085
181.04578 1097.0701 122.62085
186.37057 1097.0701 122.62085
191.69536 1097.0701 122.62085
197.02036 1097.0701 122.62085
204.14407 1087.0868 147.71509
209.5164 1087.0868 147.71509
212.99493 1097.0701 122.62085
218.31973 1097.0701 122.62085
225.63301 1087.0868 147.71509
231.00513 1087.0868 147.71509
236.37747 1087.0868 147.71509
241.7496 1087.0868 147.71509
242.76645 1107.0532 97.5271
248.04411 1107.0532 97.5271
251.13341 1116.6667 73.362305
254.13171 1126.2802 49.197754
259.31802 1126.2802 49.197754
264.5043 1126.2802 49.197754
269.69077 1126.2802 49.197754
277.29312 1116.6667 73.362305
282.52521 1116.6667 73.362305
287.75708 1116.6667 73.362305
292.98892 1116.6667 73.362305
298.22101 1116.6667 73.362305
303.45288 1116.6667 73.362305
308.68497 1116.6667 73.362305
313.91681 1116.6667 73.362305
319.14865 1116.6667 73.362305
324.38077 1116.6667 73.362305
329.61261 1116.6667 73.362305
334.8447 1116.6667 73.362305
340.07654 1116.6667 73.362305
345.30841 1116.6667 73.362305
353.59479 1107.0532 97.5271
358.87225 1107.0532 97.5271
364.14987 1107.0532 97.5271
-11.24943 1028.6653 279.35254
-5.6247149 1028.6653 279.35254
0 1028.6653 279.35254
5.6246076 1028.6653 279.35254
11.14423 1039.8062 251.49072
16.563698 1050.5757 224.55786
21.881683 1061.3453 197.62451
27.352001 1061.3453 197.62451
32.822319 1061.3453 197.62451
37.949188 1071.7434 171.62036
43.370415 1071.7434 171.62036
48.791843 1071.7434 171.62036
54.21307 1071.7434 171.62036
59.634293 1071.7434 171.62036
65.055725 1071.7434 171.62036
70.476952 1071.7434 171.62036
75.898376 1071.7434 171.62036
81.319603 1071.7434 171.62036
86.740829 1071.7434 171.62036
91.327667 1082.1416 145.61621
96.699806 1082.1416 145.61621
101.17268 1092.1685 120.54028
106.49747 1092.1685 120.54028
110.82812 1102.1952 95.464844
116.10578 1102.1952 95.464844
121.38322 1102.1952 95.464844
126.66088 1102.1952 95.464844
131.93834 1102.1952 95.464844
137.21579 1102.1952 95.464844
142.49345 1102.1952 95.464844
149.09642 1092.1685 120.54028
154.42142 1092.1685 120.54028
159.7462 1092.1685 120.54028
163.60345 1102.1952 95.464844
168.8811 1102.1952 95.464844
175.72078 1092.1685 120.54028
181.04578 1092.1685 120.54028
186.37057 1092.1685 120.54028
191.69536 1092.1685 120.54028
197.02036 1092.1685 120.54028
204.14407 1082.1416 145.61621
209.5164 1082.1416 145.61621
214.88853 1082.1416 145.61621
220.26068 1082.1416 145.61621
225.63301 1082.1416 145.61621
231.00513 1082.1416 145.61621
236.37747 1082.1416 145.61621
241.7496 1082.1416 145.61621
247.12175 1082.1416 145.61621
250.2691 1092.1685 120.54028
255.59389 1092.1685 120.54028
258.59924 1102.1952 95.464844
261.59735 1111.8507 71.318115
266.82922 1111.8507 71.318115
272.06128 1111.8507 71.318115
277.29312 1111.8507 71.318115
282.52521 1111.8507 71.318115
287.75708 1111.8507 71.318115
292.98892 1111.8507 71.318115
298.22101 1111.8507 71.318115
303.45288 1111.8507 71.318115
308.68497 1111.8507 71.318115
313.91681 1111.8507 71.318115
319.14865 1111.8507 71.318115
324.38077 1111.8507 71.318115
329.61261 1111.8507 71.318115
334.8447 1111.8507 71.318115
340.07654 1111.8507 71.318115
345.30841 1111.8507 71.318115
350.5405 1111.8507 71.318115
355.77234 1111.8507 71.318115
361.00443 1111.8507 71.318115
372.74115 1092.1685 120.54028
-11.24943 1023.4877 277.15503
-5.6247149 1023.4877 277.15503
0 1023.4877 277.15503
5.5720086 1034.677 249.31372
11.14423 1034.677 249.31372
16.563698 1045.4934 222.40039
21.881683 1056.3098 195.48706
27.352001 1056.3098 195.48706
32.822319 1056.3098 195.48706
37.949188 1066.7532 169.5022
43.370415 1066.7532 169.5022
48.791843 1066.7532 169.5022
54.21307 1066.7532 169.5022
59.634293 1066.7532 169.5022
65.055725 1066.7532 169.5022
70.476952 1066.7532 169.5022
75.898376 1066.7532 169.5022
81.319603 1066.7532 169.5022
86.740829 1066.7532 169.5022
91.327667 1077.1964 143.51709
96.699806 1077.1964 143.51709
101.17268 1087.267 118.45972
106.49747 1087.267 118.45972
111.82227 1087.267 118.45972
117.14725 1087.267 118.45972
121.38322 1097.3373 93.402832
126.66088 1097.3373 93.402832
131.93834 1097.3373 93.402832
137.21579 1097.3373 93.402832
142.49345 1097.3373 93.402832
147.7709 1097.3373 93.402832
153.04855 1097.3373 93.402832
158.326 1097.3373 93.402832
163.60345 1097.3373 93.402832
168.8811 1097.3373 93.402832
175.72078 1087.267 118.45972
181.04578 1087.267 118.45972
186.37057 1087.267 118.45972
191.69536 1087.267 118.45972
197.02036 1087.267 118.45972
204.14407 1077.1964 143.51709
209.5164 1077.1964 143.51709
214.88853 1077.1964 143.51709
220.26068 1077.1964 143.51709
225.63301 1077.1964 143.51709
233.11615 1066.7532 169.5022
238.53758 1066.7532 169.5022
243.9588 1066.7532 169.5022
247.12175 1077.1964 143.51709
252.49408 1077.1964 143.51709
257.86621 1077.1964 143.51709
260.91888 1087.267 118.45972
263.87668 1097.3373 93.402832
266.82922 1107.0347 69.273682
272.06128 1107.0347 69.273682
277.29312 1107.0347 69.273682
282.52521 1107.0347 69.273682
287.75708 1107.0347 69.273682
292.98892 1107.0347 69.273682
298.22101 1107.0347 69.273682
303.45288 1107.0347 69.273682
308.68497 1107.0347 69.273682
313.91681 1107.0347 69.273682
319.14865 1107.0347 69.273682
324.38077 1107.0347 69.273682
329.61261 1107.0347 69.273682
334.8447 1107.0347 69.273682
340.07654 1107.0347 69.273682
345.30841 1107.0347 69.273682
350.5405 1107.0347 69.273682
355.77234 1107.0347 69.273682
361.00443 1107.0347 69.273682
369.42734 1097.3373 93.402832
-11.24943 1018.3102 274.95728
-5.6247149 1018.3102 274.95728
0 1029.5479 247.13647
5.5720086 1029.5479 247.13647
11.042537 1040.411 220.24316
16.41116 1051.2743 193.34961
21.881683 1051.2743 193.34961
27.352001 1051.2743 193.34961
32.52776 1061.7628 167.38403
37.949188 1061.7628 167.38403
43.370415 1061.7628 167.38403
48.791843 1061.7628 167.38403
54.21307 1061.7628 167.38403
59.634293 1061.7628 167.38403
65.055725 1061.7628 167.38403
70.476952 1061.7628 167.38403
75.898376 1061.7628 167.38403
81.319603 1061.7628 167.38403
85.955338 1072.2513 141.41797
91.327667 1072.2513 141.41797
96.699806 1072.2513 141.41797
101.17268 1082.3654 116.37915
106.49747 1082.3654 116.37915
111.82227 1082.3654 116.37915
117.14725 1082.3654 116.37915
122.47205 1082.3654 116.37915
126.66088 1092.4792 91.34082
131.93834 1092.4792 91.34082
137.21579 1092.4792 91.34082
142.49345 1092.4792 91.34082
147.7709 1092.4792 91.34082
153.04855 1092.4792 91.34082
158.326 1092.4792 91.34082
165.071 1082.3654 116.37915
170.396 1082.3654 116.37915
175.72078 1082.3654 116.37915
181.04578 1082.3654 116.37915
186.37057 1082.3654 116.37915
191.69536 1082.3654 116.37915
197.02036 1082.3654 116.37915
204.14407 1072.2513 141.41797
209.5164 1072.2513 141.41797
214.88853 1072.2513 141.41797
220.26068 1072.2513 141.41797
227.69493 1061.7628 167.38403
233.11615 1061.7628 167.38403
238.53758 1061.7628 167.38403
243.9588 1061.7628 167.38403
249.38004 1061.7628 167.38403
252.49408 1072.2513 141.41797
257.86621 1072.2513 141.41797
260.91888 1082.3654 116.37915
266.24368 1082.3654 116.37915
269.15411 1092.4792 91.34082
272.06128 1102.2188 67.229492
277.29312 1102.2188 67.229492
282.52521 1102.2188 67.229492
287.75708 1102.2188 67.229492
292.98892 1102.2188 67.229492
298.22101 1102.2188 67.229492
303.45288 1102.2188 67.229492
308.68497 1102.2188 67.229492
313.91681 1102.2188 67.229492
319.14865 1102.2188 67.229492
324.38077 1102.2188 67.229492
329.61261 1102.2188 67.229492
334.8447 1102.2188 67.229492
340.07654 1102.2188 67.229492
345.30841 1102.2188 67.229492
350.5405 1102.2188 67.229492
355.77234 1102.2188 67.229492
361.00443 1102.2188 67.229492
369.42734 1092.4792 91.34082
-11.14423 1024.4187 244.95923
-5.5721149 1024.4187 244.95923
0 1024.4187 244.95923
5.521163 1035.3287 218.08594
11.042537 1035.3287 218.08594
16.41116 1046.2388 191.21216
21.881683 1046.2388 191.21216
27.106535 1056.7725 165.26562
32.52776 1056.7725 165.26562
37.949188 1056.7725 165.26562
43.370415 1056.7725 165.26562
48.791843 1056.7725 165.26562
54.21307 1056.7725 165.26562
59.634293 1056.7725 165.26562
65.055725 1056.7725 165.26562
70.476952 1056.7725 165.26562
75.898376 1056.7725 165.26562
81.319603 1056.7725 165.26562
85.955338 1067.3062 139.31885
91.327667 1067.3062 139.31885
96.699806 1067.3062 139.31885
102.07214 1067.3062 139.31885
106.49747 1077.4637 114.29858
111.82227 1077.4637 114.29858
117.14725 1077.4637 114.29858
122.47205 1077.4637 114.29858
127.79705 1077.4637 114.29858
133.12184 1077.4637 114.29858
138.44662 1077.4637 114.29858
143.77162 1077.4637 114.29858
149.09642 1077.4637 114.29858
154.42142 1077.4637 114.29858
159.7462 1077.4637 114.29858
165.071 1077.4637 114.29858
170.396 1077.4637 114.29858
175.72078 1077.4637 114.29858
181.04578 1077.4637 114.29858
186.37057 1077.4637 114.29858
191.69536 1077.4637 114.29858
197.02036 1077.4637 114.29858
204.14407 1067.3062 139.31885
209.5164 1067.3062 139.31885
214.88853 1067.3062 139.31885
222.2735 1056.7725 165.26562
227.69493 1056.7725 165.26562
233.11615 1056.7725 165.26562
238.53758 1056.7725 165.26562
243.9588 1056.7725 165.26562
249.38004 1056.7725 165.26562
254.80147 1056.7725 165.26562
260.22269 1056.7725 165.26562
263.23856 1067.3062 139.31885
266.24368 1077.4637 114.29858
269.15411 1087.6213 89.278564
274.43176 1087.6213 89.278564
277.29312 1097.4027 65.185303
282.52521 1097.4027 65.185303
287.75708 1097.4027 65.185303
292.98892 1097.4027 65.185303
298.22101 1097.4027 65.185303
303.45288 1097.4027 65.185303
308.68497 1097.4027 65.185303
313.91681 1097.4027 65.185303
319.14865 1097.4027 65.185303
324.38077 1097.4027 65.185303
329.61261 1097.4027 65.185303
334.8447 1097.4027 65.185303
340.07654 1097.4027 65.185303
345.30841 1097.4027 65.185303
350.5405 1097.4027 65.185303
355.77234 1097.4027 65.185303
367.41635 1077.4637 114.29858
372.74115 1077.4637 114.29858
-11.14423 1019.2897 242.78198
-5.5721149 1019.2897 242.78198
0 1019.2897 242.78198
5.521163 1030.2463 215.92847
11.042537 1030.2463 215.92847
16.41116 1041.2032 189.07471
21.881683 1041.2032 189.07471
27.106535 1051.7821 163.14746
32.52776 1051.7821 163.14746
37.949188 1051.7821 163.14746
43.370415 1051.7821 163.14746
48.791843 1051.7821 163.14746
54.21307 1051.7821 163.14746
59.634293 1051.7821 163.14746
65.055725 1051.7821 163.14746
69.838737 1062.3611 137.21973
75.211067 1062.3611 137.21973
81.319603 1051.7821 163.14746
86.740829 1051.7821 163.14746
91.327667 1062.3611 137.21973
96.699806 1062.3611 137.21973
102.07214 1062.3611 137.21973
107.44427 1062.3611 137.21973
111.82227 1072.5623 112.21802
117.14725 1072.5623 112.21802
122.47205 1072.5623 112.21802
127.79705 1072.5623 112.21802
133.12184 1072.5623 112.21802
138.44662 1072.5623 112.21802
143.77162 1072.5623 112.21802
149.09642 1072.5623 112.21802
154.42142 1072.5623 112.21802
159.7462 1072.5623 112.21802
165.071 1072.5623 112.21802
170.396 1072.5623 112.21802
175.72078 1072.5623 112.21802
181.04578 1072.5623 112.21802
186.37057 1072.5623 112.21802
191.69536 1072.5623 112.21802
197.02036 1072.5623 112.21802
204.14407 1062.3611 137.21973
209.5164 1062.3611 137.21973
216.85228 1051.7821 163.14746
222.2735 1051.7821 163.14746
227.69493 1051.7821 163.14746
233.11615 1051.7821 163.14746
238.53758 1051.7821 163.14746
243.9588 1051.7821 163.14746
249.38004 1051.7821 163.14746
254.80147 1051.7821 163.14746
260.22269 1051.7821 163.14746
263.23856 1062.3611 137.21973
266.24368 1072.5623 112.21802
269.15411 1082.7633 87.216553
274.43176 1082.7633 87.216553
277.29312 1092.5867 63.140869
282.52521 1092.5867 63.140869
287.75708 1092.5867 63.140869
292.98892 1092.5867 63.140869
298.22101 1092.5867 63.140869
303.45288 1092.5867 63.140869
308.68497 1092.5867 63.140869
313.91681 1092.5867 63.140869
319.14865 1092.5867 63.140869
324.38077 1092.5867 63.140869
329.61261 1092.5867 63.140869
334.8447 1092.5867 63.140869
340.07654 1092.5867 63.140869
345.30841 1092.5867 63.140869
353.59479 1082.7633 87.216553
358.87225 1082.7633 87.216553
367.41635 1072.5623 112.21802
372.74115 1072.5623 112.21802
-11.14423 1014.1604 240.60474
-5.5721149 1014.1604 240.60474
0 1014.1604 240.60474
5.521163 1025.1639 213.77124
11.042537 1025.1639 213.77124
16.41116 1036.1676 186.93726
21.881683 1036.1676 186.93726
27.352001 1036.1676 186.93726
32.52776 1046.7917 161.02905
37.949188 1046.7917 161.02905
43.370415 1046.7917 161.02905
48.791843 1046.7917 161.02905
53.722134 1057.4158 135.12061
59.094265 1057.4158 135.12061
64.466599 1057.4158 135.12061
69.838737 1057.4158 135.12061
75.211067 1057.4158 135.12061
80.583206 1057.4158 135.12061
85.955338 1057.4158 135.12061
91.327667 1057.4158 135.12061
96.699806 1057.4158 135.12061
102.07214 1057.4158 135.12061
107.44427 1057.4158 135.12061
111.82227 1067.6605 110.13745
117.14725 1067.6605 110.13745
122.47205 1067.6605 110.13745
127.79705 1067.6605 110.13745
133.12184 1067.6605 110.13745
138.44662 1067.6605 110.13745
143.77162 1067.6605 110.13745
149.09642 1067.6605 110.13745
154.42142 1067.6605 110.13745
161.16641 1057.4158 135.12061
166.53854 1057.4158 135.12061
170.396 1067.6605 110.13745
175.72078 1067.6605 110.13745
181.04578 1067.6605 110.13745
188.02748 1057.4158 135.12061
193.39961 1057.4158 135.12061
198.77194 1057.4158 135.12061
204.14407 1057.4158 135.12061
209.5164 1057.4158 135.12061
216.85228 1046.7917 161.02905
222.2735 1046.7917 161.02905
227.69493 1046.7917 161.02905
233.11615 1046.7917 161.02905
238.53758 1046.7917 161.02905
243.9588 1046.7917 161.02905
249.38004 1046.7917 161.02905
254.80147 1046.7917 161.02905
260.22269 1046.7917 161.02905
265.6441 1046.7917 161.02905
266.24368 1067.6605 110.13745
269.15411 1077.9053 85.154297
274.43176 1077.9053 85.154297
277.29312 1087.7705 61.09668
282.52521 1087.7705 61.09668
287.75708 1087.7705 61.09668
292.98892 1087.7705 61.09668
298.22101 1087.7705 61.09668
303.45288 1087.7705 61.09668
308.68497 1087.7705 61.09668
313.91681 1087.7705 61.09668
319.14865 1087.7705 61.09668
324.38077 1087.7705 61.09668
329.61261 1087.7705 61.09668
334.8447 1087.7705 61.09668
340.07654 1087.7705 61.09668
345.30841 1087.7705 61.09668
353.59479 1077.9053 85.154297
358.87225 1077.9053 85.154297
367.41635 1067.6605 110.13745
372.74115 1067.6605 110.13745
-11.042537 1020.0817 211.61377
-5.5212684 1020.0817 211.61377
0 1009.0312 238.42773
5.5720086 1009.0312 238.42773
11.14423 1009.0312 238.42773
16.563698 1020.0817 211.61377
21.881683 1031.1321 184.7998
27.352001 1031.1321 184.7998
32.52776 1041.8014 158.91089
37.949188 1041.8014 158.91089
43.370415 1041.8014 158.91089
48.791843 1041.8014 158.91089
53.722134 1052.4707 133.02148
59.094265 1052.4707 133.02148
64.466599 1052.4707 133.02148
69.838737 1052.4707 133.02148
75.211067 1052.4707 133.02148
80.583206 1052.4707 133.02148
85.955338 1052.4707 133.02148
91.327667 1052.4707 133.02148
96.699806 1052.4707 133.02148
102.07214 1052.4707 133.02148
107.44427 1052.4707 133.02148
112.81641 1052.4707 133.02148
118.18874 1052.4707 133.02148
122.47205 1062.759 108.05688
127.79705 1062.759 108.05688
133.12184 1062.759 108.05688
138.44662 1062.759 108.05688
143.77162 1062.759 108.05688
149.09642 1062.759 108.05688
154.42142 1062.759 108.05688
159.7462 1062.759 108.05688
165.071 1062.759 108.05688
170.396 1062.759 108.05688
175.72078 1062.759 108.05688
181.04578 1062.759 108.05688
188.02748 1052.4707 133.02148
193.39961 1052.4707 133.02148
198.77194 1052.4707 133.02148
204.14407 1052.4707 133.02148
209.5164 1052.4707 133.02148
216.85228 1041.8014 158.91089
222.2735 1041.8014 158.91089
227.69493 1041.8014 158.91089
233.11615 1041.8014 158.91089
238.53758 1041.8014 158.91089
243.9588 1041.8014 158.91089
249.38004 1041.8014 158.91089
254.80147 1041.8014 158.91089
260.22269 1041.8014 158.91089
265.6441 1041.8014 158.91089
268.61069 1052.4707 133.02148
271.56848 1062.759 108.05688
274.43176 1073.0472 83.092285
277.29312 1082.9545 59.052246
282.52521 1082.9545 59.052246
287.75708 1082.9545 59.052246
292.98892 1082.9545 59.052246
298.22101 1082.9545 59.052246
303.45288 1082.9545 59.052246
308.68497 1082.9545 59.052246
313.91681 1082.9545 59.052246
319.14865 1082.9545 59.052246
324.38077 1082.9545 59.052246
329.61261 1082.9545 59.052246
334.8447 1082.9545 59.052246
340.07654 1082.9545 59.052246
348.31714 1073.0472 83.092285
353.59479 1073.0472 83.092285
358.87225 1073.0472 83.092285
367.41635 1062.759 108.05688
372.74115 1062.759 108.05688
-11.042537 1014.9993 209.45654
-5.5212684 1014.9993 209.45654
0 1003.9021 236.25049
5.5720086 1003.9021 236.25049
11.14423 1003.9021 236.25049
16.563698 1014.9993 209.45654
22.085073 1014.9993 209.45654
27.352001 1026.0966 182.66235
32.822319 1026.0966 182.66235
37.949188 1036.811 156.79248
43.370415 1036.811 156.79248
48.791843 1036.811 156.79248
54.21307 1036.811 156.79248
59.634293 1036.811 156.79248
64.466599 1047.5255 130.92236
69.838737 1047.5255 130.92236
75.211067 1047.5255 130.92236
80.583206 1047.5255 130.92236
85.955338 1047.5255 130.92236
91.327667 1047.5255 130.92236
96.699806 1047.5255 130.92236
102.07214 1047.5255 130.92236
107.44427 1047.5255 130.92236
112.81641 1047.5255 130.92236
118.18874 1047.5255 130.92236
123.56087 1047.5255 130.92236
128.9332 1047.5255 130.92236
133.12184 1057.8574 105.97632
138.44662 1057.8574 105.97632
143.77162 1057.8574 105.97632
149.09642 1057.8574 105.97632
154.42142 1057.8574 105.97632
159.7462 1057.8574 105.97632
165.071 1057.8574 105.97632
170.396 1057.8574 105.97632
175.72078 1057.8574 105.97632
181.04578 1057.8574 105.97632
188.02748 1047.5255 130.92236
193.39961 1047.5255 130.92236
198.77194 1047.5255 130.92236
204.14407 1047.5255 130.92236
209.5164 1047.5255 130.92236
216.85228 1036.811 156.79248
222.2735 1036.811 156.79248
227.69493 1036.811 156.79248
233.11615 1036.811 156.79248
238.53758 1036.811 156.79248
243.9588 1036.811 156.79248
249.38004 1036.811 156.79248
257.10886 1026.0966 182.66235
260.22269 1036.811 156.79248
265.6441 1036.811 156.79248
268.61069 1047.5255 130.92236
271.56848 1057.8574 105.97632
274.43176 1068.1892 81.030273
277.29312 1078.1384 57.008057
282.52521 1078.1384 57.008057
287.75708 1078.1384 57.008057
292.98892 1078.1384 57.008057
298.22101 1078.1384 57.008057
303.45288 1078.1384 57.008057
308.68497 1078.1384 57.008057
313.91681 1078.1384 57.008057
319.14865 1078.1384 57.008057
327.20712 1068.1892 81.030273
332.48459 1068.1892 81.030273
334.8447 1078.1384 57.008057
340.07654 1078.1384 57.008057
348.31714 1068.1892 81.030273
353.59479 1068.1892 81.030273
355.77234 1078.1384 57.008057
361.00443 1078.1384 57.008057
369.42734 1068.1892 81.030273
381.42706 1047.5255 130.92236
-5.6247149 987.24475 261.77075
0 998.77295 234.07324
5.5720086 998.77295 234.07324
11.14423 998.77295 234.07324
16.563698 1009.917 207.29932
22.085073 1009.917 207.29932
27.352001 1021.061 180.5249
32.822319 1021.061 180.5249
37.949188 1031.8207 154.67432
43.370415 1031.8207 154.67432
48.791843 1031.8207 154.67432
54.21307 1031.8207 154.67432
59.634293 1031.8207 154.67432
64.466599 1042.5803 128.82324
69.838737 1042.5803 128.82324
75.211067 1042.5803 128.82324
80.583206 1042.5803 128.82324
85.955338 1042.5803 128.82324
91.327667 1042.5803 128.82324
96.699806 1042.5803 128.82324
102.07214 1042.5803 128.82324
107.44427 1042.5803 128.82324
112.81641 1042.5803 128.82324
118.18874 1042.5803 128.82324
123.56087 1042.5803 128.82324
128.9332 1042.5803 128.82324
133.12184 1052.9559 103.89551
138.44662 1052.9559 103.89551
143.77162 1052.9559 103.89551
149.09642 1052.9559 103.89551
154.42142 1052.9559 103.89551
159.7462 1052.9559 103.89551
165.071 1052.9559 103.89551
170.396 1052.9559 103.89551
175.72078 1052.9559 103.89551
181.04578 1052.9559 103.89551
188.02748 1042.5803 128.82324
193.39961 1042.5803 128.82324
198.77194 1042.5803 128.82324
204.14407 1042.5803 128.82324
209.5164 1042.5803 128.82324
216.85228 1031.8207 154.67432
222.2735 1031.8207 154.67432
227.69493 1031.8207 154.67432
233.11615 1031.8207 154.67432
238.53758 1031.8207 154.67432
243.9588 1031.8207 154.67432
249.38004 1031.8207 154.67432
257.10886 1021.061 180.5249
262.57916 1021.061 180.5249
265.6441 1031.8207 154.67432
271.06534 1031.8207 154.67432
276.48657 1031.8207 154.67432
274.43176 1063.3313 78.968018
277.29312 1073.3225 54.963867
282.52521 1073.3225 54.963867
287.75708 1073.3225 54.963867
292.98892 1073.3225 54.963867
300.81946 1063.3313 78.968018
306.09692 1063.3313 78.968018
311.37454 1063.3313 78.968018
316.65201 1063.3313 78.968018
321.92947 1063.3313 78.968018
327.20712 1063.3313 78.968018
332.48459 1063.3313 78.968018
337.76221 1063.3313 78.968018
343.03967 1063.3313 78.968018
348.31714 1063.3313 78.968018
353.59479 1063.3313 78.968018
355.77234 1073.3225 54.963867
361.00443 1073.3225 54.963867
369.42734 1063.3313 78.968018
381.42706 1042.5803 128.82324
0 993.64392 231.896
5.5720086 993.64392 231.896
11.14423 993.64392 231.896
16.716238 993.64392 231.896
22.085073 1004.8346 205.14185
27.606234 1004.8346 205.14185
32.822319 1016.0255 178.38745
38.292843 1016.0255 178.38745
43.763157 1016.0255 178.38745
48.791843 1026.8303 152.55591
53.722134 1037.6353 126.72437
59.094265 1037.6353 126.72437
64.466599 1037.6353 126.72437
69.838737 1037.6353 126.72437
75.211067 1037.6353 126.72437
80.583206 1037.6353 126.72437
85.955338 1037.6353 126.72437
91.327667 1037.6353 126.72437
96.699806 1037.6353 126.72437
102.07214 1037.6353 126.72437
107.44427 1037.6353 126.72437
112.81641 1037.6353 126.72437
118.18874 1037.6353 126.72437
123.56087 1037.6353 126.72437
128.9332 1037.6353 126.72437
133.12184 1048.0543 101.81494
138.44662 1048.0543 101.81494
143.77162 1048.0543 101.81494
149.09642 1048.0543 101.81494
154.42142 1048.0543 101.81494
159.7462 1048.0543 101.81494
165.071 1048.0543 101.81494
170.396 1048.0543 101.81494
175.72078 1048.0543 101.81494
182.65533 1037.6353 126.72437
188.02748 1037.6353 126.72437
193.39961 1037.6353 126.72437
198.77194 1037.6353 126.72437
204.14407 1037.6353 126.72437
211.43105 1026.8303 152.55591
216.85228 1026.8303 152.55591
222.2735 1026.8303 152.55591
227.69493 1026.8303 152.55591
233.11615 1026.8303 152.55591
238.53758 1026.8303 152.55591
243.9588 1026.8303 152.55591
249.38004 1026.8303 152.55591
257.10886 1016.0255 178.38745
262.57916 1016.0255 178.38745
268.04968 1016.0255 178.38745
273.52002 1016.0255 178.38745
278.99033 1016.0255 178.38745
272.06128 1068.5065 52.919434
277.29312 1068.5065 52.919434
282.52521 1068.5065 52.919434
287.75708 1068.5065 52.919434
292.98892 1068.5065 52.919434
300.81946 1058.4733 76.906006
306.09692 1058.4733 76.906006
311.37454 1058.4733 76.906006
316.65201 1058.4733 76.906006
321.92947 1058.4733 76.906006
327.20712 1058.4733 76.906006
332.48459 1058.4733 76.906006
337.76221 1058.4733 76.906006
343.03967 1058.4733 76.906006
348.31714 1058.4733 76.906006
353.59479 1058.4733 76.906006
358.87225 1058.4733 76.906006
364.14987 1058.4733 76.906006
369.42734 1058.4733 76.906006
381.42706 1037.6353 126.72437
0 988.51477 229.71899
5.5720086 988.51477 229.71899
11.14423 988.51477 229.71899
16.716238 988.51477 229.71899
22.085073 999.75232 202.98462
27.606234 999.75232 202.98462
32.822319 1010.99 176.25
38.292843 1010.99 176.25
43.763157 1010.99 176.25
48.791843 1021.8401 150.43774
53.722134 1032.6901 124.62524
59.094265 1032.6901 124.62524
65.055725 1021.8401 150.43774
70.476952 1021.8401 150.43774
75.898376 1021.8401 150.43774
81.319603 1021.8401 150.43774
85.955338 1032.6901 124.62524
91.327667 1032.6901 124.62524
96.699806 1032.6901 124.62524
102.07214 1032.6901 124.62524
107.44427 1032.6901 124.62524
112.81641 1032.6901 124.62524
118.18874 1032.6901 124.62524
123.56087 1032.6901 124.62524
128.9332 1032.6901 124.62524
133.12184 1043.1527 99.734375
138.44662 1043.1527 99.734375
143.77162 1043.1527 99.734375
149.09642 1043.1527 99.734375
154.42142 1043.1527 99.734375
159.7462 1043.1527 99.734375
165.071 1043.1527 99.734375
170.396 1043.1527 99.734375
175.72078 1043.1527 99.734375
182.65533 1032.6901 124.62524
188.02748 1032.6901 124.62524
193.39961 1032.6901 124.62524
198.77194 1032.6901 124.62524
204.14407 1032.6901 124.62524
211.43105 1021.8401 150.43774
216.85228 1021.8401 150.43774
222.2735 1021.8401 150.43774
227.69493 1021.8401 150.43774
233.11615 1021.8401 150.43774
238.53758 1021.8401 150.43774
243.9588 1021.8401 150.43774
251.63832 1010.99 176.25
257.10886 1010.99 176.25
265.01981 999.75232 202.98462
270.54117 999.75232 202.98462
276.06235 999.75232 202.98462
281.58353 999.75232 202.98462
272.06128 1063.6904 50.875244
277.29312 1063.6904 50.875244
282.52521 1063.6904 50.875244
287.75708 1063.6904 50.875244
295.54181 1053.6152 74.843994
300.81946 1053.6152 74.843994
306.09692 1053.6152 74.843994
311.37454 1053.6152 74.843994
316.65201 1053.6152 74.843994
321.92947 1053.6152 74.843994
324.38077 1063.6904 50.875244
329.61261 1063.6904 50.875244
334.8447 1063.6904 50.875244
343.03967 1053.6152 74.843994
348.31714 1053.6152 74.843994
353.59479 1053.6152 74.843994
358.87225 1053.6152 74.843994
364.14987 1053.6152 74.843994
369.42734 1053.6152 74.843994
378.06595 1043.1527 99.734375
383.39093 1043.1527 99.734375
0 971.71216 255.17749
5.521163 994.66992 200.82715
11.042537 994.66992 200.82715
16.563698 994.66992 200.82715
22.085073 994.66992 200.82715
27.606234 994.66992 200.82715
33.127396 994.66992 200.82715
38.292843 1005.9545 174.11255
43.763157 1005.9545 174.11255
49.233688 1005.9545 174.11255
54.21307 1016.8497 148.31934
59.634293 1016.8497 148.31934
65.055725 1016.8497 148.31934
70.476952 1016.8497 148.31934
75.898376 1016.8497 148.31934
80.583206 1027.745 122.52612
85.955338 1027.745 122.52612
91.327667 1027.745 122.52612
96.699806 1027.745 122.52612
102.07214 1027.745 122.52612
107.44427 1027.745 122.52612
112.81641 1027.745 122.52612
118.18874 1027.745 122.52612
123.56087 1027.745 122.52612
128.9332 1027.745 122.52612
133.12184 1038.2512 97.653809
138.44662 1038.2512 97.653809
143.77162 1038.2512 97.653809
149.09642 1038.2512 97.653809
154.42142 1038.2512 97.653809
159.7462 1038.2512 97.653809
165.071 1038.2512 97.653809
170.396 1038.2512 97.653809
175.72078 1038.2512 97.653809
182.65533 1027.745 122.52612
188.02748 1027.745 122.52612
193.39961 1027.745 122.52612
198.77194 1027.745 122.52612
204.14407 1027.745 122.52612
211.43105 1016.8497 148.31934
216.85228 1016.8497 148.31934
222.2735 1016.8497 148.31934
227.69493 1016.8497 148.31934
233.11615 1016.8497 148.31934
238.53758 1016.8497 148.31934
246.16801 1005.9545 174.11255
251.63832 1005.9545 174.11255
257.10886 1005.9545 174.11255
265.01981 994.66992 200.82715
270.54117 994.66992 200.82715
276.06235 994.66992 200.82715
281.58353 994.66992 200.82715
272.06128 1058.8744 48.830811
277.29312 1058.8744 48.830811
282.52521 1058.8744 48.830811
287.75708 1058.8744 48.830811
295.54181 1048.7573 72.781738
300.81946 1048.7573 72.781738
306.09692 1048.7573 72.781738
311.37454 1048.7573 72.781738
316.65201 1048.7573 72.781738
319.14865 1058.8744 48.830811
324.38077 1058.8744 48.830811
329.61261 1058.8744 48.830811
334.8447 1058.8744 48.830811
340.07654 1058.8744 48.830811
345.30841 1058.8744 48.830811
353.59479 1048.7573 72.781738
358.87225 1048.7573 72.781738
364.14987 1048.7573 72.781738
369.42734 1048.7573 72.781738
378.06595 1038.2512 97.653809
383.39093 1038.2512 97.653809
388.71573 1038.2512 97.653809
5.521163 989.58765 198.66992
11.042537 989.58765 198.66992
16.563698 989.58765 198.66992
22.085073 989.58765 198.66992
27.606234 989.58765 198.66992
32.822319 1000.9189 171.9751
38.292843 1000.9189 171.9751
43.763157 1000.9189 171.9751
49.233688 1000.9189 171.9751
54.704002 1000.9189 171.9751
59.634293 1011.8594 146.20117
65.055725 1011.8594 146.20117
70.476952 1011.8594 146.20117
75.898376 1011.8594 146.20117
80.583206 1022.7998 120.427
85.955338 1022.7998 120.427
91.327667 1022.7998 120.427
96.699806 1022.7998 120.427
102.07214 1022.7998 120.427
107.44427 1022.7998 120.427
112.81641 1022.7998 120.427
118.18874 1022.7998 120.427
123.56087 1022.7998 120.427
128.9332 1022.7998 120.427
134.30534 1022.7998 120.427
139.67747 1022.7998 120.427
143.77162 1033.3496 95.573242
149.09642 1033.3496 95.573242
154.42142 1033.3496 95.573242
159.7462 1033.3496 95.573242
165.071 1033.3496 95.573242
170.396 1033.3496 95.573242
175.72078 1033.3496 95.573242
182.65533 1022.7998 120.427
188.02748 1022.7998 120.427
193.39961 1022.7998 120.427
198.77194 1022.7998 120.427
204.14407 1022.7998 120.427
209.5164 1022.7998 120.427
214.88853 1022.7998 120.427
222.2735 1011.8594 146.20117
227.69493 1011.8594 146.20117
233.11615 1011.8594 146.20117
238.53758 1011.8594 146.20117
243.9588 1011.8594 146.20117
249.38004 1011.8594 146.20117
257.10886 1000.9189 171.9751
265.01981 989.58765 198.66992
270.54117 989.58765 198.66992
276.06235 989.58765 198.66992
284.17667 978.25647 225.3645
282.52521 1054.0583 46.786621
287.75708 1054.0583 46.786621
295.54181 1043.8993 70.719727
300.81946 1043.8993 70.719727
306.09692 1043.8993 70.719727
311.37454 1043.8993 70.719727
313.91681 1054.0583 46.786621
319.14865 1054.0583 46.786621
324.38077 1054.0583 46.786621
329.61261 1054.0583 46.786621
334.8447 1054.0583 46.786621
340.07654 1054.0583 46.786621
345.30841 1054.0583 46.786621
350.5405 1054.0583 46.786621
355.77234 1054.0583 46.786621
364.14987 1043.8993 70.719727
369.42734 1043.8993 70.719727
378.06595 1033.3496 95.573242
379.98245 1043.8993 70.719727
385.25992 1043.8993 70.719727
0 995.8833 169.83765
5.4703169 995.8833 169.83765
10.940842 995.8833 169.83765
16.563698 984.50525 196.51245
21.881683 995.8833 169.83765
27.352001 995.8833 169.83765
32.822319 995.8833 169.83765
38.292843 995.8833 169.83765
43.763157 995.8833 169.83765
49.233688 995.8833 169.83765
54.704002 995.8833 169.83765
59.634293 1006.869 144.08276
65.055725 1006.869 144.08276
70.476952 1006.869 144.08276
75.898376 1006.869 144.08276
80.583206 1017.8546 118.32788
85.955338 1017.8546 118.32788
91.327667 1017.8546 118.32788
96.699806 1017.8546 118.32788
102.07214 1017.8546 118.32788
107.44427 1017.8546 118.32788
112.81641 1017.8546 118.32788
118.18874 1017.8546 118.32788
123.56087 1017.8546 118.32788
128.9332 1017.8546 118.32788
134.30534 1017.8546 118.32788
