ply
format ascii 1.0
comment PCL generated
element vertex 1593
property float x
property float y
property float z
element camera 0
property float view_px
property float view_py
property float view_pz
property float x_axisx
property float x_axisy
property float x_axisz
property float y_axisx
property float y_axisy
property float y_axisz
property float z_axisx
property float z_axisy
property float z_axisz
property float focal
property float scalex
property float scaley
property float centerx
property float centery
property int viewportx
property int viewporty
property float k1
property float k2
end_header
36.942772 1510.2668 268.68091
42.22023 1510.2668 268.68091
47.497883 1510.2668 268.68091
52.775333 1510.2668 268.68091
58.052788 1510.2668 268.68091
63.330441 1510.2668 268.68091
68.607895 1510.2668 268.68091
73.247337 1516.3975 243.03784
78.479202 1516.3975 243.03784
83.711067 1516.3975 243.03784
88.943138 1516.3975 243.03784
94.99556 1510.2668 268.68091
100.27322 1510.2668 268.68091
105.55067 1510.2668 268.68091
110.82812 1510.2668 268.68091
116.10578 1510.2668 268.68091
121.38322 1510.2668 268.68091
126.66088 1510.2668 268.68091
131.93834 1510.2668 268.68091
137.21579 1510.2668 268.68091
143.77162 1503.9005 295.3103
149.09642 1503.9005 295.3103
155.79427 1497.5341 321.9397
161.16641 1497.5341 321.9397
0 1505.4088 266.6189
5.2774534 1505.4088 266.6189
10.555108 1505.4088 266.6189
15.83256 1505.4088 266.6189
21.110216 1505.4088 266.6189
26.387667 1505.4088 266.6189
31.665119 1505.4088 266.6189
36.942772 1505.4088 266.6189
42.22023 1505.4088 266.6189
47.497883 1505.4088 266.6189
52.775333 1505.4088 266.6189
58.052788 1505.4088 266.6189
63.330441 1505.4088 266.6189
68.607895 1505.4088 266.6189
73.247337 1511.5814 240.99365
78.479202 1511.5814 240.99365
83.711067 1511.5814 240.99365
88.943138 1511.5814 240.99365
94.99556 1505.4088 266.6189
100.27322 1505.4088 266.6189
105.55067 1505.4088 266.6189
110.82812 1505.4088 266.6189
116.10578 1505.4088 266.6189
121.38322 1505.4088 266.6189
126.66088 1505.4088 266.6189
131.93834 1505.4088 266.6189
137.21579 1505.4088 266.6189
143.77162 1498.9989 293.22974
149.09642 1498.9989 293.22974
155.79427 1492.5889 319.84058
5.2774534 1500.5508 264.55688
10.555108 1500.5508 264.55688
15.83256 1500.5508 264.55688
21.110216 1500.5508 264.55688
26.387667 1500.5508 264.55688
31.665119 1500.5508 264.55688
36.942772 1500.5508 264.55688
42.22023 1500.5508 264.55688
47.497883 1500.5508 264.55688
52.775333 1500.5508 264.55688
58.052788 1500.5508 264.55688
63.330441 1500.5508 264.55688
68.607895 1500.5508 264.55688
73.885544 1500.5508 264.55688
79.163002 1500.5508 264.55688
84.44046 1500.5508 264.55688
89.718109 1500.5508 264.55688
94.99556 1500.5508 264.55688
100.27322 1500.5508 264.55688
105.55067 1500.5508 264.55688
110.82812 1500.5508 264.55688
116.10578 1500.5508 264.55688
121.38322 1500.5508 264.55688
126.66088 1500.5508 264.55688
131.93834 1500.5508 264.55688
137.21579 1500.5508 264.55688
143.77162 1494.0973 291.14893
149.09642 1494.0973 291.14893
10.649788 1489.1958 289.06836
15.83256 1495.6929 262.49463
21.110216 1495.6929 262.49463
26.387667 1495.6929 262.49463
31.665119 1495.6929 262.49463
36.942772 1495.6929 262.49463
42.22023 1495.6929 262.49463
47.497883 1495.6929 262.49463
52.775333 1495.6929 262.49463
58.052788 1495.6929 262.49463
63.330441 1495.6929 262.49463
68.607895 1495.6929 262.49463
73.885544 1495.6929 262.49463
79.163002 1495.6929 262.49463
84.44046 1495.6929 262.49463
89.718109 1495.6929 262.49463
94.99556 1495.6929 262.49463
100.27322 1495.6929 262.49463
105.55067 1495.6929 262.49463
110.82812 1495.6929 262.49463
116.10578 1495.6929 262.49463
121.38322 1495.6929 262.49463
126.66088 1495.6929 262.49463
131.93834 1495.6929 262.49463
137.21579 1495.6929 262.49463
143.77162 1489.1958 289.06836
149.09642 1489.1958 289.06836
10.649788 1484.2942 286.98779
15.83256 1490.8348 260.43262
21.110216 1490.8348 260.43262
26.387667 1490.8348 260.43262
31.665119 1490.8348 260.43262
36.942772 1490.8348 260.43262
42.22023 1490.8348 260.43262
47.497883 1490.8348 260.43262
52.775333 1490.8348 260.43262
58.052788 1490.8348 260.43262
63.330441 1490.8348 260.43262
68.607895 1490.8348 260.43262
73.885544 1490.8348 260.43262
79.163002 1490.8348 260.43262
84.44046 1490.8348 260.43262
89.718109 1490.8348 260.43262
94.99556 1490.8348 260.43262
100.27322 1490.8348 260.43262
105.55067 1490.8348 260.43262
110.82812 1490.8348 260.43262
116.10578 1490.8348 260.43262
121.38322 1490.8348 260.43262
126.66088 1490.8348 260.43262
131.93834 1490.8348 260.43262
137.21579 1490.8348 260.43262
143.77162 1484.2942 286.98779
149.09642 1484.2942 286.98779
10.744469 1472.8083 311.44434
15.97458 1479.3926 284.90723
21.110216 1485.9768 258.37061
26.387667 1485.9768 258.37061
31.665119 1485.9768 258.37061
36.942772 1485.9768 258.37061
42.22023 1485.9768 258.37061
47.497883 1485.9768 258.37061
52.775333 1485.9768 258.37061
58.052788 1485.9768 258.37061
63.330441 1485.9768 258.37061
68.607895 1485.9768 258.37061
73.885544 1485.9768 258.37061
79.163002 1485.9768 258.37061
84.44046 1485.9768 258.37061
89.718109 1485.9768 258.37061
94.99556 1485.9768 258.37061
100.27322 1485.9768 258.37061
105.55067 1485.9768 258.37061
110.82812 1485.9768 258.37061
116.10578 1485.9768 258.37061
121.38322 1485.9768 258.37061
126.66088 1485.9768 258.37061
131.93834 1485.9768 258.37061
137.21579 1485.9768 258.37061
143.77162 1479.3926 284.90723
10.744469 1467.8632 309.34521
16.116598 1467.8632 309.34521
21.299576 1474.4911 282.82666
26.624367 1474.4911 282.82666
31.94916 1474.4911 282.82666
36.942772 1481.1189 256.30835
42.22023 1481.1189 256.30835
47.497883 1481.1189 256.30835
52.775333 1481.1189 256.30835
58.052788 1481.1189 256.30835
63.330441 1481.1189 256.30835
68.607895 1481.1189 256.30835
73.885544 1481.1189 256.30835
79.163002 1481.1189 256.30835
84.44046 1481.1189 256.30835
89.718109 1481.1189 256.30835
94.99556 1481.1189 256.30835
100.27322 1481.1189 256.30835
105.55067 1481.1189 256.30835
110.82812 1481.1189 256.30835
116.10578 1481.1189 256.30835
121.38322 1481.1189 256.30835
126.66088 1481.1189 256.30835
131.93834 1481.1189 256.30835
137.21579 1481.1189 256.30835
142.49345 1481.1189 256.30835
16.116598 1462.9181 307.24609
21.299576 1469.5895 280.74609
26.624367 1469.5895 280.74609
31.94916 1469.5895 280.74609
36.942772 1476.2609 254.24634
42.22023 1476.2609 254.24634
47.497883 1476.2609 254.24634
52.775333 1476.2609 254.24634
58.052788 1476.2609 254.24634
63.330441 1476.2609 254.24634
68.607895 1476.2609 254.24634
73.885544 1476.2609 254.24634
79.163002 1476.2609 254.24634
84.44046 1476.2609 254.24634
89.718109 1476.2609 254.24634
94.99556 1476.2609 254.24634
100.27322 1476.2609 254.24634
105.55067 1476.2609 254.24634
110.82812 1476.2609 254.24634
116.10578 1476.2609 254.24634
121.38322 1476.2609 254.24634
126.66088 1476.2609 254.24634
131.93834 1476.2609 254.24634
137.21579 1476.2609 254.24634
16.116598 1457.9729 305.14697
21.488937 1457.9729 305.14697
26.624367 1464.688 278.66553
31.94916 1464.688 278.66553
36.942772 1471.4028 252.18433
42.22023 1471.4028 252.18433
47.497883 1471.4028 252.18433
52.775333 1471.4028 252.18433
58.052788 1471.4028 252.18433
63.330441 1471.4028 252.18433
68.607895 1471.4028 252.18433
73.885544 1471.4028 252.18433
79.163002 1471.4028 252.18433
84.44046 1471.4028 252.18433
89.718109 1471.4028 252.18433
94.99556 1471.4028 252.18433
100.27322 1471.4028 252.18433
105.55067 1471.4028 252.18433
110.82812 1471.4028 252.18433
116.10578 1471.4028 252.18433
121.38322 1471.4028 252.18433
127.79705 1464.688 278.66553
131.93834 1471.4028 252.18433
137.21579 1471.4028 252.18433
16.116598 1453.0278 303.04785
21.488937 1453.0278 303.04785
26.624367 1459.7864 276.58496
31.94916 1459.7864 276.58496
36.942772 1466.5449 250.12207
42.22023 1466.5449 250.12207
47.497883 1466.5449 250.12207
52.775333 1466.5449 250.12207
58.052788 1466.5449 250.12207
63.330441 1466.5449 250.12207
68.607895 1466.5449 250.12207
73.885544 1466.5449 250.12207
79.163002 1466.5449 250.12207
84.44046 1466.5449 250.12207
89.718109 1466.5449 250.12207
94.99556 1466.5449 250.12207
100.27322 1466.5449 250.12207
105.55067 1466.5449 250.12207
110.82812 1466.5449 250.12207
116.10578 1466.5449 250.12207
122.47205 1459.7864 276.58496
127.79705 1459.7864 276.58496
133.12184 1459.7864 276.58496
138.44662 1459.7864 276.58496
146.37532 1446.0189 330.49097
16.116598 1448.0825 300.94873
21.488937 1448.0825 300.94873
26.624367 1454.8848 274.50439
31.94916 1454.8848 274.50439
37.274155 1454.8848 274.50439
42.22023 1461.6869 248.06006
47.497883 1461.6869 248.06006
52.775333 1461.6869 248.06006
58.052788 1461.6869 248.06006
63.330441 1461.6869 248.06006
68.607895 1461.6869 248.06006
73.885544 1461.6869 248.06006
79.163002 1461.6869 248.06006
84.44046 1461.6869 248.06006
89.718109 1461.6869 248.06006
94.99556 1461.6869 248.06006
100.27322 1461.6869 248.06006
105.55067 1461.6869 248.06006
110.82812 1461.6869 248.06006
117.14725 1454.8848 274.50439
123.56087 1448.0825 300.94873
128.9332 1448.0825 300.94873
134.30534 1448.0825 300.94873
139.67747 1448.0825 300.94873
146.37532 1441.0286 328.37256
16.116598 1443.1375 298.84985
21.488937 1443.1375 298.84985
26.861067 1443.1375 298.84985
32.233196 1443.1375 298.84985
37.274155 1449.9833 272.42383
42.598946 1449.9833 272.42383
47.497883 1456.8289 245.99805
52.775333 1456.8289 245.99805
58.052788 1456.8289 245.99805
63.330441 1456.8289 245.99805
68.607895 1456.8289 245.99805
73.885544 1456.8289 245.99805
79.163002 1456.8289 245.99805
84.44046 1456.8289 245.99805
89.718109 1456.8289 245.99805
94.99556 1456.8289 245.99805
100.27322 1456.8289 245.99805
105.55067 1456.8289 245.99805
111.82227 1449.9833 272.42383
117.14725 1449.9833 272.42383
123.56087 1443.1375 298.84985
130.11145 1436.0382 326.25439
135.53267 1436.0382 326.25439
140.9539 1436.0382 326.25439
146.37532 1436.0382 326.25439
5.3247924 1445.0817 270.34326
10.649788 1445.0817 270.34326
16.116598 1438.1923 296.75073
21.488937 1438.1923 296.75073
26.861067 1438.1923 296.75073
32.233196 1438.1923 296.75073
37.605534 1438.1923 296.75073
42.977669 1438.1923 296.75073
47.923943 1445.0817 270.34326
52.775333 1451.9709 243.93579
58.052788 1451.9709 243.93579
63.330441 1451.9709 243.93579
68.607895 1451.9709 243.93579
73.885544 1451.9709 243.93579
79.163002 1451.9709 243.93579
84.44046 1451.9709 243.93579
89.718109 1451.9709 243.93579
94.99556 1451.9709 243.93579
100.27322 1451.9709 243.93579
105.55067 1451.9709 243.93579
111.82227 1445.0817 270.34326
117.14725 1445.0817 270.34326
123.56087 1438.1923 296.75073
130.11145 1431.0479 324.13623
135.53267 1431.0479 324.13623
140.9539 1431.0479 324.13623
146.37532 1431.0479 324.13623
153.17117 1423.9036 351.52148
160.11624 1416.5038 379.88501
0 1426.0576 322.01782
5.3247924 1440.1801 268.26245
10.649788 1440.1801 268.26245
16.116598 1433.2472 294.65161
21.488937 1433.2472 294.65161
26.861067 1433.2472 294.65161
32.233196 1433.2472 294.65161
37.605534 1433.2472 294.65161
42.977669 1433.2472 294.65161
48.350006 1433.2472 294.65161
53.248734 1440.1801 268.26245
58.052788 1447.1129 241.87378
63.330441 1447.1129 241.87378
69.223312 1440.1801 268.26245
73.885544 1447.1129 241.87378
79.163002 1447.1129 241.87378
84.44046 1447.1129 241.87378
89.718109 1447.1129 241.87378
95.847679 1440.1801 268.26245
101.17268 1440.1801 268.26245
106.49747 1440.1801 268.26245
111.82227 1440.1801 268.26245
118.18874 1433.2472 294.65161
124.69002 1426.0576 322.01782
131.28969 1418.8679 349.38403
136.76001 1418.8679 349.38403
142.23032 1418.8679 349.38403
147.70084 1418.8679 349.38403
153.17117 1418.8679 349.38403
160.11624 1411.4214 377.72778
165.63741 1411.4214 377.72778
-10.940842 1413.8323 347.24634
-5.4704208 1413.8323 347.24634
0 1421.0671 319.89966
5.3721313 1428.302 292.55249
10.744469 1428.302 292.55249
16.116598 1428.302 292.55249
21.488937 1428.302 292.55249
27.106535 1421.0671 319.89966
32.52776 1421.0671 319.89966
37.949188 1421.0671 319.89966
43.370415 1421.0671 319.89966
48.350006 1428.302 292.55249
53.722134 1428.302 292.55249
58.573528 1435.2784 266.18188
63.898525 1435.2784 266.18188
69.223312 1435.2784 266.18188
73.885544 1442.2549 239.81152
79.163002 1442.2549 239.81152
84.44046 1442.2549 239.81152
90.522888 1435.2784 266.18188
95.847679 1435.2784 266.18188
101.17268 1435.2784 266.18188
107.44427 1428.302 292.55249
112.81641 1428.302 292.55249
119.26879 1421.0671 319.89966
124.69002 1421.0671 319.89966
131.28969 1413.8323 347.24634
136.76001 1413.8323 347.24634
142.23032 1413.8323 347.24634
147.70084 1413.8323 347.24634
154.59486 1406.339 375.57031
160.11624 1406.339 375.57031
165.63741 1406.339 375.57031
172.73482 1398.8458 403.89404
179.99023 1391.0942 433.19458
185.61484 1391.0942 433.19458
-21.881578 1408.7969 345.10889
-16.41116 1408.7969 345.10889
-10.940842 1408.7969 345.10889
-5.4704208 1408.7969 345.10889
0 1416.0769 317.78125
5.4212241 1416.0769 317.78125
10.842655 1416.0769 317.78125
16.26388 1416.0769 317.78125
21.68531 1416.0769 317.78125
27.106535 1416.0769 317.78125
32.52776 1416.0769 317.78125
37.949188 1416.0769 317.78125
43.370415 1416.0769 317.78125
48.791843 1416.0769 317.78125
53.722134 1423.3568 290.45337
58.573528 1430.377 264.10132
63.898525 1430.377 264.10132
69.223312 1430.377 264.10132
74.548309 1430.377 264.10132
79.8731 1430.377 264.10132
85.197891 1430.377 264.10132
90.522888 1430.377 264.10132
95.847679 1430.377 264.10132
101.17268 1430.377 264.10132
107.44427 1423.3568 290.45337
113.84736 1416.0769 317.78125
119.26879 1416.0769 317.78125
125.81916 1408.7969 345.10889
131.28969 1408.7969 345.10889
136.76001 1408.7969 345.10889
142.23032 1408.7969 345.10889
149.07372 1401.2567 373.41309
154.59486 1401.2567 373.41309
160.11624 1401.2567 373.41309
167.16281 1393.7167 401.7168
172.73482 1393.7167 401.7168
179.99023 1385.9167 430.99683
185.61484 1385.9167 430.99683
191.23967 1385.9167 430.99683
196.86427 1385.9167 430.99683
204.38248 1378.1167 460.27661
210.05991 1378.1167 460.27661
-32.822422 1403.7612 342.97144
-27.352001 1403.7612 342.97144
-21.881578 1403.7612 342.97144
-16.41116 1403.7612 342.97144
-10.842655 1411.0865 315.66309
-5.4213276 1411.0865 315.66309
0 1411.0865 315.66309
5.4212241 1411.0865 315.66309
10.842655 1411.0865 315.66309
16.26388 1411.0865 315.66309
21.68531 1411.0865 315.66309
27.106535 1411.0865 315.66309
32.52776 1411.0865 315.66309
37.949188 1411.0865 315.66309
43.370415 1411.0865 315.66309
48.791843 1411.0865 315.66309
54.21307 1411.0865 315.66309
59.094265 1418.4116 288.35425
64.466599 1418.4116 288.35425
69.838737 1418.4116 288.35425
75.211067 1418.4116 288.35425
80.583206 1418.4116 288.35425
85.955338 1418.4116 288.35425
91.327667 1418.4116 288.35425
97.583481 1411.0865 315.66309
103.00491 1411.0865 315.66309
108.42614 1411.0865 315.66309
113.84736 1411.0865 315.66309
120.34885 1403.7612 342.97144
125.81916 1403.7612 342.97144
131.28969 1403.7612 342.97144
136.76001 1403.7612 342.97144
142.23032 1403.7612 342.97144
149.07372 1396.1743 371.25586
154.59486 1396.1743 371.25586
160.11624 1396.1743 371.25586
167.16281 1388.5875 399.53979
174.36542 1380.7391 428.79907
179.99023 1380.7391 428.79907
185.61484 1380.7391 428.79907
191.23967 1380.7391 428.79907
196.86427 1380.7391 428.79907
204.38248 1372.8906 458.05835
210.05991 1372.8906 458.05835
215.73711 1372.8906 458.05835
221.41454 1372.8906 458.05835
-38.292843 1398.7258 340.83398
-32.527863 1406.0962 313.54468
-27.106535 1406.0962 313.54468
-21.685207 1406.0962 313.54468
-16.26388 1406.0962 313.54468
-10.842655 1406.0962 313.54468
-5.4213276 1406.0962 313.54468
0 1406.0962 313.54468
5.4212241 1406.0962 313.54468
10.842655 1406.0962 313.54468
16.26388 1406.0962 313.54468
21.68531 1406.0962 313.54468
27.106535 1406.0962 313.54468
32.52776 1406.0962 313.54468
37.949188 1406.0962 313.54468
43.370415 1406.0962 313.54468
48.791843 1406.0962 313.54468
54.21307 1406.0962 313.54468
59.634293 1406.0962 313.54468
65.055725 1406.0962 313.54468
70.476952 1406.0962 313.54468
75.898376 1406.0962 313.54468
81.319603 1406.0962 313.54468
86.740829 1406.0962 313.54468
92.162254 1406.0962 313.54468
97.583481 1406.0962 313.54468
103.00491 1406.0962 313.54468
108.42614 1406.0962 313.54468
113.84736 1406.0962 313.54468
120.34885 1398.7258 340.83398
125.81916 1398.7258 340.83398
131.28969 1398.7258 340.83398
136.76001 1398.7258 340.83398
142.23032 1398.7258 340.83398
149.07372 1391.092 369.09839
154.59486 1391.092 369.09839
160.11624 1391.092 369.09839
167.16281 1383.4585 397.36255
172.73482 1383.4585 397.36255
179.99023 1375.5615 426.60132
185.61484 1375.5615 426.60132
191.23967 1375.5615 426.60132
196.86427 1375.5615 426.60132
204.38248 1367.6648 455.84009
210.05991 1367.6648 455.84009
215.73711 1367.6648 455.84009
221.41454 1367.6648 455.84009
227.09174 1367.6648 455.84009
232.76895 1367.6648 455.84009
-54.704002 1393.6902 338.69653
-48.79174 1401.1058 311.42651
-43.370415 1401.1058 311.42651
-38.292843 1393.6902 338.69653
-32.233299 1408.5214 284.15601
-26.861067 1408.5214 284.15601
-21.488834 1408.5214 284.15601
-16.116598 1408.5214 284.15601
-10.744469 1408.5214 284.15601
-5.4213276 1401.1058 311.42651
0 1401.1058 311.42651
5.4212241 1401.1058 311.42651
10.842655 1401.1058 311.42651
16.26388 1401.1058 311.42651
21.68531 1401.1058 311.42651
27.106535 1401.1058 311.42651
32.52776 1401.1058 311.42651
37.949188 1401.1058 311.42651
43.370415 1401.1058 311.42651
48.791843 1401.1058 311.42651
54.21307 1401.1058 311.42651
59.634293 1401.1058 311.42651
65.055725 1401.1058 311.42651
70.476952 1401.1058 311.42651
75.898376 1401.1058 311.42651
81.319603 1401.1058 311.42651
86.740829 1401.1058 311.42651
92.162254 1401.1058 311.42651
97.583481 1401.1058 311.42651
103.00491 1401.1058 311.42651
108.42614 1401.1058 311.42651
113.84736 1401.1058 311.42651
120.34885 1393.6902 338.69653
125.81916 1393.6902 338.69653
131.28969 1393.6902 338.69653
136.76001 1393.6902 338.69653
142.23032 1393.6902 338.69653
149.07372 1386.0098 366.94116
154.59486 1386.0098 366.94116
160.11624 1386.0098 366.94116
165.63741 1386.0098 366.94116
172.73482 1378.3293 395.1853
178.30704 1378.3293 395.1853
185.61484 1370.384 424.40356
191.23967 1370.384 424.40356
196.86427 1370.384 424.40356
204.38248 1362.4387 453.62183
210.05991 1362.4387 453.62183
215.73711 1362.4387 453.62183
221.41454 1362.4387 453.62183
227.09174 1362.4387 453.62183
232.76895 1362.4387 453.62183
238.44638 1362.4387 453.62183
244.12358 1362.4387 453.62183
-65.055725 1396.1155 309.30811
-59.634396 1396.1155 309.30811
-54.21307 1396.1155 309.30811
-48.79174 1396.1155 309.30811
-43.370415 1396.1155 309.30811
-37.605534 1403.5762 282.05713
-32.233299 1403.5762 282.05713
-26.624367 1410.7706 255.77905
-21.299473 1410.7706 255.77905
-16.116598 1403.5762 282.05713
-10.744469 1403.5762 282.05713
-5.3722343 1403.5762 282.05713
0 1396.1155 309.30811
5.4212241 1396.1155 309.30811
10.842655 1396.1155 309.30811
16.26388 1396.1155 309.30811
21.68531 1396.1155 309.30811
27.106535 1396.1155 309.30811
32.52776 1396.1155 309.30811
37.949188 1396.1155 309.30811
43.370415 1396.1155 309.30811
48.791843 1396.1155 309.30811
54.21307 1396.1155 309.30811
59.634293 1396.1155 309.30811
65.055725 1396.1155 309.30811
70.476952 1396.1155 309.30811
75.898376 1396.1155 309.30811
81.319603 1396.1155 309.30811
86.740829 1396.1155 309.30811
92.996849 1388.6548 336.55908
98.467163 1388.6548 336.55908
103.93769 1388.6548 336.55908
109.408 1388.6548 336.55908
114.87832 1388.6548 336.55908
120.34885 1388.6548 336.55908
125.81916 1388.6548 336.55908
131.28969 1388.6548 336.55908
136.76001 1388.6548 336.55908
142.23032 1388.6548 336.55908
147.70084 1388.6548 336.55908
154.59486 1380.9274 364.78369
160.11624 1380.9274 364.78369
165.63741 1380.9274 364.78369
172.73482 1373.2002 393.00806
178.30704 1373.2002 393.00806
185.61484 1365.2064 422.20581
191.23967 1365.2064 422.20581
196.86427 1365.2064 422.20581
202.48888 1365.2064 422.20581
210.05991 1357.2128 451.40332
215.73711 1357.2128 451.40332
221.41454 1357.2128 451.40332
227.09174 1357.2128 451.40332
232.76895 1357.2128 451.40332
238.44638 1357.2128 451.40332
244.12358 1357.2128 451.40332
249.80101 1357.2128 451.40332
255.47821 1357.2128 451.40332
-75.210968 1398.6311 279.95801
-69.838737 1398.6311 279.95801
-64.466599 1398.6311 279.95801
-59.094368 1398.6311 279.95801
-53.722134 1398.6311 279.95801
-48.349903 1398.6311 279.95801
-42.977669 1398.6311 279.95801
-37.605534 1398.6311 279.95801
-31.949263 1405.869 253.69824
-26.624367 1405.869 253.69824
-21.299473 1405.869 253.69824
-15.97458 1405.869 253.69824
-10.649788 1405.869 253.69824
-5.324894 1405.869 253.69824
0 1398.6311 279.95801
5.3721313 1398.6311 279.95801
10.842655 1391.1251 307.18994
16.26388 1391.1251 307.18994
21.68531 1391.1251 307.18994
27.106535 1391.1251 307.18994
32.52776 1391.1251 307.18994
37.949188 1391.1251 307.18994
43.370415 1391.1251 307.18994
48.791843 1391.1251 307.18994
54.21307 1391.1251 307.18994
59.634293 1391.1251 307.18994
65.055725 1391.1251 307.18994
70.476952 1391.1251 307.18994
75.898376 1391.1251 307.18994
81.319603 1391.1251 307.18994
87.526314 1383.6191 334.42163
92.996849 1383.6191 334.42163
98.467163 1383.6191 334.42163
103.93769 1383.6191 334.42163
109.408 1383.6191 334.42163
114.87832 1383.6191 334.42163
120.34885 1383.6191 334.42163
125.81916 1383.6191 334.42163
131.28969 1383.6191 334.42163
136.76001 1383.6191 334.42163
142.23032 1383.6191 334.42163
147.70084 1383.6191 334.42163
154.59486 1375.8451 362.62646
160.11624 1375.8451 362.62646
165.63741 1375.8451 362.62646
172.73482 1368.071 390.83105
178.30704 1368.071 390.83105
183.87904 1368.071 390.83105
191.23967 1360.0289 420.0083
196.86427 1360.0289 420.0083
202.48888 1360.0289 420.0083
208.11371 1360.0289 420.0083
213.73831 1360.0289 420.0083
221.41454 1351.9868 449.18506
227.09174 1351.9868 449.18506
232.76895 1351.9868 449.18506
238.44638 1351.9868 449.18506
244.12358 1351.9868 449.18506
249.80101 1351.9868 449.18506
255.47821 1351.9868 449.18506
261.15543 1351.9868 449.18506
-85.955437 1393.6859 277.85889
-80.583206 1393.6859 277.85889
-75.210968 1393.6859 277.85889
-69.838737 1393.6859 277.85889
-64.466599 1393.6859 277.85889
-59.094368 1393.6859 277.85889
-53.722134 1393.6859 277.85889
-48.349903 1393.6859 277.85889
-42.977669 1393.6859 277.85889
-37.274155 1400.9675 251.61768
-31.66522 1408.2489 225.37695
-26.387667 1408.2489 225.37695
-21.110115 1408.2489 225.37695
-15.97458 1400.9675 251.61768
-10.649788 1400.9675 251.61768
-5.324894 1400.9675 251.61768
0 1393.6859 277.85889
5.3721313 1393.6859 277.85889
10.842655 1386.1348 305.07178
16.26388 1386.1348 305.07178
21.68531 1386.1348 305.07178
27.106535 1386.1348 305.07178
32.52776 1386.1348 305.07178
37.949188 1386.1348 305.07178
43.370415 1386.1348 305.07178
48.791843 1386.1348 305.07178
54.21307 1386.1348 305.07178
59.634293 1386.1348 305.07178
65.055725 1386.1348 305.07178
70.476952 1386.1348 305.07178
75.898376 1386.1348 305.07178
81.319603 1386.1348 305.07178
87.526314 1378.5837 332.28418
92.996849 1378.5837 332.28418
98.467163 1378.5837 332.28418
103.93769 1378.5837 332.28418
109.408 1378.5837 332.28418
114.87832 1378.5837 332.28418
120.34885 1378.5837 332.28418
125.81916 1378.5837 332.28418
131.28969 1378.5837 332.28418
136.76001 1378.5837 332.28418
142.23032 1378.5837 332.28418
147.70084 1378.5837 332.28418
154.59486 1370.7627 360.46924
160.11624 1370.7627 360.46924
165.63741 1370.7627 360.46924
171.15857 1370.7627 360.46924
178.30704 1362.9419 388.65381
183.87904 1362.9419 388.65381
189.45126 1362.9419 388.65381
196.86427 1354.8513 417.81055
202.48888 1354.8513 417.81055
208.11371 1354.8513 417.81055
213.73831 1354.8513 417.81055
221.41454 1346.7609 446.9668
227.09174 1346.7609 446.9668
232.76895 1346.7609 446.9668
238.44638 1346.7609 446.9668
244.12358 1346.7609 446.9668
249.80101 1346.7609 446.9668
255.47821 1346.7609 446.9668
261.15543 1346.7609 446.9668
266.83286 1346.7609 446.9668
275.11899 1338.4006 477.09521
-91.327667 1388.7408 275.75977
-85.955437 1388.7408 275.75977
-80.583206 1388.7408 275.75977
-75.210968 1388.7408 275.75977
-69.838737 1388.7408 275.75977
-64.466599 1388.7408 275.75977
-58.573627 1396.0659 249.53711
-53.248734 1396.0659 249.53711
-47.92384 1396.0659 249.53711
-42.598946 1396.0659 249.53711
-37.274155 1396.0659 249.53711
-31.66522 1403.3909 223.31494
-26.387667 1403.3909 223.31494
-21.110115 1403.3909 223.31494
-15.83256 1403.3909 223.31494
-10.649788 1396.0659 249.53711
-5.324894 1396.0659 249.53711
0 1388.7408 275.75977
5.3721313 1388.7408 275.75977
10.744469 1388.7408 275.75977
16.116598 1388.7408 275.75977
21.68531 1381.1445 302.95337
27.106535 1381.1445 302.95337
32.52776 1381.1445 302.95337
37.949188 1381.1445 302.95337
43.370415 1381.1445 302.95337
48.791843 1381.1445 302.95337
54.21307 1381.1445 302.95337
59.634293 1381.1445 302.95337
65.055725 1381.1445 302.95337
70.476952 1381.1445 302.95337
75.898376 1381.1445 302.95337
81.319603 1381.1445 302.95337
86.740829 1381.1445 302.95337
92.996849 1373.5481 330.14673
98.467163 1373.5481 330.14673
103.93769 1373.5481 330.14673
109.408 1373.5481 330.14673
114.87832 1373.5481 330.14673
120.34885 1373.5481 330.14673
126.98864 1365.6804 358.31177
131.28969 1373.5481 330.14673
136.76001 1373.5481 330.14673
142.23032 1373.5481 330.14673
147.70084 1373.5481 330.14673
153.17117 1373.5481 330.14673
158.64169 1373.5481 330.14673
165.63741 1365.6804 358.31177
171.15857 1365.6804 358.31177
176.67995 1365.6804 358.31177
183.87904 1357.8127 386.47656
189.45126 1357.8127 386.47656
195.02327 1357.8127 386.47656
202.48888 1349.6738 415.61279
208.11371 1349.6738 415.61279
213.73831 1349.6738 415.61279
219.36314 1349.6738 415.61279
227.09174 1341.5349 444.74854
232.76895 1341.5349 444.74854
238.44638 1341.5349 444.74854
244.12358 1341.5349 444.74854
249.80101 1341.5349 444.74854
255.47821 1341.5349 444.74854
261.15543 1341.5349 444.74854
266.83286 1341.5349 444.74854
275.11899 1333.1245 474.85571
280.8508 1333.1245 474.85571
-91.327667 1383.7957 273.66064
-85.955437 1383.7957 273.66064
-80.583206 1383.7957 273.66064
-75.210968 1383.7957 273.66064
-69.838737 1383.7957 273.66064
-64.466599 1383.7957 273.66064
-58.573627 1391.1643 247.45654
-53.248734 1391.1643 247.45654
-47.92384 1391.1643 247.45654
-42.598946 1391.1643 247.45654
-37.274155 1391.1643 247.45654
-31.66522 1398.533 221.25269
-26.387667 1398.533 221.25269
-21.110115 1398.533 221.25269
-15.83256 1398.533 221.25269
-10.555108 1398.533 221.25269
-5.324894 1391.1643 247.45654
0 1391.1643 247.45654
5.3247924 1391.1643 247.45654
10.744469 1383.7957 273.66064
16.116598 1383.7957 273.66064
21.68531 1376.1542 300.83521
27.106535 1376.1542 300.83521
32.52776 1376.1542 300.83521
37.949188 1376.1542 300.83521
43.370415 1376.1542 300.83521
48.791843 1376.1542 300.83521
54.21307 1376.1542 300.83521
59.634293 1376.1542 300.83521
65.055725 1376.1542 300.83521
70.476952 1376.1542 300.83521
75.898376 1376.1542 300.83521
81.319603 1376.1542 300.83521
86.740829 1376.1542 300.83521
92.162254 1376.1542 300.83521
97.583481 1376.1542 300.83521
103.00491 1376.1542 300.83521
109.408 1368.5127 328.00928
114.87832 1368.5127 328.00928
120.34885 1368.5127 328.00928
126.98864 1360.5981 356.15454
131.28969 1368.5127 328.00928
136.76001 1368.5127 328.00928
142.23032 1368.5127 328.00928
147.70084 1368.5127 328.00928
153.17117 1368.5127 328.00928
158.64169 1368.5127 328.00928
165.63741 1360.5981 356.15454
171.15857 1360.5981 356.15454
176.67995 1360.5981 356.15454
183.87904 1352.6836 384.29932
189.45126 1352.6836 384.29932
195.02327 1352.6836 384.29932
202.48888 1344.4962 413.41504
208.11371 1344.4962 413.41504
213.73831 1344.4962 413.41504
219.36314 1344.4962 413.41504
224.98775 1344.4962 413.41504
230.61235 1344.4962 413.41504
238.44638 1336.3088 442.53027
244.12358 1336.3088 442.53027
249.80101 1336.3088 442.53027
255.47821 1336.3088 442.53027
261.15543 1336.3088 442.53027
266.83286 1336.3088 442.53027
272.51004 1336.3088 442.53027
280.8508 1327.8486 472.61621
-96.699806 1378.8506 271.56152
-91.327667 1378.8506 271.56152
-85.955437 1378.8506 271.56152
-80.583206 1378.8506 271.56152
-75.210968 1378.8506 271.56152
-69.838737 1378.8506 271.56152
-63.898525 1386.2628 245.37598
-58.573627 1386.2628 245.37598
-53.248734 1386.2628 245.37598
-47.92384 1386.2628 245.37598
-42.598946 1386.2628 245.37598
-37.274155 1386.2628 245.37598
-31.66522 1393.6749 219.19067
-26.387667 1393.6749 219.19067
-21.110115 1393.6749 219.19067
-15.83256 1393.6749 219.19067
-10.555108 1393.6749 219.19067
-5.324894 1386.2628 245.37598
0 1386.2628 245.37598
5.3247924 1386.2628 245.37598
10.744469 1378.8506 271.56152
16.116598 1378.8506 271.56152
21.488937 1378.8506 271.56152
27.106535 1371.1638 298.7168
32.52776 1371.1638 298.7168
37.949188 1371.1638 298.7168
43.370415 1371.1638 298.7168
48.791843 1371.1638 298.7168
54.21307 1371.1638 298.7168
59.634293 1371.1638 298.7168
65.055725 1371.1638 298.7168
70.476952 1371.1638 298.7168
75.898376 1371.1638 298.7168
81.319603 1371.1638 298.7168
86.740829 1371.1638 298.7168
92.162254 1371.1638 298.7168
97.583481 1371.1638 298.7168
103.00491 1371.1638 298.7168
109.408 1363.4771 325.87183
114.87832 1363.4771 325.87183
120.34885 1363.4771 325.87183
126.98864 1355.5157 353.99707
132.51001 1355.5157 353.99707
138.03117 1355.5157 353.99707
143.55234 1355.5157 353.99707
149.07372 1355.5157 353.99707
153.17117 1363.4771 325.87183
158.64169 1363.4771 325.87183
164.112 1363.4771 325.87183
171.15857 1355.5157 353.99707
176.67995 1355.5157 353.99707
182.2011 1355.5157 353.99707
189.45126 1347.5544 382.12231
195.02327 1347.5544 382.12231
200.59528 1347.5544 382.12231
208.11371 1339.3187 411.21729
213.73831 1339.3187 411.21729
219.36314 1339.3187 411.21729
224.98775 1339.3187 411.21729
230.61235 1339.3187 411.21729
236.23717 1339.3187 411.21729
241.86177 1339.3187 411.21729
249.80101 1331.0829 440.31201
255.47821 1331.0829 440.31201
261.15543 1331.0829 440.31201
266.83286 1331.0829 440.31201
272.51004 1331.0829 440.31201
280.8508 1322.5725 470.37671
-96.699806 1373.9054 269.4624
-91.327667 1373.9054 269.4624
-85.955437 1373.9054 269.4624
-80.583206 1373.9054 269.4624
-75.210968 1373.9054 269.4624
-69.838737 1373.9054 269.4624
-63.898525 1381.3612 243.29541
-58.573627 1381.3612 243.29541
-53.248734 1381.3612 243.29541
-47.92384 1381.3612 243.29541
-42.598946 1381.3612 243.29541
-37.274155 1381.3612 243.29541
-31.66522 1388.817 217.12866
-26.387667 1388.817 217.12866
-21.110115 1388.817 217.12866
-15.83256 1388.817 217.12866
-10.555108 1388.817 217.12866
-5.324894 1381.3612 243.29541
0 1381.3612 243.29541
5.3247924 1381.3612 243.29541
10.744469 1373.9054 269.4624
16.116598 1373.9054 269.4624
21.488937 1373.9054 269.4624
27.106535 1366.1735 296.59863
32.52776 1366.1735 296.59863
37.949188 1366.1735 296.59863
43.370415 1366.1735 296.59863
48.791843 1366.1735 296.59863
54.21307 1366.1735 296.59863
59.634293 1366.1735 296.59863
65.055725 1366.1735 296.59863
70.476952 1366.1735 296.59863
75.898376 1366.1735 296.59863
81.319603 1366.1735 296.59863
86.740829 1366.1735 296.59863
92.162254 1366.1735 296.59863
97.583481 1366.1735 296.59863
103.00491 1366.1735 296.59863
109.408 1358.4417 323.73438
114.87832 1358.4417 323.73438
120.34885 1358.4417 323.73438
126.98864 1350.4333 351.83984
132.51001 1350.4333 351.83984
138.03117 1350.4333 351.83984
143.55234 1350.4333 351.83984
149.07372 1350.4333 351.83984
153.17117 1358.4417 323.73438
158.64169 1358.4417 323.73438
164.112 1358.4417 323.73438
171.15857 1350.4333 351.83984
176.67995 1350.4333 351.83984
182.2011 1350.4333 351.83984
187.72247 1350.4333 351.83984
195.02327 1342.4253 379.94507
200.59528 1342.4253 379.94507
206.16751 1342.4253 379.94507
213.73831 1334.1411 409.01953
219.36314 1334.1411 409.01953
224.98775 1334.1411 409.01953
230.61235 1334.1411 409.01953
236.23717 1334.1411 409.01953
241.86177 1334.1411 409.01953
249.80101 1325.8569 438.09375
255.47821 1325.8569 438.09375
261.15543 1325.8569 438.09375
266.83286 1325.8569 438.09375
272.51004 1325.8569 438.09375
278.18747 1325.8569 438.09375
286.58234 1317.2966 468.13721
292.3139 1317.2966 468.13721
-96.699806 1368.9602 267.36328
-91.327667 1368.9602 267.36328
-85.955437 1368.9602 267.36328
-80.583206 1368.9602 267.36328
-75.210968 1368.9602 267.36328
-69.223312 1376.4597 241.21484
-63.898525 1376.4597 241.21484
-58.573627 1376.4597 241.21484
-53.248734 1376.4597 241.21484
-47.92384 1376.4597 241.21484
-42.598946 1376.4597 241.21484
-37.274155 1376.4597 241.21484
-31.66522 1383.959 215.06641
-26.387667 1383.959 215.06641
-21.110115 1383.959 215.06641
-15.83256 1383.959 215.06641
-10.649788 1376.4597 241.21484
-5.324894 1376.4597 241.21484
0 1376.4597 241.21484
5.3247924 1376.4597 241.21484
10.744469 1368.9602 267.36328
16.116598 1368.9602 267.36328
21.488937 1368.9602 267.36328
27.106535 1361.1831 294.48022
32.52776 1361.1831 294.48022
37.949188 1361.1831 294.48022
43.370415 1361.1831 294.48022
48.791843 1361.1831 294.48022
54.21307 1361.1831 294.48022
59.634293 1361.1831 294.48022
65.055725 1361.1831 294.48022
70.476952 1361.1831 294.48022
75.898376 1361.1831 294.48022
81.319603 1361.1831 294.48022
86.740829 1361.1831 294.48022
92.162254 1361.1831 294.48022
97.583481 1361.1831 294.48022
103.00491 1361.1831 294.48022
108.42614 1361.1831 294.48022
114.87832 1353.406 321.59692
120.34885 1353.406 321.59692
125.81916 1353.406 321.59692
132.51001 1345.3511 349.68262
138.03117 1345.3511 349.68262
143.55234 1345.3511 349.68262
149.07372 1345.3511 349.68262
154.59486 1345.3511 349.68262
160.11624 1345.3511 349.68262
165.63741 1345.3511 349.68262
171.15857 1345.3511 349.68262
176.67995 1345.3511 349.68262
182.2011 1345.3511 349.68262
187.72247 1345.3511 349.68262
195.02327 1337.2963 377.76782
200.59528 1337.2963 377.76782
206.16751 1337.2963 377.76782
213.73831 1328.9636 406.82178
219.36314 1328.9636 406.82178
224.98775 1328.9636 406.82178
230.61235 1328.9636 406.82178
236.23717 1328.9636 406.82178
241.86177 1328.9636 406.82178
247.4866 1328.9636 406.82178
253.11121 1328.9636 406.82178
261.15543 1320.631 435.87549
266.83286 1320.631 435.87549
272.51004 1320.631 435.87549
278.18747 1320.631 435.87549
283.86469 1320.631 435.87549
292.3139 1312.0205 465.89771
-96.699806 1364.0151 265.2644
-91.327667 1364.0151 265.2644
-85.955437 1364.0151 265.2644
-80.583206 1364.0151 265.2644
-75.210968 1364.0151 265.2644
-69.223312 1371.5581 239.13428
-63.898525 1371.5581 239.13428
-58.573627 1371.5581 239.13428
-53.248734 1371.5581 239.13428
-47.92384 1371.5581 239.13428
-42.598946 1371.5581 239.13428
-37.274155 1371.5581 239.13428
-31.66522 1379.101 213.00439
-26.387667 1379.101 213.00439
-21.110115 1379.101 213.00439
-15.83256 1379.101 213.00439
-10.649788 1371.5581 239.13428
-5.324894 1371.5581 239.13428
0 1371.5581 239.13428
5.3247924 1371.5581 239.13428
10.744469 1364.0151 265.2644
16.116598 1364.0151 265.2644
21.488937 1364.0151 265.2644
27.106535 1356.1929 292.36206
32.52776 1356.1929 292.36206
37.949188 1356.1929 292.36206
43.370415 1356.1929 292.36206
48.791843 1356.1929 292.36206
54.21307 1356.1929 292.36206
59.634293 1356.1929 292.36206
65.055725 1356.1929 292.36206
70.476952 1356.1929 292.36206
75.898376 1356.1929 292.36206
81.319603 1356.1929 292.36206
86.740829 1356.1929 292.36206
92.162254 1356.1929 292.36206
97.583481 1356.1929 292.36206
103.00491 1356.1929 292.36206
108.42614 1356.1929 292.36206
114.87832 1348.3705 319.45947
120.34885 1348.3705 319.45947
125.81916 1348.3705 319.45947
132.51001 1340.2688 347.52515
138.03117 1340.2688 347.52515
143.55234 1340.2688 347.52515
149.07372 1340.2688 347.52515
154.59486 1340.2688 347.52515
160.11624 1340.2688 347.52515
165.63741 1340.2688 347.52515
171.15857 1340.2688 347.52515
176.67995 1340.2688 347.52515
182.2011 1340.2688 347.52515
187.72247 1340.2688 347.52515
195.02327 1332.1671 375.59058
200.59528 1332.1671 375.59058
206.16751 1332.1671 375.59058
213.73831 1323.786 404.62402
219.36314 1323.786 404.62402
224.98775 1323.786 404.62402
230.61235 1323.786 404.62402
236.23717 1323.786 404.62402
241.86177 1323.786 404.62402
247.4866 1323.786 404.62402
253.11121 1323.786 404.62402
261.15543 1315.405 433.65723
266.83286 1315.405 433.65723
272.51004 1315.405 433.65723
278.18747 1315.405 433.65723
283.86469 1315.405 433.65723
292.3139 1306.7446 463.6582
-96.699806 1359.0699 263.16528
-90.522888 1366.6565 237.05371
-85.197998 1366.6565 237.05371
-79.8731 1366.6565 237.05371
-74.54821 1366.6565 237.05371
-69.223312 1366.6565 237.05371
-63.898525 1366.6565 237.05371
-58.573627 1366.6565 237.05371
-53.248734 1366.6565 237.05371
-47.92384 1366.6565 237.05371
-42.598946 1366.6565 237.05371
-37.274155 1366.6565 237.05371
-31.66522 1374.243 210.94238
-26.387667 1374.243 210.94238
-21.110115 1374.243 210.94238
-15.83256 1374.243 210.94238
-10.649788 1366.6565 237.05371
-5.324894 1366.6565 237.05371
0 1366.6565 237.05371
5.3247924 1366.6565 237.05371
10.649788 1366.6565 237.05371
16.116598 1359.0699 263.16528
21.488937 1359.0699 263.16528
26.861067 1359.0699 263.16528
32.233196 1359.0699 263.16528
37.949188 1351.2025 290.24365
43.370415 1351.2025 290.24365
48.791843 1351.2025 290.24365
54.21307 1351.2025 290.24365
59.634293 1351.2025 290.24365
65.055725 1351.2025 290.24365
70.476952 1351.2025 290.24365
75.898376 1351.2025 290.24365
81.319603 1351.2025 290.24365
86.740829 1351.2025 290.24365
92.162254 1351.2025 290.24365
97.583481 1351.2025 290.24365
103.00491 1351.2025 290.24365
108.42614 1351.2025 290.24365
114.87832 1343.335 317.32202
120.34885 1343.335 317.32202
125.81916 1343.335 317.32202
132.51001 1335.1864 345.36792
138.03117 1335.1864 345.36792
143.55234 1335.1864 345.36792
149.07372 1335.1864 345.36792
154.59486 1335.1864 345.36792
160.11624 1335.1864 345.36792
165.63741 1335.1864 345.36792
171.15857 1335.1864 345.36792
176.67995 1335.1864 345.36792
182.2011 1335.1864 345.36792
187.72247 1335.1864 345.36792
195.02327 1327.038 373.41357
200.59528 1327.038 373.41357
206.16751 1327.038 373.41357
213.73831 1318.6085 402.42627
219.36314 1318.6085 402.42627
224.98775 1318.6085 402.42627
230.61235 1318.6085 402.42627
236.23717 1318.6085 402.42627
241.86177 1318.6085 402.42627
247.4866 1318.6085 402.42627
253.11121 1318.6085 402.42627
258.73581 1318.6085 402.42627
266.83286 1310.179 431.43872
272.51004 1310.179 431.43872
278.18747 1310.179 431.43872
283.86469 1310.179 431.43872
-95.847679 1361.7549 234.9729
-90.522888 1361.7549 234.9729
-85.197998 1361.7549 234.9729
-79.8731 1361.7549 234.9729
-74.54821 1361.7549 234.9729
-69.223312 1361.7549 234.9729
-63.898525 1361.7549 234.9729
-58.573627 1361.7549 234.9729
-53.248734 1361.7549 234.9729
-47.92384 1361.7549 234.9729
-42.598946 1361.7549 234.9729
-37.274155 1361.7549 234.9729
-31.66522 1369.3849 208.88013
-26.387667 1369.3849 208.88013
-21.110115 1369.3849 208.88013
-15.83256 1369.3849 208.88013
-10.649788 1361.7549 234.9729
-5.324894 1361.7549 234.9729
0 1361.7549 234.9729
5.3247924 1361.7549 234.9729
10.649788 1361.7549 234.9729
16.116598 1354.1248 261.06616
21.488937 1354.1248 261.06616
26.861067 1354.1248 261.06616
32.233196 1354.1248 261.06616
37.949188 1346.212 288.12549
43.370415 1346.212 288.12549
48.791843 1346.212 288.12549
54.21307 1346.212 288.12549
59.634293 1346.212 288.12549
65.055725 1346.212 288.12549
70.476952 1346.212 288.12549
75.898376 1346.212 288.12549
81.319603 1346.212 288.12549
86.740829 1346.212 288.12549
92.162254 1346.212 288.12549
97.583481 1346.212 288.12549
103.00491 1346.212 288.12549
108.42614 1346.212 288.12549
113.84736 1346.212 288.12549
120.34885 1338.2994 315.18457
125.81916 1338.2994 315.18457
131.28969 1338.2994 315.18457
136.76001 1338.2994 315.18457
143.55234 1330.104 343.21045
149.07372 1330.104 343.21045
154.59486 1330.104 343.21045
160.11624 1330.104 343.21045
165.63741 1330.104 343.21045
171.15857 1330.104 343.21045
176.67995 1330.104 343.21045
182.2011 1330.104 343.21045
187.72247 1330.104 343.21045
195.02327 1321.9087 371.23633
200.59528 1321.9087 371.23633
206.16751 1321.9087 371.23633
213.73831 1313.4309 400.22852
219.36314 1313.4309 400.22852
224.98775 1313.4309 400.22852
230.61235 1313.4309 400.22852
236.23717 1313.4309 400.22852
241.86177 1313.4309 400.22852
247.4866 1313.4309 400.22852
253.11121 1313.4309 400.22852
258.73581 1313.4309 400.22852
266.83286 1304.953 429.22046
272.51004 1304.953 429.22046
278.18747 1304.953 429.22046
283.86469 1304.953 429.22046
-95.847679 1356.8533 232.89233
-90.522888 1356.8533 232.89233
-85.197998 1356.8533 232.89233
-79.8731 1356.8533 232.89233
-74.54821 1356.8533 232.89233
-69.223312 1356.8533 232.89233
-63.898525 1356.8533 232.89233
-58.573627 1356.8533 232.89233
-53.248734 1356.8533 232.89233
-47.92384 1356.8533 232.89233
-42.598946 1356.8533 232.89233
-37.274155 1356.8533 232.89233
-31.66522 1364.527 206.81812
-26.387667 1364.527 206.81812
-21.110115 1364.527 206.81812
-15.83256 1364.527 206.81812
-10.649788 1356.8533 232.89233
-5.324894 1356.8533 232.89233
0 1356.8533 232.89233
5.3247924 1356.8533 232.89233
10.649788 1356.8533 232.89233
16.116598 1349.1796 258.96704
21.488937 1349.1796 258.96704
26.861067 1349.1796 258.96704
32.233196 1349.1796 258.96704
37.949188 1341.2217 286.00732
43.370415 1341.2217 286.00732
48.791843 1341.2217 286.00732
54.21307 1341.2217 286.00732
59.634293 1341.2217 286.00732
65.055725 1341.2217 286.00732
70.476952 1341.2217 286.00732
75.898376 1341.2217 286.00732
81.319603 1341.2217 286.00732
86.740829 1341.2217 286.00732
92.162254 1341.2217 286.00732
97.583481 1341.2217 286.00732
103.00491 1341.2217 286.00732
108.42614 1341.2217 286.00732
113.84736 1341.2217 286.00732
120.34885 1333.2639 313.04712
125.81916 1333.2639 313.04712
131.28969 1333.2639 313.04712
136.76001 1333.2639 313.04712
142.23032 1333.2639 313.04712
149.07372 1325.0217 341.05322
154.59486 1325.0217 341.05322
160.11624 1325.0217 341.05322
165.63741 1325.0217 341.05322
171.15857 1325.0217 341.05322
176.67995 1325.0217 341.05322
182.2011 1325.0217 341.05322
189.45126 1316.7797 369.05908
195.02327 1316.7797 369.05908
200.59528 1316.7797 369.05908
208.11371 1308.2533 398.03076
213.73831 1308.2533 398.03076
219.36314 1308.2533 398.03076
224.98775 1308.2533 398.03076
230.61235 1308.2533 398.03076
236.23717 1308.2533 398.03076
241.86177 1308.2533 398.03076
247.4866 1308.2533 398.03076
253.11121 1308.2533 398.03076
258.73581 1308.2533 398.03076
266.83286 1299.7271 427.0022
272.51004 1299.7271 427.0022
278.18747 1299.7271 427.0022
286.58234 1290.9165 456.93945
-95.847679 1351.9518 230.81177
-90.522888 1351.9518 230.81177
-85.197998 1351.9518 230.81177
-79.8731 1351.9518 230.81177
-74.54821 1351.9518 230.81177
-69.223312 1351.9518 230.81177
-63.898525 1351.9518 230.81177
-58.052891 1359.6689 204.7561
-52.775333 1359.6689 204.7561
-47.49778 1359.6689 204.7561
-42.22023 1359.6689 204.7561
-37.274155 1351.9518 230.81177
-31.66522 1359.6689 204.7561
-26.387667 1359.6689 204.7561
-21.110115 1359.6689 204.7561
-15.83256 1359.6689 204.7561
-10.649788 1351.9518 230.81177
-5.324894 1351.9518 230.81177
0 1351.9518 230.81177
5.3247924 1351.9518 230.81177
10.649788 1351.9518 230.81177
16.116598 1344.2344 256.86792
21.488937 1344.2344 256.86792
26.861067 1344.2344 256.86792
32.233196 1344.2344 256.86792
37.605534 1344.2344 256.86792
43.370415 1336.2314 283.88892
48.791843 1336.2314 283.88892
54.21307 1336.2314 283.88892
59.634293 1336.2314 283.88892
65.055725 1336.2314 283.88892
70.476952 1336.2314 283.88892
75.898376 1336.2314 283.88892
81.319603 1336.2314 283.88892
86.740829 1336.2314 283.88892
92.162254 1336.2314 283.88892
97.583481 1336.2314 283.88892
103.93769 1328.2284 310.90967
109.408 1328.2284 310.90967
114.87832 1328.2284 310.90967
120.34885 1328.2284 310.90967
125.81916 1328.2284 310.90967
131.28969 1328.2284 310.90967
136.76001 1328.2284 310.90967
142.23032 1328.2284 310.90967
149.07372 1319.9393 338.896
154.59486 1319.9393 338.896
160.11624 1319.9393 338.896
165.63741 1319.9393 338.896
171.15857 1319.9393 338.896
176.67995 1319.9393 338.896
182.2011 1319.9393 338.896
189.45126 1311.6505 366.88184
195.02327 1311.6505 366.88184
200.59528 1311.6505 366.88184
208.11371 1303.0758 395.83301
213.73831 1303.0758 395.83301
219.36314 1303.0758 395.83301
224.98775 1303.0758 395.83301
230.61235 1303.0758 395.83301
236.23717 1303.0758 395.83301
241.86177 1303.0758 395.83301
247.4866 1303.0758 395.83301
253.11121 1303.0758 395.83301
258.73581 1303.0758 395.83301
266.83286 1294.5011 424.78394
272.51004 1294.5011 424.78394
278.18747 1294.5011 424.78394
283.86469 1294.5011 424.78394
-95.847679 1347.0502 228.7312
-90.522888 1347.0502 228.7312
-85.197998 1347.0502 228.7312
-79.163002 1354.811 202.69385
-73.885452 1354.811 202.69385
-68.607895 1354.811 202.69385
-63.330441 1354.811 202.69385
-58.052891 1354.811 202.69385
-52.775333 1354.811 202.69385
-47.49778 1354.811 202.69385
-42.22023 1354.811 202.69385
-37.274155 1347.0502 228.7312
-31.66522 1354.811 202.69385
-26.387667 1354.811 202.69385
-21.110115 1354.811 202.69385
-15.83256 1354.811 202.69385
-10.649788 1347.0502 228.7312
-5.324894 1347.0502 228.7312
0 1347.0502 228.7312
5.3247924 1347.0502 228.7312
10.649788 1347.0502 228.7312
16.116598 1339.2893 254.7688
21.488937 1339.2893 254.7688
26.861067 1339.2893 254.7688
32.233196 1339.2893 254.7688
37.605534 1339.2893 254.7688
43.370415 1331.2411 281.77075
48.791843 1331.2411 281.77075
54.21307 1331.2411 281.77075
59.634293 1331.2411 281.77075
65.055725 1331.2411 281.77075
70.476952 1331.2411 281.77075
75.898376 1331.2411 281.77075
82.056 1323.1929 308.77222
87.526314 1323.1929 308.77222
92.996849 1323.1929 308.77222
98.467163 1323.1929 308.77222
103.93769 1323.1929 308.77222
109.408 1323.1929 308.77222
114.87832 1323.1929 308.77222
120.34885 1323.1929 308.77222
125.81916 1323.1929 308.77222
131.28969 1323.1929 308.77222
136.76001 1323.1929 308.77222
142.23032 1323.1929 308.77222
149.07372 1314.8571 336.73853
154.59486 1314.8571 336.73853
160.11624 1314.8571 336.73853
167.16281 1306.5214 364.70459
172.73482 1306.5214 364.70459
178.30704 1306.5214 364.70459
183.87904 1306.5214 364.70459
189.45126 1306.5214 364.70459
195.02327 1306.5214 364.70459
202.48888 1297.8982 393.63525
208.11371 1297.8982 393.63525
213.73831 1297.8982 393.63525
219.36314 1297.8982 393.63525
224.98775 1297.8982 393.63525
230.61235 1297.8982 393.63525
236.23717 1297.8982 393.63525
241.86177 1297.8982 393.63525
247.4866 1297.8982 393.63525
253.11121 1297.8982 393.63525
258.73581 1297.8982 393.63525
266.83286 1289.275 422.56567
272.51004 1289.275 422.56567
278.18747 1289.275 422.56567
283.86469 1289.275 422.56567
-95.847679 1342.1487 226.65063
-90.522888 1342.1487 226.65063
-84.440552 1349.953 200.63184
-79.163002 1349.953 200.63184
-73.885452 1349.953 200.63184
-68.607895 1349.953 200.63184
-63.330441 1349.953 200.63184
-58.052891 1349.953 200.63184
-52.775333 1349.953 200.63184
-47.49778 1349.953 200.63184
-42.22023 1349.953 200.63184
-37.274155 1342.1487 226.65063
-31.66522 1349.953 200.63184
-26.387667 1349.953 200.63184
-21.110115 1349.953 200.63184
-15.83256 1349.953 200.63184
-10.649788 1342.1487 226.65063
-5.324894 1342.1487 226.65063
0 1342.1487 226.65063
5.3247924 1342.1487 226.65063
10.649788 1342.1487 226.65063
16.116598 1334.3441 252.66968
21.488937 1334.3441 252.66968
26.861067 1334.3441 252.66968
32.233196 1334.3441 252.66968
37.605534 1334.3441 252.66968
43.370415 1326.2507 279.65234
48.791843 1326.2507 279.65234
54.21307 1326.2507 279.65234
59.634293 1326.2507 279.65234
65.055725 1326.2507 279.65234
70.476952 1326.2507 279.65234
76.585686 1318.1572 306.63477
82.056 1318.1572 306.63477
87.526314 1318.1572 306.63477
92.996849 1318.1572 306.63477
98.467163 1318.1572 306.63477
103.93769 1318.1572 306.63477
109.408 1318.1572 306.63477
114.87832 1318.1572 306.63477
120.34885 1318.1572 306.63477
125.81916 1318.1572 306.63477
131.28969 1318.1572 306.63477
136.76001 1318.1572 306.63477
142.23032 1318.1572 306.63477
149.07372 1309.7747 334.5813
154.59486 1309.7747 334.5813
160.11624 1309.7747 334.5813
165.63741 1309.7747 334.5813
171.15857 1309.7747 334.5813
178.30704 1301.3922 362.52759
183.87904 1301.3922 362.52759
189.45126 1301.3922 362.52759
195.02327 1301.3922 362.52759
