ply
format ascii 1.0
comment PCL generated
element vertex 1549
property float x
property float y
property float z
element camera 0
property float view_px
property float view_py
property float view_pz
property float x_axisx
property float x_axisy
property float x_axisz
property float y_axisx
property float y_axisy
property float y_axisz
property float z_axisx
property float z_axisy
property float z_axisz
property float focal
property float scalex
property float scaley
property float centerx
property float centery
property int viewportx
property int viewporty
property float k1
property float k2
end_header
0 1310.5426 19.862549
5.0127034 1310.5426 19.862549
10.025599 1310.5426 19.862549
14.791082 1325.4935 -24.850098
19.721569 1325.4935 -24.850098
24.651867 1325.4935 -24.850098
29.340206 1332.8098 -46.730713
34.230366 1332.8098 -46.730713
39.120335 1332.8098 -46.730713
44.010494 1332.8098 -46.730713
48.900467 1332.8098 -46.730713
53.79044 1332.8098 -46.730713
58.680603 1332.8098 -46.730713
63.570568 1332.8098 -46.730713
68.460732 1332.8098 -46.730713
73.3507 1332.8098 -46.730713
78.240669 1332.8098 -46.730713
83.130836 1332.8098 -46.730713
88.020805 1332.8098 -46.730713
92.910973 1332.8098 -46.730713
97.800934 1332.8098 -46.730713
102.6909 1332.8098 -46.730713
107.58107 1332.8098 -46.730713
112.47104 1332.8098 -46.730713
117.36121 1332.8098 -46.730713
122.25117 1332.8098 -46.730713
127.14114 1332.8098 -46.730713
132.03131 1332.8098 -46.730713
136.92126 1332.8098 -46.730713
141.81143 1332.8098 -46.730713
145.5442 1339.8081 -67.660156
150.3956 1339.8081 -67.660156
156.48154 1332.8098 -46.730713
161.37152 1332.8098 -46.730713
-306.34244 1222.4822 266.02319
-300.87201 1222.4822 266.02319
-295.40158 1222.4822 266.02319
-289.93118 1222.4822 266.02319
-284.46085 1222.4822 266.02319
-278.99042 1222.4822 266.02319
-273.52002 1222.4822 266.02319
-270.54108 1213.2103 293.59204
-265.01981 1213.2103 293.59204
-259.49866 1213.2103 293.59204
-253.97739 1213.2103 293.59204
-248.45612 1213.2103 293.59204
-245.1721 1203.9386 321.16089
-237.41357 1213.2103 293.59204
-231.89241 1213.2103 293.59204
-226.37114 1213.2103 293.59204
-220.84987 1213.2103 293.59204
-215.3286 1213.2103 293.59204
-209.80733 1213.2103 293.59204
-206.16751 1203.9386 321.16089
-200.59538 1203.9386 321.16089
-195.02327 1203.9386 321.16089
-46.282722 1282.2693 88.251953
-40.789509 1290.2622 64.48584
-35.38406 1298.2552 40.719482
-30.329182 1298.2552 40.719482
-25.0639 1305.9283 17.904053
-20.051102 1305.9283 17.904053
-15.038302 1305.9283 17.904053
-10.025599 1305.9283 17.904053
-5.0127993 1305.9283 17.904053
0 1305.9283 17.904053
4.970624 1313.6016 -4.9116211
9.9414377 1313.6016 -4.9116211
14.791082 1320.9551 -26.776367
19.721569 1320.9551 -26.776367
24.651867 1320.9551 -26.776367
29.340206 1328.3086 -48.641357
34.230366 1328.3086 -48.641357
39.120335 1328.3086 -48.641357
44.010494 1328.3086 -48.641357
48.900467 1328.3086 -48.641357
53.79044 1328.3086 -48.641357
58.680603 1328.3086 -48.641357
63.570568 1328.3086 -48.641357
68.460732 1328.3086 -48.641357
73.3507 1328.3086 -48.641357
78.240669 1328.3086 -48.641357
83.130836 1328.3086 -48.641357
88.020805 1328.3086 -48.641357
92.910973 1328.3086 -48.641357
97.800934 1328.3086 -48.641357
102.6909 1328.3086 -48.641357
108.46826 1320.9551 -26.776367
112.47104 1328.3086 -48.641357
117.36121 1328.3086 -48.641357
122.25117 1328.3086 -48.641357
127.14114 1328.3086 -48.641357
132.03131 1328.3086 -48.641357
136.92126 1328.3086 -48.641357
141.81143 1328.3086 -48.641357
145.5442 1335.3423 -69.555664
150.3956 1335.3423 -69.555664
156.48154 1328.3086 -48.641357
161.37152 1328.3086 -48.641357
166.26167 1328.3086 -48.641357
-306.34244 1217.4468 263.88574
-300.87201 1217.4468 263.88574
-295.40158 1217.4468 263.88574
-289.93118 1217.4468 263.88574
-284.46085 1217.4468 263.88574
-278.99042 1217.4468 263.88574
-273.52002 1217.4468 263.88574
-270.54108 1208.1281 291.43481
-265.01981 1208.1281 291.43481
-259.49866 1208.1281 291.43481
-253.97739 1208.1281 291.43481
-248.45612 1208.1281 291.43481
-242.93484 1208.1281 291.43481
-237.41357 1208.1281 291.43481
-231.89241 1208.1281 291.43481
-226.37114 1208.1281 291.43481
-220.84987 1208.1281 291.43481
-215.3286 1208.1281 291.43481
-209.80733 1208.1281 291.43481
-204.28618 1208.1281 291.43481
-200.59538 1198.8094 318.98364
-195.02327 1198.8094 318.98364
-189.45117 1198.8094 318.98364
-182.2011 1208.1281 291.43481
-176.67995 1208.1281 291.43481
-171.15868 1208.1281 291.43481
-170.3188 1179.5295 375.98145
-164.64149 1179.5295 375.98145
-50.986935 1285.5688 62.493408
-45.888226 1285.5688 62.493408
-40.789509 1285.5688 62.493408
-35.38406 1293.6023 38.744385
-30.329182 1293.6023 38.744385
-25.0639 1301.3141 15.945312
-20.051102 1301.3141 15.945312
-15.038302 1301.3141 15.945312
-10.025599 1301.3141 15.945312
-4.9707189 1309.026 -6.8537598
0 1309.026 -6.8537598
4.970624 1309.026 -6.8537598
9.8607845 1316.4166 -28.702881
14.791082 1316.4166 -28.702881
19.721569 1316.4166 -28.702881
24.450233 1323.8073 -50.552002
29.340206 1323.8073 -50.552002
34.230366 1323.8073 -50.552002
39.120335 1323.8073 -50.552002
44.010494 1323.8073 -50.552002
48.900467 1323.8073 -50.552002
53.79044 1323.8073 -50.552002
58.680603 1323.8073 -50.552002
63.570568 1323.8073 -50.552002
68.460732 1323.8073 -50.552002
73.3507 1323.8073 -50.552002
78.240669 1323.8073 -50.552002
83.130836 1323.8073 -50.552002
88.020805 1323.8073 -50.552002
92.910973 1323.8073 -50.552002
97.800934 1323.8073 -50.552002
102.6909 1323.8073 -50.552002
108.46826 1316.4166 -28.702881
112.47104 1323.8073 -50.552002
117.36121 1323.8073 -50.552002
122.25117 1323.8073 -50.552002
127.14114 1323.8073 -50.552002
132.03131 1323.8073 -50.552002
136.92126 1323.8073 -50.552002
141.81143 1323.8073 -50.552002
146.7014 1323.8073 -50.552002
151.59137 1323.8073 -50.552002
156.48154 1323.8073 -50.552002
161.37152 1323.8073 -50.552002
166.26167 1323.8073 -50.552002
171.15164 1323.8073 -50.552002
-300.87201 1212.4113 261.74829
-292.75055 1221.4536 235.1687
-287.32922 1221.4536 235.1687
-284.46085 1212.4113 261.74829
-278.99042 1212.4113 261.74829
-273.52002 1212.4113 261.74829
-270.54108 1203.0457 289.27759
-265.01981 1203.0457 289.27759
-259.49866 1203.0457 289.27759
-253.97739 1203.0457 289.27759
-248.45612 1203.0457 289.27759
-242.93484 1203.0457 289.27759
-237.41357 1203.0457 289.27759
-231.89241 1203.0457 289.27759
-226.37114 1203.0457 289.27759
-220.84987 1203.0457 289.27759
-215.3286 1203.0457 289.27759
-209.80733 1203.0457 289.27759
-204.28618 1203.0457 289.27759
-198.76491 1203.0457 289.27759
-193.24364 1203.0457 289.27759
-187.72237 1203.0457 289.27759
-182.2011 1203.0457 289.27759
-176.67995 1203.0457 289.27759
-164.64149 1174.3036 373.76318
-158.96417 1174.3036 373.76318
-150.44656 1193.6803 316.8064
-144.87445 1193.6803 316.8064
-138.03117 1203.0457 289.27759
-132.5099 1203.0457 289.27759
-67.422646 1264.7283 107.96533
-61.710361 1272.8019 84.233398
-56.567814 1272.8019 84.233398
-50.986935 1280.8755 60.501221
-45.888226 1280.8755 60.501221
-40.789509 1280.8755 60.501221
-35.38406 1288.9492 36.769287
-30.329182 1288.9492 36.769287
-24.8535 1304.4504 -8.7958984
-19.882782 1304.4504 -8.7958984
-14.912063 1304.4504 -8.7958984
-9.9414377 1304.4504 -8.7958984
-4.9707189 1304.4504 -8.7958984
0 1304.4504 -8.7958984
4.970624 1304.4504 -8.7958984
9.8607845 1311.8782 -30.629395
14.791082 1311.8782 -30.629395
19.721569 1311.8782 -30.629395
24.450233 1319.3059 -52.462891
29.340206 1319.3059 -52.462891
34.230366 1319.3059 -52.462891
39.120335 1319.3059 -52.462891
44.010494 1319.3059 -52.462891
48.900467 1319.3059 -52.462891
53.79044 1319.3059 -52.462891
58.680603 1319.3059 -52.462891
63.570568 1319.3059 -52.462891
68.460732 1319.3059 -52.462891
73.3507 1319.3059 -52.462891
78.240669 1319.3059 -52.462891
83.130836 1319.3059 -52.462891
88.020805 1319.3059 -52.462891
92.910973 1319.3059 -52.462891
97.800934 1319.3059 -52.462891
102.6909 1319.3059 -52.462891
108.46826 1311.8782 -30.629395
112.47104 1319.3059 -52.462891
117.36121 1319.3059 -52.462891
122.25117 1319.3059 -52.462891
127.14114 1319.3059 -52.462891
132.03131 1319.3059 -52.462891
136.92126 1319.3059 -52.462891
141.81143 1319.3059 -52.462891
146.7014 1319.3059 -52.462891
151.59137 1319.3059 -52.462891
156.48154 1319.3059 -52.462891
161.37152 1319.3059 -52.462891
166.26167 1319.3059 -52.462891
172.56308 1311.8782 -30.629395
-300.87201 1207.3757 259.61084
-292.75055 1216.4634 233.05029
-287.32922 1216.4634 233.05029
-284.46085 1207.3757 259.61084
-278.99042 1207.3757 259.61084
-273.52002 1207.3757 259.61084
-270.54108 1197.9634 287.12012
-265.01981 1197.9634 287.12012
-259.49866 1197.9634 287.12012
-253.97739 1197.9634 287.12012
-248.45612 1197.9634 287.12012
-242.93484 1197.9634 287.12012
-237.41357 1197.9634 287.12012
-231.89241 1197.9634 287.12012
-226.37114 1197.9634 287.12012
-220.84987 1197.9634 287.12012
-215.3286 1197.9634 287.12012
-209.80733 1197.9634 287.12012
-204.28618 1197.9634 287.12012
-198.76491 1197.9634 287.12012
-196.86427 1178.8145 343.08716
-187.72237 1197.9634 287.12012
-182.2011 1197.9634 287.12012
-176.67995 1197.9634 287.12012
-174.36551 1178.8145 343.08716
-168.7408 1178.8145 343.08716
-164.64149 1169.0776 371.54492
-158.96417 1169.0776 371.54492
-153.28697 1169.0776 371.54492
-144.87445 1188.5511 314.62939
-138.03117 1197.9634 287.12012
-132.5099 1197.9634 287.12012
-66.852806 1268.0681 82.223877
-61.710361 1268.0681 82.223877
-56.567814 1268.0681 82.223877
-50.986935 1276.1821 58.509033
-45.888226 1276.1821 58.509033
-40.789509 1276.1821 58.509033
-35.38406 1284.2961 34.794189
-30.329182 1284.2961 34.794189
-24.8535 1299.875 -10.738037
-19.882782 1299.875 -10.738037
-14.912063 1299.875 -10.738037
-9.9414377 1299.875 -10.738037
-4.9707189 1299.875 -10.738037
0 1299.875 -10.738037
4.970624 1299.875 -10.738037
9.8607845 1307.3398 -32.555908
14.791082 1307.3398 -32.555908
19.721569 1307.3398 -32.555908
24.651867 1307.3398 -32.555908
29.340206 1314.8047 -54.373535
34.230366 1314.8047 -54.373535
39.120335 1314.8047 -54.373535
44.010494 1314.8047 -54.373535
48.900467 1314.8047 -54.373535
53.79044 1314.8047 -54.373535
58.21772 1321.9449 -75.242676
63.069118 1321.9449 -75.242676
67.9207 1321.9449 -75.242676
73.3507 1314.8047 -54.373535
78.240669 1314.8047 -54.373535
83.130836 1314.8047 -54.373535
88.020805 1314.8047 -54.373535
92.910973 1314.8047 -54.373535
97.800934 1314.8047 -54.373535
102.6909 1314.8047 -54.373535
108.46826 1307.3398 -32.555908
112.47104 1314.8047 -54.373535
117.36121 1314.8047 -54.373535
122.25117 1314.8047 -54.373535
127.14114 1314.8047 -54.373535
132.03131 1314.8047 -54.373535
138.05042 1307.3398 -32.555908
141.81143 1314.8047 -54.373535
146.7014 1314.8047 -54.373535
151.59137 1314.8047 -54.373535
157.77199 1307.3398 -32.555908
162.70229 1307.3398 -32.555908
167.63278 1307.3398 -32.555908
-300.87201 1202.3401 257.47339
-295.40158 1202.3401 257.47339
-289.93118 1202.3401 257.47339
-284.46085 1202.3401 257.47339
-278.99042 1202.3401 257.47339
-273.52002 1202.3401 257.47339
-270.54108 1192.8811 284.96289
-265.01981 1192.8811 284.96289
-259.49866 1192.8811 284.96289
-253.97739 1192.8811 284.96289
-248.45612 1192.8811 284.96289
-242.93484 1192.8811 284.96289
-237.41357 1192.8811 284.96289
-231.89241 1192.8811 284.96289
-226.37114 1192.8811 284.96289
-220.84987 1192.8811 284.96289
-215.3286 1192.8811 284.96289
-209.80733 1192.8811 284.96289
-206.16751 1183.4221 312.45215
-200.59538 1183.4221 312.45215
-196.86427 1173.6368 340.8894
-187.72237 1192.8811 284.96289
-182.2011 1192.8811 284.96289
-179.99023 1173.6368 340.8894
-174.36551 1173.6368 340.8894
-168.7408 1173.6368 340.8894
-163.1161 1173.6368 340.8894
-158.96417 1163.8517 369.32666
-150.44656 1183.4221 312.45215
-144.87445 1183.4221 312.45215
-138.03117 1192.8811 284.96289
-132.5099 1192.8811 284.96289
-71.995354 1263.3345 80.2146
-66.852806 1263.3345 80.2146
-61.184364 1271.4888 56.516846
-56.085648 1271.4888 56.516846
-50.986935 1271.4888 56.516846
-45.888226 1271.4888 56.516846
-40.789509 1271.4888 56.516846
-35.38406 1279.6432 32.819092
-30.329182 1279.6432 32.819092
-24.8535 1295.2993 -12.68042
-19.882782 1295.2993 -12.68042
-14.912063 1295.2993 -12.68042
-9.9414377 1295.2993 -12.68042
-5.0127993 1287.4712 10.069336
0 1295.2993 -12.68042
4.970624 1295.2993 -12.68042
9.9414377 1295.2993 -12.68042
14.912063 1295.2993 -12.68042
19.721569 1302.8014 -34.482178
24.651867 1302.8014 -34.482178
29.340206 1310.3033 -56.28418
34.230366 1310.3033 -56.28418
39.120335 1310.3033 -56.28418
44.010494 1310.3033 -56.28418
48.900467 1310.3033 -56.28418
53.79044 1310.3033 -56.28418
58.21772 1317.4791 -77.138184
63.069118 1317.4791 -77.138184
67.9207 1317.4791 -77.138184
73.3507 1310.3033 -56.28418
78.240669 1310.3033 -56.28418
83.130836 1310.3033 -56.28418
88.020805 1310.3033 -56.28418
92.910973 1310.3033 -56.28418
97.800934 1310.3033 -56.28418
102.6909 1310.3033 -56.28418
108.46826 1302.8014 -34.482178
112.47104 1310.3033 -56.28418
117.36121 1310.3033 -56.28418
122.25117 1310.3033 -56.28418
127.14114 1310.3033 -56.28418
133.12013 1302.8014 -34.482178
138.05042 1302.8014 -34.482178
142.98091 1302.8014 -34.482178
147.91121 1302.8014 -34.482178
152.84149 1302.8014 -34.482178
157.77199 1302.8014 -34.482178
162.70229 1302.8014 -34.482178
167.63278 1302.8014 -34.482178
-295.40158 1197.3047 255.33594
-289.93118 1197.3047 255.33594
-284.46085 1197.3047 255.33594
-278.99042 1197.3047 255.33594
-273.52002 1197.3047 255.33594
-270.54108 1187.7987 282.80542
-265.01981 1187.7987 282.80542
-259.49866 1187.7987 282.80542
-253.97739 1187.7987 282.80542
-248.45612 1187.7987 282.80542
-242.93484 1187.7987 282.80542
-237.41357 1187.7987 282.80542
-231.89241 1187.7987 282.80542
-226.37114 1187.7987 282.80542
-220.84987 1187.7987 282.80542
-217.31163 1178.293 310.2749
-211.73952 1178.293 310.2749
-206.16751 1178.293 310.2749
-200.59538 1178.293 310.2749
-196.86427 1168.4594 338.69165
-189.45117 1178.293 310.2749
-183.87904 1178.293 310.2749
-179.99023 1168.4594 338.69165
-174.36551 1168.4594 338.69165
-168.7408 1168.4594 338.69165
-163.1161 1168.4594 338.69165
-158.96417 1158.6257 367.10815
-150.44656 1178.293 310.2749
-144.87445 1178.293 310.2749
-139.30234 1178.293 310.2749
-132.5099 1187.7987 282.80542
-126.98864 1187.7987 282.80542
-78.479202 1241.8837 126.51367
-71.995354 1258.6007 78.205322
-66.852806 1258.6007 78.205322
-61.184364 1266.7954 54.524658
-56.085648 1266.7954 54.524658
-50.986935 1266.7954 54.524658
-45.493725 1274.9902 30.843994
-40.438843 1274.9902 30.843994
-35.38406 1274.9902 30.843994
-30.329182 1274.9902 30.843994
-24.8535 1290.7239 -14.622559
-19.882782 1290.7239 -14.622559
-14.912063 1290.7239 -14.622559
-9.9414377 1290.7239 -14.622559
-5.0127993 1282.8569 8.1108398
0 1290.7239 -14.622559
4.970624 1290.7239 -14.622559
9.9414377 1290.7239 -14.622559
14.912063 1290.7239 -14.622559
19.882875 1290.7239 -14.622559
24.651867 1298.2629 -36.408691
29.340206 1305.802 -58.194824
34.230366 1305.802 -58.194824
39.120335 1305.802 -58.194824
44.010494 1305.802 -58.194824
48.900467 1305.802 -58.194824
53.79044 1305.802 -58.194824
58.21772 1313.0133 -79.033936
63.069118 1313.0133 -79.033936
67.9207 1313.0133 -79.033936
73.3507 1305.802 -58.194824
78.240669 1305.802 -58.194824
83.130836 1305.802 -58.194824
88.020805 1305.802 -58.194824
92.910973 1305.802 -58.194824
97.800934 1305.802 -58.194824
102.6909 1305.802 -58.194824
108.46826 1298.2629 -36.408691
113.39855 1298.2629 -36.408691
118.32904 1298.2629 -36.408691
123.25934 1298.2629 -36.408691
128.18964 1298.2629 -36.408691
133.12013 1298.2629 -36.408691
138.05042 1298.2629 -36.408691
142.98091 1298.2629 -36.408691
147.91121 1298.2629 -36.408691
152.84149 1298.2629 -36.408691
157.77199 1298.2629 -36.408691
162.70229 1298.2629 -36.408691
169.00388 1290.7239 -14.622559
173.9745 1290.7239 -14.622559
-295.40158 1192.2692 253.19849
-289.93118 1192.2692 253.19849
-287.10489 1182.7164 280.64819
-281.58362 1182.7164 280.64819
-276.06235 1182.7164 280.64819
-270.54108 1182.7164 280.64819
-265.01981 1182.7164 280.64819
-259.49866 1182.7164 280.64819
-253.97739 1182.7164 280.64819
-248.45612 1182.7164 280.64819
-242.93484 1182.7164 280.64819
-237.41357 1182.7164 280.64819
-231.89241 1182.7164 280.64819
-226.37114 1182.7164 280.64819
-220.84987 1182.7164 280.64819
-217.31163 1173.1638 308.09766
-211.73952 1173.1638 308.09766
-206.16751 1173.1638 308.09766
-200.59538 1173.1638 308.09766
-196.86427 1163.2817 336.4939
-191.23956 1163.2817 336.4939
-185.61484 1163.2817 336.4939
-179.99023 1163.2817 336.4939
-174.36551 1163.2817 336.4939
-170.3188 1153.3998 364.88989
-164.64149 1153.3998 364.88989
-158.96417 1153.3998 364.88989
-153.28697 1153.3998 364.88989
-144.87445 1173.1638 308.09766
-139.30234 1173.1638 308.09766
-132.5099 1182.7164 280.64819
-126.98864 1182.7164 280.64819
-88.943138 1237.0676 124.46948
-82.981789 1245.632 99.859375
-77.795403 1245.632 99.859375
-71.995354 1253.8669 76.196045
-66.852806 1253.8669 76.196045
-61.184364 1262.1021 52.532471
-56.085648 1262.1021 52.532471
-50.986935 1262.1021 52.532471
-45.493725 1270.3372 28.868896
-40.438843 1270.3372 28.868896
-35.38406 1270.3372 28.868896
-30.329182 1270.3372 28.868896
-24.8535 1286.1483 -16.564697
-19.882782 1286.1483 -16.564697
-14.912063 1286.1483 -16.564697
-9.9414377 1286.1483 -16.564697
-4.9707189 1286.1483 -16.564697
0 1286.1483 -16.564697
4.970624 1286.1483 -16.564697
9.9414377 1286.1483 -16.564697
14.912063 1286.1483 -16.564697
19.882875 1286.1483 -16.564697
24.651867 1293.7245 -38.335205
29.340206 1301.3008 -60.105469
34.230366 1301.3008 -60.105469
39.120335 1301.3008 -60.105469
44.010494 1301.3008 -60.105469
48.900467 1301.3008 -60.105469
53.79044 1301.3008 -60.105469
58.680603 1301.3008 -60.105469
63.570568 1301.3008 -60.105469
68.460732 1301.3008 -60.105469
73.3507 1301.3008 -60.105469
78.240669 1301.3008 -60.105469
83.130836 1301.3008 -60.105469
88.020805 1301.3008 -60.105469
92.910973 1301.3008 -60.105469
97.800934 1301.3008 -60.105469
103.53777 1293.7245 -38.335205
108.46826 1293.7245 -38.335205
113.39855 1293.7245 -38.335205
118.32904 1293.7245 -38.335205
123.25934 1293.7245 -38.335205
128.18964 1293.7245 -38.335205
133.12013 1293.7245 -38.335205
138.05042 1293.7245 -38.335205
142.98091 1293.7245 -38.335205
147.91121 1293.7245 -38.335205
152.84149 1293.7245 -38.335205
157.77199 1293.7245 -38.335205
162.70229 1293.7245 -38.335205
169.00388 1286.1483 -16.564697
-287.10489 1177.634 278.49097
-281.58362 1177.634 278.49097
-276.06235 1177.634 278.49097
-270.54108 1177.634 278.49097
-265.01981 1177.634 278.49097
-259.49866 1177.634 278.49097
-253.97739 1177.634 278.49097
-248.45612 1177.634 278.49097
-242.93484 1177.634 278.49097
-237.41357 1177.634 278.49097
-231.89241 1177.634 278.49097
-226.37114 1177.634 278.49097
-220.84987 1177.634 278.49097
-217.31163 1168.0345 305.92041
-211.73952 1168.0345 305.92041
-208.11371 1158.1041 334.29614
-202.48898 1158.1041 334.29614
-196.86427 1158.1041 334.29614
-191.23956 1158.1041 334.29614
-185.61484 1158.1041 334.29614
-179.99023 1158.1041 334.29614
-174.36551 1158.1041 334.29614
-170.3188 1148.1737 362.67163
-164.64149 1148.1737 362.67163
-157.49138 1158.1041 334.29614
-150.44656 1168.0345 305.92041
-144.87445 1168.0345 305.92041
-139.30234 1168.0345 305.92041
-132.5099 1177.634 278.49097
-126.98864 1177.634 278.49097
-88.943138 1232.2515 122.42505
-82.981789 1240.8579 97.833008
-77.795403 1240.8579 97.833008
-71.995354 1249.1333 74.186523
-66.852806 1249.1333 74.186523
-61.184364 1257.4087 50.540283
-56.085648 1257.4087 50.540283
-50.986935 1257.4087 50.540283
-45.493725 1265.6841 26.893799
-40.438843 1265.6841 26.893799
-35.38406 1265.6841 26.893799
-30.329182 1265.6841 26.893799
-24.8535 1281.5726 -18.50708
-19.882782 1281.5726 -18.50708
-14.912063 1281.5726 -18.50708
-9.9414377 1281.5726 -18.50708
-4.9707189 1281.5726 -18.50708
0 1281.5726 -18.50708
4.970624 1281.5726 -18.50708
9.9414377 1281.5726 -18.50708
14.912063 1281.5726 -18.50708
19.882875 1281.5726 -18.50708
24.651867 1289.186 -40.261719
29.582165 1289.186 -40.261719
34.230366 1296.7993 -62.016357
39.120335 1296.7993 -62.016357
44.010494 1296.7993 -62.016357
48.900467 1296.7993 -62.016357
53.79044 1296.7993 -62.016357
58.680603 1296.7993 -62.016357
63.570568 1296.7993 -62.016357
68.460732 1296.7993 -62.016357
73.3507 1296.7993 -62.016357
78.240669 1296.7993 -62.016357
83.130836 1296.7993 -62.016357
88.020805 1296.7993 -62.016357
92.910973 1296.7993 -62.016357
97.800934 1296.7993 -62.016357
103.53777 1289.186 -40.261719
108.46826 1289.186 -40.261719
113.39855 1289.186 -40.261719
118.32904 1289.186 -40.261719
123.25934 1289.186 -40.261719
128.18964 1289.186 -40.261719
133.12013 1289.186 -40.261719
138.05042 1289.186 -40.261719
142.98091 1289.186 -40.261719
147.91121 1289.186 -40.261719
152.84149 1289.186 -40.261719
159.06244 1281.5726 -18.50708
164.03307 1281.5726 -18.50708
169.00388 1281.5726 -18.50708
181.9749 1265.6841 26.893799
187.02988 1265.6841 26.893799
-281.58362 1172.5516 276.3335
-276.06235 1172.5516 276.3335
-270.54108 1172.5516 276.3335
-265.01981 1172.5516 276.3335
-259.49866 1172.5516 276.3335
-253.97739 1172.5516 276.3335
-248.45612 1172.5516 276.3335
-242.93484 1172.5516 276.3335
-237.41357 1172.5516 276.3335
-231.89241 1172.5516 276.3335
-226.37114 1172.5516 276.3335
-220.84987 1172.5516 276.3335
-217.31163 1162.9054 303.74341
-211.73952 1162.9054 303.74341
-208.11371 1152.9266 332.09839
-202.48898 1152.9266 332.09839
-196.86427 1152.9266 332.09839
-191.23956 1152.9266 332.09839
-185.61484 1152.9266 332.09839
-179.99023 1152.9266 332.09839
-174.36551 1152.9266 332.09839
-170.3188 1142.9478 360.45337
-164.64149 1142.9478 360.45337
-157.49138 1152.9266 332.09839
-150.44656 1162.9054 303.74341
-144.87445 1162.9054 303.74341
-139.30234 1162.9054 303.74341
-132.5099 1172.5516 276.3335
-126.98864 1172.5516 276.3335
-88.943138 1227.4355 120.38086
-82.981789 1236.0837 95.806396
-77.795403 1236.0837 95.806396
-71.995354 1244.3995 72.177246
-66.852806 1244.3995 72.177246
-61.184364 1252.7153 48.547852
-56.085648 1252.7153 48.547852
-50.986935 1252.7153 48.547852
-45.493725 1261.031 24.918701
-40.438843 1261.031 24.918701
-35.38406 1261.031 24.918701
-30.329182 1261.031 24.918701
-25.274302 1261.031 24.918701
-20.219421 1261.031 24.918701
-15.038302 1269.014 2.2348633
-10.025599 1269.014 2.2348633
-5.0127993 1269.014 2.2348633
0 1276.9971 -20.449219
4.970624 1276.9971 -20.449219
9.9414377 1276.9971 -20.449219
14.912063 1276.9971 -20.449219
19.882875 1276.9971 -20.449219
24.651867 1284.6476 -42.187988
29.582165 1284.6476 -42.187988
34.230366 1292.2981 -63.927002
39.120335 1292.2981 -63.927002
44.373436 1284.6476 -42.187988
49.303734 1284.6476 -42.187988
54.234035 1284.6476 -42.187988
58.680603 1292.2981 -63.927002
63.570568 1292.2981 -63.927002
68.460732 1292.2981 -63.927002
73.3507 1292.2981 -63.927002
78.240669 1292.2981 -63.927002
83.130836 1292.2981 -63.927002
88.020805 1292.2981 -63.927002
92.910973 1292.2981 -63.927002
97.800934 1292.2981 -63.927002
103.53777 1284.6476 -42.187988
108.46826 1284.6476 -42.187988
113.39855 1284.6476 -42.187988
118.32904 1284.6476 -42.187988
123.25934 1284.6476 -42.187988
128.18964 1284.6476 -42.187988
133.12013 1284.6476 -42.187988
138.05042 1284.6476 -42.187988
142.98091 1284.6476 -42.187988
147.91121 1284.6476 -42.187988
154.09164 1276.9971 -20.449219
159.06244 1276.9971 -20.449219
164.03307 1276.9971 -20.449219
169.00388 1276.9971 -20.449219
175.44731 1269.014 2.2348633
181.9749 1261.031 24.918701
187.02988 1261.031 24.918701
-278.60468 1157.7764 301.56616
-273.03256 1157.7764 301.56616
-267.46045 1157.7764 301.56616
-259.49866 1167.4694 274.17627
-253.97739 1167.4694 274.17627
-248.45612 1167.4694 274.17627
-242.93484 1167.4694 274.17627
-237.41357 1167.4694 274.17627
-231.89241 1167.4694 274.17627
-228.45584 1157.7764 301.56616
-222.88374 1157.7764 301.56616
-219.36304 1147.749 329.90063
-213.73831 1147.749 329.90063
-208.11371 1147.749 329.90063
-202.48898 1147.749 329.90063
-198.70528 1137.7218 358.23511
-191.23956 1147.749 329.90063
-185.61484 1147.749 329.90063
-179.99023 1147.749 329.90063
-174.36551 1147.749 329.90063
-170.3188 1137.7218 358.23511
-164.64149 1137.7218 358.23511
-157.49138 1147.749 329.90063
-151.86678 1147.749 329.90063
-144.87445 1157.7764 301.56616
-139.30234 1157.7764 301.56616
-133.73022 1157.7764 301.56616
-128.15811 1157.7764 301.56616
-88.943138 1222.6194 118.33667
-82.981789 1231.3097 93.780029
-77.795403 1231.3097 93.780029
-71.995354 1239.6658 70.167969
-66.852806 1239.6658 70.167969
-60.658363 1256.3779 22.943604
-55.603481 1256.3779 22.943604
-50.986935 1248.022 46.555664
-45.493725 1256.3779 22.943604
-40.438843 1256.3779 22.943604
-35.38406 1256.3779 22.943604
-30.329182 1256.3779 22.943604
-25.274302 1256.3779 22.943604
-20.219421 1256.3779 22.943604
-15.164542 1256.3779 22.943604
-10.025599 1264.3997 0.27612305
-5.0127993 1264.3997 0.27612305
0 1264.3997 0.27612305
4.970624 1272.4216 -22.391357
9.9414377 1272.4216 -22.391357
14.912063 1272.4216 -22.391357
19.882875 1272.4216 -22.391357
24.8535 1272.4216 -22.391357
29.582165 1280.1091 -44.114502
34.51265 1280.1091 -44.114502
39.442951 1280.1091 -44.114502
44.373436 1280.1091 -44.114502
49.303734 1280.1091 -44.114502
54.234035 1280.1091 -44.114502
58.680603 1287.7968 -65.837646
63.570568 1287.7968 -65.837646
68.460732 1287.7968 -65.837646
73.3507 1287.7968 -65.837646
78.240669 1287.7968 -65.837646
83.130836 1287.7968 -65.837646
88.020805 1287.7968 -65.837646
92.910973 1287.7968 -65.837646
97.800934 1287.7968 -65.837646
102.6909 1287.7968 -65.837646
107.58107 1287.7968 -65.837646
113.39855 1280.1091 -44.114502
118.32904 1280.1091 -44.114502
123.25934 1280.1091 -44.114502
128.18964 1280.1091 -44.114502
133.12013 1280.1091 -44.114502
138.05042 1280.1091 -44.114502
142.98091 1280.1091 -44.114502
147.91121 1280.1091 -44.114502
154.09164 1272.4216 -22.391357
159.06244 1272.4216 -22.391357
164.03307 1272.4216 -22.391357
169.00388 1272.4216 -22.391357
175.44731 1264.3997 0.27612305
180.46001 1264.3997 0.27612305
185.4729 1264.3997 0.27612305
192.08464 1256.3779 22.943604
-270.54108 1162.387 272.0188
-265.01981 1162.387 272.0188
-259.49866 1162.387 272.0188
-253.97739 1162.387 272.0188
-248.45612 1162.387 272.0188
-242.93484 1162.387 272.0188
-239.59998 1152.6472 299.38892
-234.02797 1152.6472 299.38892
-230.61244 1142.5715 327.70288
-224.98775 1142.5715 327.70288
-219.36304 1142.5715 327.70288
-213.73831 1142.5715 327.70288
-208.11371 1142.5715 327.70288
-202.48898 1142.5715 327.70288
-198.70528 1132.4958 356.01685
-193.02797 1132.4958 356.01685
-187.35065 1132.4958 356.01685
-181.67343 1132.4958 356.01685
-175.99611 1132.4958 356.01685
-170.3188 1132.4958 356.01685
-164.64149 1132.4958 356.01685
-158.96417 1132.4958 356.01685
-151.86678 1142.5715 327.70288
-146.24205 1142.5715 327.70288
-140.61734 1142.5715 327.70288
-134.99263 1142.5715 327.70288
-88.943138 1217.8035 116.29224
-83.711174 1217.8035 116.29224
-78.479202 1217.8035 116.29224
-73.247231 1217.8035 116.29224
-65.713142 1251.725 20.968506
-60.658363 1251.725 20.968506
-55.603481 1251.725 20.968506
-50.548603 1251.725 20.968506
-45.493725 1251.725 20.968506
-40.438843 1251.725 20.968506
-35.690891 1243.3286 44.563477
-30.592182 1243.3286 44.563477
-25.0639 1259.7854 -1.6826172
-20.051102 1259.7854 -1.6826172
-15.038302 1259.7854 -1.6826172
-10.025599 1259.7854 -1.6826172
-5.0127993 1259.7854 -1.6826172
0 1267.8459 -24.333496
4.970624 1267.8459 -24.333496
9.9414377 1267.8459 -24.333496
14.912063 1267.8459 -24.333496
19.721569 1275.5708 -46.041016
24.651867 1275.5708 -46.041016
29.582165 1275.5708 -46.041016
34.51265 1275.5708 -46.041016
39.442951 1275.5708 -46.041016
44.373436 1275.5708 -46.041016
49.303734 1275.5708 -46.041016
54.234035 1275.5708 -46.041016
59.16452 1275.5708 -46.041016
63.570568 1283.2954 -67.748291
68.460732 1283.2954 -67.748291
73.3507 1283.2954 -67.748291
78.240669 1283.2954 -67.748291
83.130836 1283.2954 -67.748291
88.020805 1283.2954 -67.748291
92.910973 1283.2954 -67.748291
97.800934 1283.2954 -67.748291
102.6909 1283.2954 -67.748291
107.58107 1283.2954 -67.748291
112.47104 1283.2954 -67.748291
117.36121 1283.2954 -67.748291
123.25934 1275.5708 -46.041016
128.18964 1275.5708 -46.041016
133.12013 1275.5708 -46.041016
138.05042 1275.5708 -46.041016
142.98091 1275.5708 -46.041016
147.91121 1275.5708 -46.041016
154.09164 1267.8459 -24.333496
159.06244 1267.8459 -24.333496
164.03307 1267.8459 -24.333496
169.00388 1267.8459 -24.333496
175.44731 1259.7854 -1.6826172
180.46001 1259.7854 -1.6826172
187.02988 1251.725 20.968506
192.08464 1251.725 20.968506
-265.01981 1157.3047 269.86157
-259.49866 1157.3047 269.86157
-253.97739 1157.3047 269.86157
-248.45612 1157.3047 269.86157
-242.93484 1157.3047 269.86157
-239.59998 1147.5181 297.21167
-234.02797 1147.5181 297.21167
-230.61244 1137.3939 325.50513
-224.98775 1137.3939 325.50513
-219.36304 1137.3939 325.50513
-213.73831 1137.3939 325.50513
-208.11371 1137.3939 325.50513
-202.48898 1137.3939 325.50513
-196.86427 1137.3939 325.50513
-191.23956 1137.3939 325.50513
-185.61484 1137.3939 325.50513
-181.67343 1127.2698 353.79858
-175.99611 1127.2698 353.79858
-170.3188 1127.2698 353.79858
-164.64149 1127.2698 353.79858
-158.96417 1127.2698 353.79858
-153.28697 1127.2698 353.79858
-147.60965 1127.2698 353.79858
-141.93234 1127.2698 353.79858
-136.25502 1127.2698 353.79858
-60.658363 1247.072 18.993408
-55.603481 1247.072 18.993408
-50.548603 1247.072 18.993408
-45.493725 1247.072 18.993408
-40.438843 1247.072 18.993408
-35.38406 1247.072 18.993408
-30.592182 1238.6353 42.571289
-25.0639 1255.1711 -3.6411133
-20.051102 1255.1711 -3.6411133
-15.038302 1255.1711 -3.6411133
-10.025599 1255.1711 -3.6411133
-5.0127993 1255.1711 -3.6411133
0 1263.2705 -26.275879
4.970624 1263.2705 -26.275879
9.9414377 1263.2705 -26.275879
14.912063 1263.2705 -26.275879
19.721569 1271.0322 -47.967529
24.651867 1271.0322 -47.967529
29.582165 1271.0322 -47.967529
34.51265 1271.0322 -47.967529
39.442951 1271.0322 -47.967529
44.373436 1271.0322 -47.967529
49.303734 1271.0322 -47.967529
54.234035 1271.0322 -47.967529
59.16452 1271.0322 -47.967529
64.094818 1271.0322 -47.967529
69.025299 1271.0322 -47.967529
73.955605 1271.0322 -47.967529
78.885902 1271.0322 -47.967529
83.816391 1271.0322 -47.967529
88.020805 1278.7942 -69.658936
92.910973 1278.7942 -69.658936
97.800934 1278.7942 -69.658936
102.6909 1278.7942 -69.658936
107.58107 1278.7942 -69.658936
112.47104 1278.7942 -69.658936
117.36121 1278.7942 -69.658936
122.25117 1278.7942 -69.658936
127.14114 1278.7942 -69.658936
133.12013 1271.0322 -47.967529
138.05042 1271.0322 -47.967529
142.98091 1271.0322 -47.967529
147.91121 1271.0322 -47.967529
152.84149 1271.0322 -47.967529
159.06244 1263.2705 -26.275879
164.03307 1263.2705 -26.275879
169.00388 1263.2705 -26.275879
175.44731 1255.1711 -3.6411133
180.46001 1255.1711 -3.6411133
187.02988 1247.072 18.993408
-258.73593 1132.2163 323.30762
-253.11121 1132.2163 323.30762
-247.4865 1132.2163 323.30762
-241.86177 1132.2163 323.30762
-236.23717 1132.2163 323.30762
-230.61244 1132.2163 323.30762
-224.98775 1132.2163 323.30762
-219.36304 1132.2163 323.30762
-213.73831 1132.2163 323.30762
-208.11371 1132.2163 323.30762
-202.48898 1132.2163 323.30762
-196.86427 1132.2163 323.30762
-191.23956 1132.2163 323.30762
-185.61484 1132.2163 323.30762
-179.99023 1132.2163 323.30762
-174.36551 1132.2163 323.30762
-170.3188 1122.0438 351.58008
-164.64149 1122.0438 351.58008
-158.96417 1122.0438 351.58008
-153.28697 1122.0438 351.58008
-147.60965 1122.0438 351.58008
-141.93234 1122.0438 351.58008
-66.282974 1233.9418 40.579102
-60.658363 1242.4189 17.018311
-55.603481 1242.4189 17.018311
-50.548603 1242.4189 17.018311
-45.115002 1250.5569 -5.5998535
-40.102203 1250.5569 -5.5998535
-35.089497 1250.5569 -5.5998535
-30.329182 1242.4189 17.018311
-25.0639 1250.5569 -5.5998535
-20.051102 1250.5569 -5.5998535
-15.038302 1250.5569 -5.5998535
-10.025599 1250.5569 -5.5998535
-5.0127993 1250.5569 -5.5998535
0 1258.6949 -28.218018
4.970624 1258.6949 -28.218018
9.9414377 1258.6949 -28.218018
14.791082 1266.4939 -49.893799
19.721569 1266.4939 -49.893799
24.651867 1266.4939 -49.893799
29.582165 1266.4939 -49.893799
34.51265 1266.4939 -49.893799
39.442951 1266.4939 -49.893799
44.373436 1266.4939 -49.893799
49.303734 1266.4939 -49.893799
54.234035 1266.4939 -49.893799
59.16452 1266.4939 -49.893799
64.094818 1266.4939 -49.893799
69.025299 1266.4939 -49.893799
73.955605 1266.4939 -49.893799
78.240669 1274.2928 -71.569824
83.130836 1274.2928 -71.569824
88.020805 1274.2928 -71.569824
92.910973 1274.2928 -71.569824
97.800934 1274.2928 -71.569824
102.6909 1274.2928 -71.569824
107.58107 1274.2928 -71.569824
112.47104 1274.2928 -71.569824
117.36121 1274.2928 -71.569824
122.25117 1274.2928 -71.569824
127.14114 1274.2928 -71.569824
132.03131 1274.2928 -71.569824
136.92126 1274.2928 -71.569824
141.81143 1274.2928 -71.569824
147.91121 1266.4939 -49.893799
152.84149 1266.4939 -49.893799
157.77199 1266.4939 -49.893799
164.03307 1258.6949 -28.218018
169.00388 1258.6949 -28.218018
173.9745 1258.6949 -28.218018
180.46001 1250.5569 -5.5998535
187.02988 1242.4189 17.018311
192.08464 1242.4189 17.018311
-258.73593 1127.0388 321.10986
-253.11121 1127.0388 321.10986
-247.4865 1127.0388 321.10986
-241.86177 1127.0388 321.10986
-236.23717 1127.0388 321.10986
-230.61244 1127.0388 321.10986
-224.98775 1127.0388 321.10986
-219.36304 1127.0388 321.10986
-213.73831 1127.0388 321.10986
-208.11371 1127.0388 321.10986
-202.48898 1127.0388 321.10986
-196.86427 1127.0388 321.10986
-191.23956 1127.0388 321.10986
-185.61484 1127.0388 321.10986
-179.99023 1127.0388 321.10986
-174.36551 1127.0388 321.10986
-170.3188 1116.8179 349.36182
-164.64149 1116.8179 349.36182
-158.96417 1116.8179 349.36182
-153.28697 1116.8179 349.36182
-147.60965 1116.8179 349.36182
-141.93234 1116.8179 349.36182
-66.282974 1229.2484 38.586914
-60.658363 1237.7659 15.043213
-55.603481 1237.7659 15.043213
-50.548603 1237.7659 15.043213
-45.115002 1245.9426 -7.5585938
-40.102203 1245.9426 -7.5585938
-35.089497 1245.9426 -7.5585938
-30.329182 1237.7659 15.043213
-25.0639 1245.9426 -7.5585938
-20.051102 1245.9426 -7.5585938
-15.038302 1245.9426 -7.5585938
-10.025599 1245.9426 -7.5585938
-4.9707189 1254.1194 -30.160156
0 1254.1194 -30.160156
4.970624 1254.1194 -30.160156
9.8607845 1261.9554 -51.820312
14.791082 1261.9554 -51.820312
19.721569 1261.9554 -51.820312
24.651867 1261.9554 -51.820312
29.582165 1261.9554 -51.820312
34.51265 1261.9554 -51.820312
39.442951 1261.9554 -51.820312
44.373436 1261.9554 -51.820312
49.303734 1261.9554 -51.820312
54.234035 1261.9554 -51.820312
59.16452 1261.9554 -51.820312
64.094818 1261.9554 -51.820312
69.025299 1261.9554 -51.820312
73.955605 1261.9554 -51.820312
78.240669 1269.7915 -73.480469
83.130836 1269.7915 -73.480469
88.020805 1269.7915 -73.480469
92.910973 1269.7915 -73.480469
97.800934 1269.7915 -73.480469
102.6909 1269.7915 -73.480469
107.58107 1269.7915 -73.480469
112.47104 1269.7915 -73.480469
117.36121 1269.7915 -73.480469
122.25117 1269.7915 -73.480469
127.14114 1269.7915 -73.480469
132.03131 1269.7915 -73.480469
136.92126 1269.7915 -73.480469
141.81143 1269.7915 -73.480469
146.7014 1269.7915 -73.480469
151.59137 1269.7915 -73.480469
156.48154 1269.7915 -73.480469
162.70229 1261.9554 -51.820312
167.63278 1261.9554 -51.820312
172.56308 1261.9554 -51.820312
177.49336 1261.9554 -51.820312
182.42386 1261.9554 -51.820312
-255.47821 1111.5919 347.14355
-249.8009 1111.5919 347.14355
-244.12358 1111.5919 347.14355
-238.44638 1111.5919 347.14355
-232.76904 1111.5919 347.14355
-224.98775 1121.8613 318.91211
-219.36304 1121.8613 318.91211
-213.73831 1121.8613 318.91211
-208.11371 1121.8613 318.91211
-202.48898 1121.8613 318.91211
-196.86427 1121.8613 318.91211
-191.23956 1121.8613 318.91211
-185.61484 1121.8613 318.91211
-179.99023 1121.8613 318.91211
-174.36551 1121.8613 318.91211
-170.3188 1111.5919 347.14355
-164.64149 1111.5919 347.14355
-158.96417 1111.5919 347.14355
-153.28697 1111.5919 347.14355
-147.60965 1111.5919 347.14355
-141.93234 1111.5919 347.14355
-136.25502 1111.5919 347.14355
-130.57771 1111.5919 347.14355
-66.282974 1224.5551 36.594727
-60.658363 1233.1129 13.068115
-55.140602 1241.3284 -9.5170898
-50.1278 1241.3284 -9.5170898
-45.115002 1241.3284 -9.5170898
-40.102203 1241.3284 -9.5170898
-35.38406 1233.1129 13.068115
-30.592182 1224.5551 36.594727
-25.0639 1241.3284 -9.5170898
-20.051102 1241.3284 -9.5170898
-15.038302 1241.3284 -9.5170898
-10.025599 1241.3284 -9.5170898
-4.9707189 1249.5438 -32.102539
0 1249.5438 -32.102539
4.9302983 1257.417 -53.746826
9.8607845 1257.417 -53.746826
14.791082 1257.417 -53.746826
19.721569 1257.417 -53.746826
24.651867 1257.417 -53.746826
29.582165 1257.417 -53.746826
34.51265 1257.417 -53.746826
39.442951 1257.417 -53.746826
44.373436 1257.417 -53.746826
49.303734 1257.417 -53.746826
54.234035 1257.417 -53.746826
59.16452 1257.417 -53.746826
64.094818 1257.417 -53.746826
69.025299 1257.417 -53.746826
73.955605 1257.417 -53.746826
78.240669 1265.2903 -75.391113
83.130836 1265.2903 -75.391113
88.020805 1265.2903 -75.391113
92.910973 1265.2903 -75.391113
97.800934 1265.2903 -75.391113
102.6909 1265.2903 -75.391113
107.58107 1265.2903 -75.391113
112.47104 1265.2903 -75.391113
117.36121 1265.2903 -75.391113
122.25117 1265.2903 -75.391113
127.14114 1265.2903 -75.391113
132.03131 1265.2903 -75.391113
136.92126 1265.2903 -75.391113
141.81143 1265.2903 -75.391113
146.7014 1265.2903 -75.391113
151.59137 1265.2903 -75.391113
156.48154 1265.2903 -75.391113
162.70229 1257.417 -53.746826
167.63278 1257.417 -53.746826
172.56308 1257.417 -53.746826
177.49336 1257.417 -53.746826
-247.4865 1116.6837 316.71436
-241.86177 1116.6837 316.71436
-236.23717 1116.6837 316.71436
-230.61244 1116.6837 316.71436
-224.98775 1116.6837 316.71436
-219.36304 1116.6837 316.71436
-213.73831 1116.6837 316.71436
-208.11371 1116.6837 316.71436
-202.48898 1116.6837 316.71436
-196.86427 1116.6837 316.71436
-191.23956 1116.6837 316.71436
-185.61484 1116.6837 316.71436
-179.99023 1116.6837 316.71436
-174.36551 1116.6837 316.71436
-170.3188 1106.366 344.92529
-164.64149 1106.366 344.92529
-158.96417 1106.366 344.92529
-153.28697 1106.366 344.92529
-147.60965 1106.366 344.92529
-141.93234 1106.366 344.92529
-136.25502 1106.366 344.92529
-130.57771 1106.366 344.92529
-66.282974 1219.8617 34.602539
-61.184364 1219.8617 34.602539
-55.140602 1236.7141 -11.47583
-50.1278 1236.7141 -11.47583
-45.115002 1236.7141 -11.47583
-40.102203 1236.7141 -11.47583
-35.38406 1228.46 11.093018
-30.329182 1228.46 11.093018
-25.0639 1236.7141 -11.47583
-20.051102 1236.7141 -11.47583
-14.912063 1244.9683 -34.044678
-9.9414377 1244.9683 -34.044678
-4.9707189 1244.9683 -34.044678
0 1244.9683 -34.044678
4.9302983 1252.8787 -55.67334
9.8607845 1252.8787 -55.67334
14.791082 1252.8787 -55.67334
19.721569 1252.8787 -55.67334
24.651867 1252.8787 -55.67334
29.582165 1252.8787 -55.67334
34.51265 1252.8787 -55.67334
39.442951 1252.8787 -55.67334
44.373436 1252.8787 -55.67334
49.303734 1252.8787 -55.67334
54.234035 1252.8787 -55.67334
59.16452 1252.8787 -55.67334
64.094818 1252.8787 -55.67334
69.025299 1252.8787 -55.67334
73.955605 1252.8787 -55.67334
78.240669 1260.7888 -77.301758
83.130836 1260.7888 -77.301758
88.020805 1260.7888 -77.301758
92.910973 1260.7888 -77.301758
97.800934 1260.7888 -77.301758
102.6909 1260.7888 -77.301758
107.58107 1260.7888 -77.301758
112.47104 1260.7888 -77.301758
117.36121 1260.7888 -77.301758
122.25117 1260.7888 -77.301758
127.14114 1260.7888 -77.301758
132.03131 1260.7888 -77.301758
136.92126 1260.7888 -77.301758
141.81143 1260.7888 -77.301758
146.7014 1260.7888 -77.301758
151.59137 1260.7888 -77.301758
156.48154 1260.7888 -77.301758
161.37152 1260.7888 -77.301758
167.63278 1252.8787 -55.67334
172.56308 1252.8787 -55.67334
-241.86177 1111.5061 314.5166
-236.23717 1111.5061 314.5166
-230.61244 1111.5061 314.5166
-224.98775 1111.5061 314.5166
-219.36304 1111.5061 314.5166
-213.73831 1111.5061 314.5166
-208.11371 1111.5061 314.5166
-202.48898 1111.5061 314.5166
-196.86427 1111.5061 314.5166
-191.23956 1111.5061 314.5166
-185.61484 1111.5061 314.5166
-179.99023 1111.5061 314.5166
-175.99611 1101.1399 342.70703
-170.3188 1101.1399 342.70703
-164.64149 1101.1399 342.70703
-158.96417 1101.1399 342.70703
-153.28697 1101.1399 342.70703
-147.60965 1101.1399 342.70703
-141.93234 1101.1399 342.70703
-136.25502 1101.1399 342.70703
-77.137901 1206.5298 56.102539
-71.381691 1215.1683 32.610352
-66.282974 1215.1683 32.610352
-61.184364 1215.1683 32.610352
-56.085648 1215.1683 32.610352
-50.986935 1215.1683 32.610352
-45.493725 1223.8069 9.1179199
-40.438843 1223.8069 9.1179199
-35.38406 1223.8069 9.1179199
-30.329182 1223.8069 9.1179199
-25.0639 1232.0997 -13.434326
-20.051102 1232.0997 -13.434326
-14.912063 1240.3927 -35.986816
-9.9414377 1240.3927 -35.986816
-4.9707189 1240.3927 -35.986816
0 1240.3927 -35.986816
4.970624 1240.3927 -35.986816
9.9414377 1240.3927 -35.986816
14.791082 1248.3401 -57.599609
19.721569 1248.3401 -57.599609
24.651867 1248.3401 -57.599609
29.340206 1256.2876 -79.212402
34.230366 1256.2876 -79.212402
39.442951 1248.3401 -57.599609
44.373436 1248.3401 -57.599609
49.303734 1248.3401 -57.599609
54.234035 1248.3401 -57.599609
59.16452 1248.3401 -57.599609
64.094818 1248.3401 -57.599609
69.025299 1248.3401 -57.599609
73.955605 1248.3401 -57.599609
78.885902 1248.3401 -57.599609
83.816391 1248.3401 -57.599609
88.020805 1256.2876 -79.212402
92.910973 1256.2876 -79.212402
97.800934 1256.2876 -79.212402
102.6909 1256.2876 -79.212402
107.58107 1256.2876 -79.212402
112.47104 1256.2876 -79.212402
117.36121 1256.2876 -79.212402
122.25117 1256.2876 -79.212402
127.14114 1256.2876 -79.212402
132.03131 1256.2876 -79.212402
136.92126 1256.2876 -79.212402
141.81143 1256.2876 -79.212402
146.7014 1256.2876 -79.212402
151.59137 1256.2876 -79.212402
156.48154 1256.2876 -79.212402
161.37152 1256.2876 -79.212402
167.63278 1248.3401 -57.599609
172.56308 1248.3401 -57.599609
-239.59998 1116.7433 284.14868
-234.02797 1116.7433 284.14868
-228.45584 1116.7433 284.14868
-222.88374 1116.7433 284.14868
-217.31163 1116.7433 284.14868
-213.73831 1106.3286 312.31885
-208.11371 1106.3286 312.31885
-202.48898 1106.3286 312.31885
-196.86427 1106.3286 312.31885
-191.23956 1106.3286 312.31885
-187.35065 1095.9139 340.48877
-181.67343 1095.9139 340.48877
-175.99611 1095.9139 340.48877
-170.3188 1095.9139 340.48877
-164.64149 1095.9139 340.48877
-158.96417 1095.9139 340.48877
-153.28697 1095.9139 340.48877
-147.60965 1095.9139 340.48877
-141.93234 1095.9139 340.48877
-136.25502 1095.9139 340.48877
-81.579117 1210.475 30.61792
-76.4804 1210.475 30.61792
-71.381691 1210.475 30.61792
-66.282974 1210.475 30.61792
-61.184364 1210.475 30.61792
-56.085648 1210.475 30.61792
-50.986935 1210.475 30.61792
-45.888226 1210.475 30.61792
-40.789509 1210.475 30.61792
-35.690891 1210.475 30.61792
-30.592182 1210.475 30.61792
-25.0639 1227.4855 -15.393066
-20.051102 1227.4855 -15.393066
-15.038302 1227.4855 -15.393066
-10.025599 1227.4855 -15.393066
-4.9707189 1235.8171 -37.928955
0 1235.8171 -37.928955
4.970624 1235.8171 -37.928955
9.9414377 1235.8171 -37.928955
14.791082 1243.8018 -59.526123
19.721569 1243.8018 -59.526123
24.651867 1243.8018 -59.526123
29.340206 1251.7864 -81.123291
34.230366 1251.7864 -81.123291
39.442951 1243.8018 -59.526123
44.373436 1243.8018 -59.526123
49.303734 1243.8018 -59.526123
54.234035 1243.8018 -59.526123
59.16452 1243.8018 -59.526123
64.094818 1243.8018 -59.526123
69.025299 1243.8018 -59.526123
73.955605 1243.8018 -59.526123
78.885902 1243.8018 -59.526123
83.816391 1243.8018 -59.526123
88.020805 1251.7864 -81.123291
92.910973 1251.7864 -81.123291
97.800934 1251.7864 -81.123291
102.6909 1251.7864 -81.123291
107.58107 1251.7864 -81.123291
112.47104 1251.7864 -81.123291
117.36121 1251.7864 -81.123291
122.25117 1251.7864 -81.123291
127.14114 1251.7864 -81.123291
132.03131 1251.7864 -81.123291
136.92126 1251.7864 -81.123291
141.81143 1251.7864 -81.123291
146.7014 1251.7864 -81.123291
151.59137 1251.7864 -81.123291
156.48154 1251.7864 -81.123291
161.37152 1251.7864 -81.123291
167.63278 1243.8018 -59.526123
172.56308 1243.8018 -59.526123
-234.02797 1111.6141 281.97144
-226.37114 1121.7284 254.76025
-220.84987 1121.7284 254.76025
-217.31163 1111.6141 281.97144
-213.73831 1101.1511 310.12109
-208.11371 1101.1511 310.12109
-202.48898 1101.1511 310.12109
-196.86427 1101.1511 310.12109
-193.02797 1090.688 338.27051
-187.35065 1090.688 338.27051
-181.67343 1090.688 338.27051
-175.99611 1090.688 338.27051
-170.3188 1090.688 338.27051
-164.64149 1090.688 338.27051
-158.96417 1090.688 338.27051
-153.28697 1090.688 338.27051
-147.60965 1090.688 338.27051
-141.93234 1090.688 338.27051
-136.25502 1090.688 338.27051
-87.422989 1197.0624 52.08374
-81.579117 1205.7816 28.625732
-76.4804 1205.7816 28.625732
-71.381691 1205.7816 28.625732
-66.282974 1205.7816 28.625732
-61.184364 1205.7816 28.625732
-56.085648 1205.7816 28.625732
-50.986935 1205.7816 28.625732
-45.888226 1205.7816 28.625732
-40.438843 1214.5009 5.1677246
-35.38406 1214.5009 5.1677246
-30.329182 1214.5009 5.1677246
-25.0639 1222.8711 -17.351807
-20.051102 1222.8711 -17.351807
-15.038302 1222.8711 -17.351807
-10.025599 1222.8711 -17.351807
-5.0127993 1222.8711 -17.351807
0 1222.8711 -17.351807
5.0127034 1222.8711 -17.351807
9.9414377 1231.2417 -39.871338
14.791082 1239.2633 -61.452637
19.721569 1239.2633 -61.452637
24.651867 1239.2633 -61.452637
29.340206 1247.2849 -83.033936
34.230366 1247.2849 -83.033936
39.442951 1239.2633 -61.452637
44.373436 1239.2633 -61.452637
49.303734 1239.2633 -61.452637
54.234035 1239.2633 -61.452637
59.16452 1239.2633 -61.452637
64.094818 1239.2633 -61.452637
69.025299 1239.2633 -61.452637
73.955605 1239.2633 -61.452637
78.240669 1247.2849 -83.033936
83.130836 1247.2849 -83.033936
88.020805 1247.2849 -83.033936
92.910973 1247.2849 -83.033936
98.607468 1239.2633 -61.452637
103.53777 1239.2633 -61.452637
107.58107 1247.2849 -83.033936
112.47104 1247.2849 -83.033936
117.36121 1247.2849 -83.033936
122.25117 1247.2849 -83.033936
127.14114 1247.2849 -83.033936
132.03131 1247.2849 -83.033936
136.92126 1247.2849 -83.033936
141.81143 1247.2849 -83.033936
146.7014 1247.2849 -83.033936
151.59137 1247.2849 -83.033936
156.48154 1247.2849 -83.033936
161.37152 1247.2849 -83.033936
166.26167 1247.2849 -83.033936
171.15164 1247.2849 -83.033936
-226.37114 1116.646 252.60303
-220.84987 1116.646 252.60303
-217.31163 1106.485 279.79419
-213.73831 1095.9735 307.92334
-208.11371 1095.9735 307.92334
-202.48898 1095.9735 307.92334
-196.86427 1095.9735 307.92334
-193.02797 1085.462 336.052
-187.35065 1085.462 336.052
-181.67343 1085.462 336.052
-175.99611 1085.462 336.052
-170.3188 1085.462 336.052
-164.64149 1085.462 336.052
-158.96417 1085.462 336.052
-153.28697 1085.462 336.052
-147.60965 1085.462 336.052
-141.93234 1085.462 336.052
-136.25502 1085.462 336.052
-130.57771 1085.462 336.052
-110.82822 1165.3492 122.27222
-105.55067 1165.3492 122.27222
-100.27312 1165.3492 122.27222
-92.565445 1192.3286 50.074463
-87.422989 1192.3286 50.074463
-81.579117 1201.0883 26.633545
-76.4804 1201.0883 26.633545
-71.381691 1201.0883 26.633545
-66.282974 1201.0883 26.633545
-61.184364 1201.0883 26.633545
-56.085648 1201.0883 26.633545
-50.986935 1201.0883 26.633545
-45.888226 1201.0883 26.633545
-40.438843 1209.8479 3.192627
-35.38406 1209.8479 3.192627
-30.329182 1209.8479 3.192627
-25.0639 1218.2568 -19.310303
-20.051102 1218.2568 -19.310303
-15.038302 1218.2568 -19.310303
-10.025599 1218.2568 -19.310303
-5.0127993 1218.2568 -19.310303
0 1218.2568 -19.310303
5.0127034 1218.2568 -19.310303
10.025599 1218.2568 -19.310303
14.912063 1226.666 -41.813477
19.882875 1226.666 -41.813477
24.651867 1234.7249 -63.378906
29.582165 1234.7249 -63.378906
34.51265 1234.7249 -63.378906
39.442951 1234.7249 -63.378906
44.373436 1234.7249 -63.378906
49.303734 1234.7249 -63.378906
54.234035 1234.7249 -63.378906
59.16452 1234.7249 -63.378906
