ply
format ascii 1.0
comment PCL generated
element vertex 1588
property float x
property float y
property float z
element camera 0
property float view_px
property float view_py
property float view_pz
property float x_axisx
property float x_axisy
property float x_axisz
property float y_axisx
property float y_axisy
property float y_axisz
property float z_axisx
property float z_axisy
property float z_axisz
property float focal
property float scalex
property float scaley
property float centerx
property float centery
property int viewportx
property int viewporty
property float k1
property float k2
end_header
53.248734 1273.5266 197.52246
58.573528 1273.5266 197.52246
63.898525 1273.5266 197.52246
69.223312 1273.5266 197.52246
74.548309 1273.5266 197.52246
79.8731 1273.5266 197.52246
85.197891 1273.5266 197.52246
90.522888 1273.5266 197.52246
95.847679 1273.5266 197.52246
101.17268 1273.5266 197.52246
106.49747 1273.5266 197.52246
111.82227 1273.5266 197.52246
116.10578 1281.941 171.76245
121.38322 1281.941 171.76245
127.79705 1273.5266 197.52246
133.12184 1273.5266 197.52246
138.44662 1273.5266 197.52246
143.77162 1273.5266 197.52246
150.42194 1265.1121 223.28247
155.79427 1265.1121 223.28247
161.16641 1265.1121 223.28247
166.53854 1265.1121 223.28247
171.91087 1265.1121 223.28247
177.283 1265.1121 223.28247
182.65533 1265.1121 223.28247
188.02748 1265.1121 223.28247
193.39961 1265.1121 223.28247
198.77194 1265.1121 223.28247
204.14407 1265.1121 223.28247
209.5164 1265.1121 223.28247
214.88853 1265.1121 223.28247
222.2735 1256.386 249.99658
227.69493 1256.386 249.99658
233.11615 1256.386 249.99658
238.53758 1256.386 249.99658
243.9588 1256.386 249.99658
249.38004 1256.386 249.99658
254.80147 1256.386 249.99658
260.22269 1256.386 249.99658
268.04968 1247.6599 276.71045
273.52002 1247.6599 276.71045
278.99033 1247.6599 276.71045
284.46085 1247.6599 276.71045
289.93118 1247.6599 276.71045
295.40167 1247.6599 276.71045
300.87201 1247.6599 276.71045
309.18973 1238.6221 304.37866
-159.7462 1268.625 195.44165
-154.42131 1268.625 195.44165
-149.09642 1268.625 195.44165
-143.77162 1268.625 195.44165
-138.44673 1268.625 195.44165
-133.12184 1268.625 195.44165
-127.79694 1268.625 195.44165
-122.47205 1268.625 195.44165
-117.14725 1268.625 195.44165
-111.82236 1268.625 195.44165
-106.49747 1268.625 195.44165
-101.17258 1268.625 195.44165
-95.847679 1268.625 195.44165
-90.522888 1268.625 195.44165
-85.197998 1268.625 195.44165
-79.8731 1268.625 195.44165
-73.885452 1277.083 169.70044
-68.607895 1277.083 169.70044
-63.898525 1268.625 195.44165
-58.573627 1268.625 195.44165
-53.248734 1268.625 195.44165
-47.49778 1277.083 169.70044
-42.22023 1277.083 169.70044
-36.942772 1277.083 169.70044
-31.66522 1277.083 169.70044
-26.387667 1277.083 169.70044
-21.110115 1277.083 169.70044
-15.83256 1277.083 169.70044
-10.555108 1277.083 169.70044
-5.277554 1277.083 169.70044
0 1277.083 169.70044
5.2774534 1277.083 169.70044
10.555108 1277.083 169.70044
15.83256 1277.083 169.70044
21.110216 1277.083 169.70044
26.387667 1277.083 169.70044
31.94916 1268.625 195.44165
37.274155 1268.625 195.44165
42.598946 1268.625 195.44165
47.923943 1268.625 195.44165
53.248734 1268.625 195.44165
58.573528 1268.625 195.44165
63.898525 1268.625 195.44165
69.223312 1268.625 195.44165
75.211067 1260.167 221.18335
79.8731 1268.625 195.44165
85.197891 1268.625 195.44165
90.522888 1268.625 195.44165
95.847679 1268.625 195.44165
101.17268 1268.625 195.44165
106.49747 1268.625 195.44165
111.82227 1268.625 195.44165
116.10578 1277.083 169.70044
121.38322 1277.083 169.70044
127.79705 1268.625 195.44165
133.12184 1268.625 195.44165
138.44662 1268.625 195.44165
143.77162 1268.625 195.44165
149.09642 1268.625 195.44165
154.42142 1268.625 195.44165
159.7462 1268.625 195.44165
166.53854 1260.167 221.18335
171.91087 1260.167 221.18335
177.283 1260.167 221.18335
181.04578 1268.625 195.44165
186.37057 1268.625 195.44165
193.39961 1260.167 221.18335
198.77194 1260.167 221.18335
204.14407 1260.167 221.18335
209.5164 1260.167 221.18335
214.88853 1260.167 221.18335
220.26068 1260.167 221.18335
227.69493 1251.3956 247.87817
233.11615 1251.3956 247.87817
238.53758 1251.3956 247.87817
243.9588 1251.3956 247.87817
249.38004 1251.3956 247.87817
254.80147 1251.3956 247.87817
260.22269 1251.3956 247.87817
268.04968 1242.6243 274.573
273.52002 1242.6243 274.573
278.99033 1242.6243 274.573
284.46085 1242.6243 274.573
289.93118 1242.6243 274.573
295.40167 1242.6243 274.573
300.87201 1242.6243 274.573
306.34235 1242.6243 274.573
311.81284 1242.6243 274.573
-165.07111 1263.7234 193.36108
-159.7462 1263.7234 193.36108
-154.42131 1263.7234 193.36108
-149.09642 1263.7234 193.36108
-143.77162 1263.7234 193.36108
-138.44673 1263.7234 193.36108
-133.12184 1263.7234 193.36108
-127.79694 1263.7234 193.36108
-122.47205 1263.7234 193.36108
-117.14725 1263.7234 193.36108
-111.82236 1263.7234 193.36108
-106.49747 1263.7234 193.36108
-101.17258 1263.7234 193.36108
-95.847679 1263.7234 193.36108
-90.522888 1263.7234 193.36108
-85.197998 1263.7234 193.36108
-79.8731 1263.7234 193.36108
-73.885452 1272.2251 167.63818
-68.607895 1272.2251 167.63818
-63.330441 1272.2251 167.63818
-58.052891 1272.2251 167.63818
-52.775333 1272.2251 167.63818
-47.49778 1272.2251 167.63818
-42.22023 1272.2251 167.63818
-36.942772 1272.2251 167.63818
-31.66522 1272.2251 167.63818
-26.387667 1272.2251 167.63818
-21.110115 1272.2251 167.63818
-15.83256 1272.2251 167.63818
-10.555108 1272.2251 167.63818
-5.277554 1272.2251 167.63818
0 1272.2251 167.63818
5.2774534 1272.2251 167.63818
10.649788 1263.7234 193.36108
15.97458 1263.7234 193.36108
21.299576 1263.7234 193.36108
26.624367 1263.7234 193.36108
31.94916 1263.7234 193.36108
37.274155 1263.7234 193.36108
42.598946 1263.7234 193.36108
47.923943 1263.7234 193.36108
53.248734 1263.7234 193.36108
58.573528 1263.7234 193.36108
63.898525 1263.7234 193.36108
69.223312 1263.7234 193.36108
74.548309 1263.7234 193.36108
79.8731 1263.7234 193.36108
85.197891 1263.7234 193.36108
90.522888 1263.7234 193.36108
95.847679 1263.7234 193.36108
101.17268 1263.7234 193.36108
106.49747 1263.7234 193.36108
111.82227 1263.7234 193.36108
116.10578 1272.2251 167.63818
121.38322 1272.2251 167.63818
127.79705 1263.7234 193.36108
133.12184 1263.7234 193.36108
138.44662 1263.7234 193.36108
143.77162 1263.7234 193.36108
149.09642 1263.7234 193.36108
154.42142 1263.7234 193.36108
159.7462 1263.7234 193.36108
165.071 1263.7234 193.36108
170.396 1263.7234 193.36108
175.72078 1263.7234 193.36108
181.04578 1263.7234 193.36108
186.37057 1263.7234 193.36108
193.39961 1255.2218 219.08423
198.77194 1255.2218 219.08423
204.14407 1255.2218 219.08423
209.5164 1255.2218 219.08423
214.88853 1255.2218 219.08423
220.26068 1255.2218 219.08423
227.69493 1246.4053 245.76001
233.11615 1246.4053 245.76001
238.53758 1246.4053 245.76001
243.9588 1246.4053 245.76001
249.38004 1246.4053 245.76001
254.80147 1246.4053 245.76001
260.22269 1246.4053 245.76001
265.6441 1246.4053 245.76001
273.52002 1237.5889 272.43555
278.99033 1237.5889 272.43555
284.46085 1237.5889 272.43555
289.93118 1237.5889 272.43555
295.40167 1237.5889 272.43555
300.87201 1237.5889 272.43555
306.34235 1237.5889 272.43555
311.81284 1237.5889 272.43555
-165.07111 1258.8219 191.28052
-159.7462 1258.8219 191.28052
-154.42131 1258.8219 191.28052
-149.09642 1258.8219 191.28052
-143.77162 1258.8219 191.28052
-138.44673 1258.8219 191.28052
-133.12184 1258.8219 191.28052
-127.79694 1258.8219 191.28052
-122.47205 1258.8219 191.28052
-117.14725 1258.8219 191.28052
-111.82236 1258.8219 191.28052
-106.49747 1258.8219 191.28052
-101.17258 1258.8219 191.28052
-95.847679 1258.8219 191.28052
-90.522888 1258.8219 191.28052
-85.197998 1258.8219 191.28052
-79.163002 1267.3671 165.57617
-73.885452 1267.3671 165.57617
-68.607895 1267.3671 165.57617
-63.330441 1267.3671 165.57617
-58.052891 1267.3671 165.57617
-52.775333 1267.3671 165.57617
-47.49778 1267.3671 165.57617
-42.22023 1267.3671 165.57617
-36.942772 1267.3671 165.57617
-31.66522 1267.3671 165.57617
-26.387667 1267.3671 165.57617
-21.110115 1267.3671 165.57617
-15.83256 1267.3671 165.57617
-10.555108 1267.3671 165.57617
-5.277554 1267.3671 165.57617
0 1267.3671 165.57617
5.2774534 1267.3671 165.57617
10.649788 1258.8219 191.28052
15.97458 1258.8219 191.28052
21.299576 1258.8219 191.28052
26.387667 1267.3671 165.57617
31.665119 1267.3671 165.57617
37.274155 1258.8219 191.28052
42.598946 1258.8219 191.28052
47.923943 1258.8219 191.28052
53.248734 1258.8219 191.28052
58.573528 1258.8219 191.28052
63.898525 1258.8219 191.28052
69.223312 1258.8219 191.28052
74.548309 1258.8219 191.28052
79.8731 1258.8219 191.28052
85.197891 1258.8219 191.28052
90.522888 1258.8219 191.28052
95.847679 1258.8219 191.28052
101.17268 1258.8219 191.28052
106.49747 1258.8219 191.28052
111.82227 1258.8219 191.28052
117.14725 1258.8219 191.28052
122.47205 1258.8219 191.28052
127.79705 1258.8219 191.28052
133.12184 1258.8219 191.28052
138.44662 1258.8219 191.28052
143.77162 1258.8219 191.28052
149.09642 1258.8219 191.28052
154.42142 1258.8219 191.28052
159.7462 1258.8219 191.28052
165.071 1258.8219 191.28052
170.396 1258.8219 191.28052
175.72078 1258.8219 191.28052
181.04578 1258.8219 191.28052
186.37057 1258.8219 191.28052
191.69536 1258.8219 191.28052
198.77194 1250.2766 216.98511
204.14407 1250.2766 216.98511
209.5164 1250.2766 216.98511
214.88853 1250.2766 216.98511
220.26068 1250.2766 216.98511
225.63301 1250.2766 216.98511
231.00513 1250.2766 216.98511
236.37747 1250.2766 216.98511
241.7496 1250.2766 216.98511
249.38004 1241.415 243.64185
254.80147 1241.415 243.64185
260.22269 1241.415 243.64185
265.6441 1241.415 243.64185
273.52002 1232.5533 270.2981
278.99033 1232.5533 270.2981
284.46085 1232.5533 270.2981
289.93118 1232.5533 270.2981
295.40167 1232.5533 270.2981
300.87201 1232.5533 270.2981
309.18973 1223.375 297.90674
314.71112 1223.375 297.90674
320.23227 1223.375 297.90674
-170.396 1253.9204 189.19995
-165.07111 1253.9204 189.19995
-159.7462 1253.9204 189.19995
-154.42131 1253.9204 189.19995
-149.09642 1253.9204 189.19995
-143.77162 1253.9204 189.19995
-138.44673 1253.9204 189.19995
-133.12184 1253.9204 189.19995
-127.79694 1253.9204 189.19995
-122.47205 1253.9204 189.19995
-117.14725 1253.9204 189.19995
-111.82236 1253.9204 189.19995
-106.49747 1253.9204 189.19995
-101.17258 1253.9204 189.19995
-95.847679 1253.9204 189.19995
-90.522888 1253.9204 189.19995
-85.197998 1253.9204 189.19995
-79.163002 1262.509 163.51416
-73.885452 1262.509 163.51416
-68.607895 1262.509 163.51416
-63.330441 1262.509 163.51416
-58.052891 1262.509 163.51416
-52.775333 1262.509 163.51416
-47.49778 1262.509 163.51416
-42.22023 1262.509 163.51416
-36.942772 1262.509 163.51416
-31.66522 1262.509 163.51416
-26.387667 1262.509 163.51416
-21.110115 1262.509 163.51416
-15.83256 1262.509 163.51416
-10.555108 1262.509 163.51416
-5.277554 1262.509 163.51416
0 1262.509 163.51416
5.2774534 1262.509 163.51416
10.649788 1253.9204 189.19995
15.97458 1253.9204 189.19995
21.299576 1253.9204 189.19995
26.387667 1262.509 163.51416
31.665119 1262.509 163.51416
36.942772 1262.509 163.51416
42.598946 1253.9204 189.19995
47.923943 1253.9204 189.19995
53.248734 1253.9204 189.19995
58.052788 1262.509 163.51416
63.330441 1262.509 163.51416
69.223312 1253.9204 189.19995
74.548309 1253.9204 189.19995
79.8731 1253.9204 189.19995
85.197891 1253.9204 189.19995
90.522888 1253.9204 189.19995
95.847679 1253.9204 189.19995
101.17268 1253.9204 189.19995
106.49747 1253.9204 189.19995
111.82227 1253.9204 189.19995
117.14725 1253.9204 189.19995
122.47205 1253.9204 189.19995
127.79705 1253.9204 189.19995
133.12184 1253.9204 189.19995
138.44662 1253.9204 189.19995
143.77162 1253.9204 189.19995
149.09642 1253.9204 189.19995
154.42142 1253.9204 189.19995
159.7462 1253.9204 189.19995
165.071 1253.9204 189.19995
170.396 1253.9204 189.19995
175.72078 1253.9204 189.19995
181.04578 1253.9204 189.19995
186.37057 1253.9204 189.19995
191.69536 1253.9204 189.19995
197.02036 1253.9204 189.19995
202.34515 1253.9204 189.19995
209.5164 1245.3315 214.88599
214.88853 1245.3315 214.88599
220.26068 1245.3315 214.88599
225.63301 1245.3315 214.88599
231.00513 1245.3315 214.88599
236.37747 1245.3315 214.88599
241.7496 1245.3315 214.88599
249.38004 1236.4246 241.52344
254.80147 1236.4246 241.52344
260.22269 1236.4246 241.52344
265.6441 1236.4246 241.52344
271.06534 1236.4246 241.52344
276.48657 1236.4246 241.52344
284.46085 1227.5178 268.16064
289.93118 1227.5178 268.16064
295.40167 1227.5178 268.16064
300.87201 1227.5178 268.16064
309.18973 1218.2927 295.74951
314.71112 1218.2927 295.74951
320.23227 1218.2927 295.74951
-168.8811 1257.6511 161.4519
-163.60356 1257.6511 161.4519
-159.7462 1249.0188 187.11938
-155.79417 1240.3864 212.78711
-149.09642 1249.0188 187.11938
-143.77162 1249.0188 187.11938
-138.44673 1249.0188 187.11938
-133.12184 1249.0188 187.11938
-127.79694 1249.0188 187.11938
-122.47205 1249.0188 187.11938
-117.14725 1249.0188 187.11938
-111.82236 1249.0188 187.11938
-106.49747 1249.0188 187.11938
-101.17258 1249.0188 187.11938
-94.99556 1257.6511 161.4519
-89.718109 1257.6511 161.4519
-84.440552 1257.6511 161.4519
-79.163002 1257.6511 161.4519
-73.885452 1257.6511 161.4519
-68.607895 1257.6511 161.4519
-63.330441 1257.6511 161.4519
-58.052891 1257.6511 161.4519
-52.775333 1257.6511 161.4519
-47.49778 1257.6511 161.4519
-42.22023 1257.6511 161.4519
-36.942772 1257.6511 161.4519
-31.66522 1257.6511 161.4519
-26.387667 1257.6511 161.4519
-21.110115 1257.6511 161.4519
-15.97458 1249.0188 187.11938
-10.649788 1249.0188 187.11938
-5.277554 1257.6511 161.4519
0 1257.6511 161.4519
5.3247924 1249.0188 187.11938
10.649788 1249.0188 187.11938
15.97458 1249.0188 187.11938
21.110216 1257.6511 161.4519
26.387667 1257.6511 161.4519
31.665119 1257.6511 161.4519
36.942772 1257.6511 161.4519
42.598946 1249.0188 187.11938
47.923943 1249.0188 187.11938
53.248734 1249.0188 187.11938
58.052788 1257.6511 161.4519
63.330441 1257.6511 161.4519
69.223312 1249.0188 187.11938
74.548309 1249.0188 187.11938
79.8731 1249.0188 187.11938
85.197891 1249.0188 187.11938
90.522888 1249.0188 187.11938
95.847679 1249.0188 187.11938
101.17268 1249.0188 187.11938
106.49747 1249.0188 187.11938
111.82227 1249.0188 187.11938
117.14725 1249.0188 187.11938
122.47205 1249.0188 187.11938
127.79705 1249.0188 187.11938
133.12184 1249.0188 187.11938
138.44662 1249.0188 187.11938
143.77162 1249.0188 187.11938
149.09642 1249.0188 187.11938
154.42142 1249.0188 187.11938
159.7462 1249.0188 187.11938
165.071 1249.0188 187.11938
170.396 1249.0188 187.11938
175.72078 1249.0188 187.11938
181.04578 1249.0188 187.11938
186.37057 1249.0188 187.11938
191.69536 1249.0188 187.11938
197.02036 1249.0188 187.11938
202.34515 1249.0188 187.11938
209.5164 1240.3864 212.78711
214.88853 1240.3864 212.78711
220.26068 1240.3864 212.78711
225.63301 1240.3864 212.78711
231.00513 1240.3864 212.78711
236.37747 1240.3864 212.78711
241.7496 1240.3864 212.78711
247.12175 1240.3864 212.78711
252.49408 1240.3864 212.78711
260.22269 1231.4343 239.40527
265.6441 1231.4343 239.40527
271.06534 1231.4343 239.40527
276.48657 1231.4343 239.40527
284.46085 1222.4822 266.02319
289.93118 1222.4822 266.02319
295.40167 1222.4822 266.02319
300.87201 1222.4822 266.02319
309.18973 1213.2103 293.59204
314.71112 1213.2103 293.59204
320.23227 1213.2103 293.59204
325.75366 1213.2103 293.59204
-168.8811 1252.7931 159.38989
-163.60356 1252.7931 159.38989
-161.16641 1235.4412 210.68799
-155.79417 1235.4412 210.68799
-149.09642 1244.1172 185.03882
-143.77162 1244.1172 185.03882
-138.44673 1244.1172 185.03882
-133.12184 1244.1172 185.03882
-127.79694 1244.1172 185.03882
-122.47205 1244.1172 185.03882
-117.14725 1244.1172 185.03882
-111.82236 1244.1172 185.03882
-105.55067 1252.7931 159.38989
-100.27312 1252.7931 159.38989
-94.99556 1252.7931 159.38989
-89.718109 1252.7931 159.38989
-84.440552 1252.7931 159.38989
-79.163002 1252.7931 159.38989
-73.885452 1252.7931 159.38989
-68.607895 1252.7931 159.38989
-63.330441 1252.7931 159.38989
-58.052891 1252.7931 159.38989
-52.775333 1252.7931 159.38989
-47.49778 1252.7931 159.38989
-42.22023 1252.7931 159.38989
-36.942772 1252.7931 159.38989
-31.66522 1252.7931 159.38989
-26.387667 1252.7931 159.38989
-21.110115 1252.7931 159.38989
-15.97458 1244.1172 185.03882
-10.649788 1244.1172 185.03882
-5.277554 1252.7931 159.38989
0 1252.7931 159.38989
5.3247924 1244.1172 185.03882
10.649788 1244.1172 185.03882
15.97458 1244.1172 185.03882
21.110216 1252.7931 159.38989
26.387667 1252.7931 159.38989
31.665119 1252.7931 159.38989
36.942772 1252.7931 159.38989
42.598946 1244.1172 185.03882
47.923943 1244.1172 185.03882
53.248734 1244.1172 185.03882
58.052788 1252.7931 159.38989
63.330441 1252.7931 159.38989
69.223312 1244.1172 185.03882
74.548309 1244.1172 185.03882
79.8731 1244.1172 185.03882
85.197891 1244.1172 185.03882
90.522888 1244.1172 185.03882
95.847679 1244.1172 185.03882
101.17268 1244.1172 185.03882
106.49747 1244.1172 185.03882
111.82227 1244.1172 185.03882
117.14725 1244.1172 185.03882
122.47205 1244.1172 185.03882
127.79705 1244.1172 185.03882
133.12184 1244.1172 185.03882
138.44662 1244.1172 185.03882
143.77162 1244.1172 185.03882
149.09642 1244.1172 185.03882
154.42142 1244.1172 185.03882
159.7462 1244.1172 185.03882
165.071 1244.1172 185.03882
170.396 1244.1172 185.03882
175.72078 1244.1172 185.03882
181.04578 1244.1172 185.03882
186.37057 1244.1172 185.03882
191.69536 1244.1172 185.03882
197.02036 1244.1172 185.03882
202.34515 1244.1172 185.03882
209.5164 1235.4412 210.68799
214.88853 1235.4412 210.68799
220.26068 1235.4412 210.68799
225.63301 1235.4412 210.68799
231.00513 1235.4412 210.68799
236.37747 1235.4412 210.68799
241.7496 1235.4412 210.68799
247.12175 1235.4412 210.68799
252.49408 1235.4412 210.68799
257.86621 1235.4412 210.68799
263.23856 1235.4412 210.68799
271.06534 1226.444 237.28687
276.48657 1226.444 237.28687
281.90799 1226.444 237.28687
287.32922 1226.444 237.28687
295.40167 1217.4468 263.88574
300.87201 1217.4468 263.88574
306.34235 1217.4468 263.88574
314.71112 1208.1281 291.43481
320.23227 1208.1281 291.43481
325.75366 1208.1281 291.43481
-168.8811 1247.9351 157.32788
-163.60356 1247.9351 157.32788
-161.16641 1230.4961 208.58887
-155.79417 1230.4961 208.58887
-149.09642 1239.2156 182.95825
-143.77162 1239.2156 182.95825
-138.44673 1239.2156 182.95825
-133.12184 1239.2156 182.95825
-127.79694 1239.2156 182.95825
-122.47205 1239.2156 182.95825
-116.10578 1247.9351 157.32788
-110.82822 1247.9351 157.32788
-105.55067 1247.9351 157.32788
-100.27312 1247.9351 157.32788
-94.99556 1247.9351 157.32788
-89.718109 1247.9351 157.32788
-84.440552 1247.9351 157.32788
-79.163002 1247.9351 157.32788
-73.885452 1247.9351 157.32788
-68.607895 1247.9351 157.32788
-63.330441 1247.9351 157.32788
-58.052891 1247.9351 157.32788
-52.775333 1247.9351 157.32788
-47.49778 1247.9351 157.32788
-42.22023 1247.9351 157.32788
-36.942772 1247.9351 157.32788
-31.66522 1247.9351 157.32788
-26.387667 1247.9351 157.32788
-21.110115 1247.9351 157.32788
-15.97458 1239.2156 182.95825
-10.649788 1239.2156 182.95825
-5.277554 1247.9351 157.32788
0 1247.9351 157.32788
5.3247924 1239.2156 182.95825
10.649788 1239.2156 182.95825
15.97458 1239.2156 182.95825
21.110216 1247.9351 157.32788
26.387667 1247.9351 157.32788
31.665119 1247.9351 157.32788
36.942772 1247.9351 157.32788
42.598946 1239.2156 182.95825
47.923943 1239.2156 182.95825
53.248734 1239.2156 182.95825
58.052788 1247.9351 157.32788
63.330441 1247.9351 157.32788
69.223312 1239.2156 182.95825
74.548309 1239.2156 182.95825
79.8731 1239.2156 182.95825
85.197891 1239.2156 182.95825
90.522888 1239.2156 182.95825
95.847679 1239.2156 182.95825
101.17268 1239.2156 182.95825
106.49747 1239.2156 182.95825
111.82227 1239.2156 182.95825
117.14725 1239.2156 182.95825
122.47205 1239.2156 182.95825
127.79705 1239.2156 182.95825
133.12184 1239.2156 182.95825
138.44662 1239.2156 182.95825
143.77162 1239.2156 182.95825
149.09642 1239.2156 182.95825
154.42142 1239.2156 182.95825
159.7462 1239.2156 182.95825
165.071 1239.2156 182.95825
170.396 1239.2156 182.95825
175.72078 1239.2156 182.95825
181.04578 1239.2156 182.95825
186.37057 1239.2156 182.95825
191.69536 1239.2156 182.95825
198.77194 1230.4961 208.58887
204.14407 1230.4961 208.58887
209.5164 1230.4961 208.58887
214.88853 1230.4961 208.58887
220.26068 1230.4961 208.58887
225.63301 1230.4961 208.58887
231.00513 1230.4961 208.58887
236.37747 1230.4961 208.58887
241.7496 1230.4961 208.58887
247.12175 1230.4961 208.58887
252.49408 1230.4961 208.58887
257.86621 1230.4961 208.58887
263.23856 1230.4961 208.58887
271.06534 1221.4536 235.1687
276.48657 1221.4536 235.1687
281.90799 1221.4536 235.1687
287.32922 1221.4536 235.1687
295.40167 1212.4113 261.74829
300.87201 1212.4113 261.74829
306.34235 1212.4113 261.74829
314.71112 1203.0457 289.27759
320.23227 1203.0457 289.27759
325.75366 1203.0457 289.27759
334.32562 1193.6803 316.8064
-173.48186 1216.4634 233.05029
-166.53865 1225.5509 206.48975
-161.16641 1225.5509 206.48975
-155.79417 1225.5509 206.48975
-149.09642 1234.3141 180.87769
-143.77162 1234.3141 180.87769
-138.44673 1234.3141 180.87769
-133.12184 1234.3141 180.87769
-127.79694 1234.3141 180.87769
-122.47205 1234.3141 180.87769
-116.10578 1243.0771 155.26562
-110.82822 1243.0771 155.26562
-105.55067 1243.0771 155.26562
-100.27312 1243.0771 155.26562
-94.99556 1243.0771 155.26562
-89.718109 1243.0771 155.26562
-84.440552 1243.0771 155.26562
-79.163002 1243.0771 155.26562
-73.885452 1243.0771 155.26562
-68.607895 1243.0771 155.26562
-63.330441 1243.0771 155.26562
-58.052891 1243.0771 155.26562
-52.775333 1243.0771 155.26562
-47.49778 1243.0771 155.26562
-42.22023 1243.0771 155.26562
-36.942772 1243.0771 155.26562
-31.66522 1243.0771 155.26562
-26.387667 1243.0771 155.26562
-21.110115 1243.0771 155.26562
-15.97458 1234.3141 180.87769
-10.649788 1234.3141 180.87769
-5.324894 1234.3141 180.87769
0 1234.3141 180.87769
5.3247924 1234.3141 180.87769
10.649788 1234.3141 180.87769
15.97458 1234.3141 180.87769
21.299576 1234.3141 180.87769
26.624367 1234.3141 180.87769
31.665119 1243.0771 155.26562
36.942772 1243.0771 155.26562
42.598946 1234.3141 180.87769
47.923943 1234.3141 180.87769
53.248734 1234.3141 180.87769
58.573528 1234.3141 180.87769
63.898525 1234.3141 180.87769
69.223312 1234.3141 180.87769
74.548309 1234.3141 180.87769
79.8731 1234.3141 180.87769
85.197891 1234.3141 180.87769
90.522888 1234.3141 180.87769
95.847679 1234.3141 180.87769
101.17268 1234.3141 180.87769
106.49747 1234.3141 180.87769
111.82227 1234.3141 180.87769
117.14725 1234.3141 180.87769
122.47205 1234.3141 180.87769
127.79705 1234.3141 180.87769
133.12184 1234.3141 180.87769
138.44662 1234.3141 180.87769
143.77162 1234.3141 180.87769
149.09642 1234.3141 180.87769
154.42142 1234.3141 180.87769
159.7462 1234.3141 180.87769
165.071 1234.3141 180.87769
170.396 1234.3141 180.87769
175.72078 1234.3141 180.87769
181.04578 1234.3141 180.87769
186.37057 1234.3141 180.87769
191.69536 1234.3141 180.87769
198.77194 1225.5509 206.48975
204.14407 1225.5509 206.48975
209.5164 1225.5509 206.48975
214.88853 1225.5509 206.48975
220.26068 1225.5509 206.48975
225.63301 1225.5509 206.48975
231.00513 1225.5509 206.48975
236.37747 1225.5509 206.48975
241.7496 1225.5509 206.48975
247.12175 1225.5509 206.48975
254.80147 1216.4634 233.05029
260.22269 1216.4634 233.05029
265.6441 1216.4634 233.05029
271.06534 1216.4634 233.05029
276.48657 1216.4634 233.05029
281.90799 1216.4634 233.05029
287.32922 1216.4634 233.05029
295.40167 1207.3757 259.61084
300.87201 1207.3757 259.61084
306.34235 1207.3757 259.61084
314.71112 1197.9634 287.12012
320.23227 1197.9634 287.12012
325.75366 1197.9634 287.12012
334.32562 1188.5511 314.62939
-178.90309 1211.4729 230.93213
-173.48186 1211.4729 230.93213
-168.06053 1211.4729 230.93213
-161.16641 1220.6057 204.39062
-155.79417 1220.6057 204.39062
-150.42194 1220.6057 204.39062
-143.77162 1229.4125 178.79688
-138.44673 1229.4125 178.79688
-133.12184 1229.4125 178.79688
-127.79694 1229.4125 178.79688
-122.47205 1229.4125 178.79688
-116.10578 1238.2191 153.20361
-110.82822 1238.2191 153.20361
-105.55067 1238.2191 153.20361
-100.27312 1238.2191 153.20361
-94.99556 1238.2191 153.20361
-89.718109 1238.2191 153.20361
-84.440552 1238.2191 153.20361
-79.163002 1238.2191 153.20361
-73.885452 1238.2191 153.20361
-68.607895 1238.2191 153.20361
-63.330441 1238.2191 153.20361
-58.052891 1238.2191 153.20361
-52.775333 1238.2191 153.20361
-47.49778 1238.2191 153.20361
-42.22023 1238.2191 153.20361
-36.942772 1238.2191 153.20361
-31.66522 1238.2191 153.20361
-26.387667 1238.2191 153.20361
-21.110115 1238.2191 153.20361
-15.97458 1229.4125 178.79688
-10.649788 1229.4125 178.79688
-5.324894 1229.4125 178.79688
0 1229.4125 178.79688
5.3247924 1229.4125 178.79688
10.649788 1229.4125 178.79688
15.97458 1229.4125 178.79688
21.299576 1229.4125 178.79688
26.624367 1229.4125 178.79688
31.665119 1238.2191 153.20361
36.942772 1238.2191 153.20361
42.598946 1229.4125 178.79688
47.923943 1229.4125 178.79688
53.248734 1229.4125 178.79688
58.052788 1238.2191 153.20361
63.330441 1238.2191 153.20361
68.607895 1238.2191 153.20361
73.885544 1238.2191 153.20361
79.163002 1238.2191 153.20361
84.44046 1238.2191 153.20361
89.718109 1238.2191 153.20361
95.847679 1229.4125 178.79688
101.17268 1229.4125 178.79688
106.49747 1229.4125 178.79688
111.82227 1229.4125 178.79688
117.14725 1229.4125 178.79688
122.47205 1229.4125 178.79688
127.79705 1229.4125 178.79688
133.12184 1229.4125 178.79688
138.44662 1229.4125 178.79688
143.77162 1229.4125 178.79688
149.09642 1229.4125 178.79688
154.42142 1229.4125 178.79688
159.7462 1229.4125 178.79688
165.071 1229.4125 178.79688
170.396 1229.4125 178.79688
175.72078 1229.4125 178.79688
181.04578 1229.4125 178.79688
186.37057 1229.4125 178.79688
191.69536 1229.4125 178.79688
198.77194 1220.6057 204.39062
204.14407 1220.6057 204.39062
209.5164 1220.6057 204.39062
214.88853 1220.6057 204.39062
220.26068 1220.6057 204.39062
225.63301 1220.6057 204.39062
231.00513 1220.6057 204.39062
236.37747 1220.6057 204.39062
241.7496 1220.6057 204.39062
247.12175 1220.6057 204.39062
254.80147 1211.4729 230.93213
260.22269 1211.4729 230.93213
265.6441 1211.4729 230.93213
271.06534 1211.4729 230.93213
276.48657 1211.4729 230.93213
281.90799 1211.4729 230.93213
287.32922 1211.4729 230.93213
295.40167 1202.3401 257.47339
300.87201 1202.3401 257.47339
306.34235 1202.3401 257.47339
314.71112 1192.8811 284.96289
320.23227 1192.8811 284.96289
325.75366 1192.8811 284.96289
334.32562 1183.4221 312.45215
339.89761 1183.4221 312.45215
345.46982 1183.4221 312.45215
-184.32442 1206.4827 228.81372
-178.90309 1206.4827 228.81372
-173.48186 1206.4827 228.81372
-168.06053 1206.4827 228.81372
-161.16641 1215.6606 202.2915
-155.79417 1215.6606 202.2915
-150.42194 1215.6606 202.2915
-143.77162 1224.511 176.71631
-138.44673 1224.511 176.71631
-133.12184 1224.511 176.71631
-127.79694 1224.511 176.71631
-121.38322 1233.3611 151.1416
-116.10578 1233.3611 151.1416
-110.82822 1233.3611 151.1416
-105.55067 1233.3611 151.1416
-100.27312 1233.3611 151.1416
-94.99556 1233.3611 151.1416
-89.718109 1233.3611 151.1416
-84.440552 1233.3611 151.1416
-79.163002 1233.3611 151.1416
-73.885452 1233.3611 151.1416
-68.607895 1233.3611 151.1416
-63.330441 1233.3611 151.1416
-58.052891 1233.3611 151.1416
-52.775333 1233.3611 151.1416
-47.49778 1233.3611 151.1416
-42.22023 1233.3611 151.1416
-36.942772 1233.3611 151.1416
-31.66522 1233.3611 151.1416
-26.387667 1233.3611 151.1416
-21.110115 1233.3611 151.1416
-15.97458 1224.511 176.71631
-10.649788 1224.511 176.71631
-5.324894 1224.511 176.71631
0 1224.511 176.71631
5.3247924 1224.511 176.71631
10.649788 1224.511 176.71631
15.97458 1224.511 176.71631
21.299576 1224.511 176.71631
26.624367 1224.511 176.71631
31.94916 1224.511 176.71631
37.274155 1224.511 176.71631
42.598946 1224.511 176.71631
47.497883 1233.3611 151.1416
52.775333 1233.3611 151.1416
58.052788 1233.3611 151.1416
63.330441 1233.3611 151.1416
68.607895 1233.3611 151.1416
73.885544 1233.3611 151.1416
79.163002 1233.3611 151.1416
84.44046 1233.3611 151.1416
89.718109 1233.3611 151.1416
95.847679 1224.511 176.71631
101.17268 1224.511 176.71631
106.49747 1224.511 176.71631
111.82227 1224.511 176.71631
117.14725 1224.511 176.71631
122.47205 1224.511 176.71631
127.79705 1224.511 176.71631
133.12184 1224.511 176.71631
138.44662 1224.511 176.71631
143.77162 1224.511 176.71631
149.09642 1224.511 176.71631
154.42142 1224.511 176.71631
159.7462 1224.511 176.71631
165.071 1224.511 176.71631
170.396 1224.511 176.71631
175.72078 1224.511 176.71631
181.04578 1224.511 176.71631
186.37057 1224.511 176.71631
193.39961 1215.6606 202.2915
197.02036 1224.511 176.71631
202.34515 1224.511 176.71631
207.67015 1224.511 176.71631
212.99493 1224.511 176.71631
220.26068 1215.6606 202.2915
225.63301 1215.6606 202.2915
228.96953 1224.511 176.71631
234.29451 1224.511 176.71631
239.61931 1224.511 176.71631
247.12175 1215.6606 202.2915
252.49408 1215.6606 202.2915
260.22269 1206.4827 228.81372
265.6441 1206.4827 228.81372
271.06534 1206.4827 228.81372
276.48657 1206.4827 228.81372
281.90799 1206.4827 228.81372
289.93118 1197.3047 255.33594
295.40167 1197.3047 255.33594
300.87201 1197.3047 255.33594
306.34235 1197.3047 255.33594
311.81284 1197.3047 255.33594
320.23227 1187.7987 282.80542
325.75366 1187.7987 282.80542
331.27481 1187.7987 282.80542
336.79596 1187.7987 282.80542
342.31735 1187.7987 282.80542
351.04187 1178.293 310.2749
-191.464 1192.2692 253.19849
-184.32442 1201.4923 226.69556
-178.90309 1201.4923 226.69556
-173.48186 1201.4923 226.69556
-168.06053 1201.4923 226.69556
-161.16641 1210.7155 200.19238
-155.79417 1210.7155 200.19238
-150.42194 1210.7155 200.19238
-143.77162 1219.6094 174.63574
-138.44673 1219.6094 174.63574
-133.12184 1219.6094 174.63574
-127.79694 1219.6094 174.63574
-121.38322 1228.5032 149.07935
-116.10578 1228.5032 149.07935
-110.82822 1228.5032 149.07935
-105.55067 1228.5032 149.07935
-100.27312 1228.5032 149.07935
-94.99556 1228.5032 149.07935
-89.718109 1228.5032 149.07935
-84.440552 1228.5032 149.07935
-79.163002 1228.5032 149.07935
-73.885452 1228.5032 149.07935
-68.607895 1228.5032 149.07935
-63.330441 1228.5032 149.07935
-57.551434 1237.0676 124.46948
-52.319469 1237.0676 124.46948
-47.087502 1237.0676 124.46948
-42.22023 1228.5032 149.07935
-36.942772 1228.5032 149.07935
-31.66522 1228.5032 149.07935
-26.387667 1228.5032 149.07935
-21.110115 1228.5032 149.07935
-15.83256 1228.5032 149.07935
-10.649788 1219.6094 174.63574
-5.324894 1219.6094 174.63574
0 1219.6094 174.63574
5.3247924 1219.6094 174.63574
10.649788 1219.6094 174.63574
15.97458 1219.6094 174.63574
21.299576 1219.6094 174.63574
26.624367 1219.6094 174.63574
31.94916 1219.6094 174.63574
37.274155 1219.6094 174.63574
42.22023 1228.5032 149.07935
47.497883 1228.5032 149.07935
52.775333 1228.5032 149.07935
58.052788 1228.5032 149.07935
63.330441 1228.5032 149.07935
68.607895 1228.5032 149.07935
73.885544 1228.5032 149.07935
79.163002 1228.5032 149.07935
84.44046 1228.5032 149.07935
90.522888 1219.6094 174.63574
95.847679 1219.6094 174.63574
101.17268 1219.6094 174.63574
106.49747 1219.6094 174.63574
111.82227 1219.6094 174.63574
117.14725 1219.6094 174.63574
122.47205 1219.6094 174.63574
127.79705 1219.6094 174.63574
133.12184 1219.6094 174.63574
138.44662 1219.6094 174.63574
143.77162 1219.6094 174.63574
149.09642 1219.6094 174.63574
154.42142 1219.6094 174.63574
159.7462 1219.6094 174.63574
165.071 1219.6094 174.63574
170.396 1219.6094 174.63574
175.72078 1219.6094 174.63574
181.04578 1219.6094 174.63574
186.37057 1219.6094 174.63574
193.39961 1210.7155 200.19238
197.02036 1219.6094 174.63574
202.34515 1219.6094 174.63574
207.67015 1219.6094 174.63574
212.99493 1219.6094 174.63574
220.26068 1210.7155 200.19238
225.63301 1210.7155 200.19238
228.96953 1219.6094 174.63574
234.29451 1219.6094 174.63574
239.61931 1219.6094 174.63574
247.12175 1210.7155 200.19238
252.49408 1210.7155 200.19238
260.22269 1201.4923 226.69556
265.6441 1201.4923 226.69556
271.06534 1201.4923 226.69556
276.48657 1201.4923 226.69556
281.90799 1201.4923 226.69556
289.93118 1192.2692 253.19849
295.40167 1192.2692 253.19849
300.87201 1192.2692 253.19849
306.34235 1192.2692 253.19849
311.81284 1192.2692 253.19849
320.23227 1182.7164 280.64819
325.75366 1182.7164 280.64819
331.27481 1182.7164 280.64819
336.79596 1182.7164 280.64819
342.31735 1182.7164 280.64819
347.8385 1182.7164 280.64819
-195.16707 1196.502 224.57715
-189.74574 1196.502 224.57715
-184.32442 1196.502 224.57715
-178.90309 1196.502 224.57715
-173.48186 1196.502 224.57715
-168.06053 1196.502 224.57715
-162.63921 1196.502 224.57715
-155.79417 1205.7703 198.09326
-150.42194 1205.7703 198.09326
-143.77162 1214.7078 172.55518
-138.44673 1214.7078 172.55518
-133.12184 1214.7078 172.55518
-127.79694 1214.7078 172.55518
-121.38322 1223.645 147.01733
-116.10578 1223.645 147.01733
-110.82822 1223.645 147.01733
-105.55067 1223.645 147.01733
-100.27312 1223.645 147.01733
-94.99556 1223.645 147.01733
-89.718109 1223.645 147.01733
-84.440552 1223.645 147.01733
-79.163002 1223.645 147.01733
-73.885452 1223.645 147.01733
-68.607895 1223.645 147.01733
-63.330441 1223.645 147.01733
-57.551434 1232.2515 122.42505
-52.319469 1232.2515 122.42505
-47.087502 1232.2515 122.42505
-41.855534 1232.2515 122.42505
-36.623669 1232.2515 122.42505
-31.66522 1223.645 147.01733
-26.387667 1223.645 147.01733
-21.110115 1223.645 147.01733
-15.83256 1223.645 147.01733
-10.649788 1214.7078 172.55518
-5.324894 1214.7078 172.55518
0 1214.7078 172.55518
5.3247924 1214.7078 172.55518
10.649788 1214.7078 172.55518
15.97458 1214.7078 172.55518
21.299576 1214.7078 172.55518
26.624367 1214.7078 172.55518
31.94916 1214.7078 172.55518
37.274155 1214.7078 172.55518
42.22023 1223.645 147.01733
47.497883 1223.645 147.01733
52.775333 1223.645 147.01733
58.052788 1223.645 147.01733
63.330441 1223.645 147.01733
68.607895 1223.645 147.01733
73.885544 1223.645 147.01733
79.163002 1223.645 147.01733
84.44046 1223.645 147.01733
90.522888 1214.7078 172.55518
95.847679 1214.7078 172.55518
101.17268 1214.7078 172.55518
106.49747 1214.7078 172.55518
111.82227 1214.7078 172.55518
117.14725 1214.7078 172.55518
122.47205 1214.7078 172.55518
127.79705 1214.7078 172.55518
133.12184 1214.7078 172.55518
138.44662 1214.7078 172.55518
143.77162 1214.7078 172.55518
149.09642 1214.7078 172.55518
154.42142 1214.7078 172.55518
159.7462 1214.7078 172.55518
165.071 1214.7078 172.55518
170.396 1214.7078 172.55518
175.72078 1214.7078 172.55518
181.04578 1214.7078 172.55518
186.37057 1214.7078 172.55518
193.39961 1205.7703 198.09326
197.02036 1214.7078 172.55518
202.34515 1214.7078 172.55518
207.67015 1214.7078 172.55518
212.99493 1214.7078 172.55518
220.26068 1205.7703 198.09326
225.63301 1205.7703 198.09326
228.96953 1214.7078 172.55518
234.29451 1214.7078 172.55518
239.61931 1214.7078 172.55518
247.12175 1205.7703 198.09326
252.49408 1205.7703 198.09326
260.22269 1196.502 224.57715
265.6441 1196.502 224.57715
271.06534 1196.502 224.57715
278.99033 1187.2335 251.06104
284.46085 1187.2335 251.06104
289.93118 1187.2335 251.06104
295.40167 1187.2335 251.06104
300.87201 1187.2335 251.06104
306.34235 1187.2335 251.06104
311.81284 1187.2335 251.06104
320.23227 1177.634 278.49097
325.75366 1177.634 278.49097
331.27481 1177.634 278.49097
336.79596 1177.634 278.49097
342.31735 1177.634 278.49097
347.8385 1177.634 278.49097
-202.40485 1182.198 248.92358
-195.16707 1191.5116 222.45898
-189.74574 1191.5116 222.45898
-184.32442 1191.5116 222.45898
-178.90309 1191.5116 222.45898
-173.48186 1191.5116 222.45898
-168.06053 1191.5116 222.45898
-162.63921 1191.5116 222.45898
-155.79417 1200.8252 195.99414
-150.42194 1200.8252 195.99414
-143.77162 1209.8062 170.47461
-138.44673 1209.8062 170.47461
-133.12184 1209.8062 170.47461
-127.79694 1209.8062 170.47461
-121.38322 1218.7871 144.95508
-116.10578 1218.7871 144.95508
-110.82822 1218.7871 144.95508
-105.55067 1218.7871 144.95508
-100.27312 1218.7871 144.95508
-94.99556 1218.7871 144.95508
-89.718109 1218.7871 144.95508
-84.440552 1218.7871 144.95508
-79.163002 1218.7871 144.95508
-73.885452 1218.7871 144.95508
-68.607895 1218.7871 144.95508
-63.330441 1218.7871 144.95508
-57.551434 1227.4355 120.38086
-52.319469 1227.4355 120.38086
-47.087502 1227.4355 120.38086
-41.855534 1227.4355 120.38086
-36.623669 1227.4355 120.38086
-31.66522 1218.7871 144.95508
-26.387667 1218.7871 144.95508
-21.110115 1218.7871 144.95508
-15.83256 1218.7871 144.95508
-10.649788 1209.8062 170.47461
-5.324894 1209.8062 170.47461
0 1209.8062 170.47461
5.3247924 1209.8062 170.47461
10.649788 1209.8062 170.47461
15.97458 1209.8062 170.47461
21.299576 1209.8062 170.47461
26.624367 1209.8062 170.47461
31.94916 1209.8062 170.47461
37.274155 1209.8062 170.47461
42.22023 1218.7871 144.95508
47.497883 1218.7871 144.95508
52.775333 1218.7871 144.95508
58.052788 1218.7871 144.95508
63.330441 1218.7871 144.95508
69.223312 1209.8062 170.47461
74.548309 1209.8062 170.47461
79.163002 1218.7871 144.95508
84.44046 1218.7871 144.95508
90.522888 1209.8062 170.47461
95.847679 1209.8062 170.47461
101.17268 1209.8062 170.47461
106.49747 1209.8062 170.47461
111.82227 1209.8062 170.47461
117.14725 1209.8062 170.47461
122.47205 1209.8062 170.47461
127.79705 1209.8062 170.47461
133.12184 1209.8062 170.47461
138.44662 1209.8062 170.47461
143.77162 1209.8062 170.47461
149.09642 1209.8062 170.47461
154.42142 1209.8062 170.47461
159.7462 1209.8062 170.47461
165.071 1209.8062 170.47461
170.396 1209.8062 170.47461
175.72078 1209.8062 170.47461
181.04578 1209.8062 170.47461
186.37057 1209.8062 170.47461
193.39961 1200.8252 195.99414
198.77194 1200.8252 195.99414
204.14407 1200.8252 195.99414
207.67015 1209.8062 170.47461
212.99493 1209.8062 170.47461
220.26068 1200.8252 195.99414
225.63301 1200.8252 195.99414
231.00513 1200.8252 195.99414
236.37747 1200.8252 195.99414
241.7496 1200.8252 195.99414
247.12175 1200.8252 195.99414
252.49408 1200.8252 195.99414
260.22269 1191.5116 222.45898
265.6441 1191.5116 222.45898
271.06534 1191.5116 222.45898
278.99033 1182.198 248.92358
284.46085 1182.198 248.92358
289.93118 1182.198 248.92358
295.40167 1182.198 248.92358
300.87201 1182.198 248.92358
306.34235 1182.198 248.92358
311.81284 1182.198 248.92358
320.23227 1172.5516 276.3335
325.75366 1172.5516 276.3335
331.27481 1172.5516 276.3335
336.79596 1172.5516 276.3335
342.31735 1172.5516 276.3335
347.8385 1172.5516 276.3335
-200.58839 1186.5212 220.34082
-195.16707 1186.5212 220.34082
-189.74574 1186.5212 220.34082
-184.32442 1186.5212 220.34082
-178.90309 1186.5212 220.34082
-173.48186 1186.5212 220.34082
-168.06053 1186.5212 220.34082
-162.63921 1186.5212 220.34082
-157.21788 1186.5212 220.34082
-151.79655 1186.5212 220.34082
-145.04982 1195.88 193.89526
-139.67758 1195.88 193.89526
-133.12184 1204.9045 168.39404
-127.79694 1204.9045 168.39404
-121.38322 1213.9291 142.89307
-116.10578 1213.9291 142.89307
-110.82822 1213.9291 142.89307
-105.55067 1213.9291 142.89307
-100.27312 1213.9291 142.89307
-95.847679 1204.9045 168.39404
-89.718109 1213.9291 142.89307
-84.440552 1213.9291 142.89307
-79.163002 1213.9291 142.89307
-73.885452 1213.9291 142.89307
-68.607895 1213.9291 142.89307
-63.330441 1213.9291 142.89307
-57.551434 1222.6194 118.33667
-52.319469 1222.6194 118.33667
-47.087502 1222.6194 118.33667
-42.22023 1213.9291 142.89307
-36.942772 1213.9291 142.89307
-31.66522 1213.9291 142.89307
-26.387667 1213.9291 142.89307
-21.110115 1213.9291 142.89307
-15.83256 1213.9291 142.89307
-10.555108 1213.9291 142.89307
-5.277554 1213.9291 142.89307
0 1204.9045 168.39404
5.3247924 1204.9045 168.39404
10.649788 1204.9045 168.39404
15.97458 1204.9045 168.39404
21.299576 1204.9045 168.39404
26.624367 1204.9045 168.39404
31.94916 1204.9045 168.39404
37.274155 1204.9045 168.39404
42.598946 1204.9045 168.39404
47.923943 1204.9045 168.39404
53.248734 1204.9045 168.39404
58.573528 1204.9045 168.39404
63.898525 1204.9045 168.39404
69.223312 1204.9045 168.39404
74.548309 1204.9045 168.39404
79.163002 1213.9291 142.89307
84.44046 1213.9291 142.89307
90.522888 1204.9045 168.39404
95.847679 1204.9045 168.39404
101.17268 1204.9045 168.39404
106.49747 1204.9045 168.39404
111.82227 1204.9045 168.39404
117.14725 1204.9045 168.39404
122.47205 1204.9045 168.39404
127.79705 1204.9045 168.39404
133.12184 1204.9045 168.39404
138.44662 1204.9045 168.39404
143.77162 1204.9045 168.39404
149.09642 1204.9045 168.39404
154.42142 1204.9045 168.39404
159.7462 1204.9045 168.39404
165.071 1204.9045 168.39404
170.396 1204.9045 168.39404
175.72078 1204.9045 168.39404
181.04578 1204.9045 168.39404
186.37057 1204.9045 168.39404
193.39961 1195.88 193.89526
198.77194 1195.88 193.89526
204.14407 1195.88 193.89526
207.67015 1204.9045 168.39404
212.99493 1204.9045 168.39404
220.26068 1195.88 193.89526
225.63301 1195.88 193.89526
231.00513 1195.88 193.89526
236.37747 1195.88 193.89526
241.7496 1195.88 193.89526
247.12175 1195.88 193.89526
252.49408 1195.88 193.89526
260.22269 1186.5212 220.34082
265.6441 1186.5212 220.34082
271.06534 1186.5212 220.34082
278.99033 1177.1625 246.78613
284.46085 1177.1625 246.78613
289.93118 1177.1625 246.78613
295.40167 1177.1625 246.78613
300.87201 1177.1625 246.78613
306.34235 1177.1625 246.78613
311.81284 1177.1625 246.78613
320.23227 1167.4694 274.17627
325.75366 1167.4694 274.17627
331.27481 1167.4694 274.17627
336.79596 1167.4694 274.17627
342.31735 1167.4694 274.17627
347.8385 1167.4694 274.17627
353.35989 1167.4694 274.17627
-211.43095 1181.5309 218.22241
-206.00961 1181.5309 218.22241
-200.58839 1181.5309 218.22241
-195.16707 1181.5309 218.22241
-191.464 1172.127 244.64868
-184.32442 1181.5309 218.22241
-178.90309 1181.5309 218.22241
-173.48186 1181.5309 218.22241
-168.06053 1181.5309 218.22241
-162.63921 1181.5309 218.22241
-157.21788 1181.5309 218.22241
-151.79655 1181.5309 218.22241
-145.04982 1190.9348 191.79614
-139.67758 1190.9348 191.79614
-133.12184 1200.0031 166.31348
-127.79694 1200.0031 166.31348
-122.47205 1200.0031 166.31348
-116.10578 1209.071 140.83105
-110.82822 1209.071 140.83105
-105.55067 1209.071 140.83105
-101.17258 1200.0031 166.31348
-95.847679 1200.0031 166.31348
-89.718109 1209.071 140.83105
-84.440552 1209.071 140.83105
-79.163002 1209.071 140.83105
-73.885452 1209.071 140.83105
-68.607895 1209.071 140.83105
-63.330441 1209.071 140.83105
-58.052891 1209.071 140.83105
-52.319469 1217.8035 116.29224
-47.087502 1217.8035 116.29224
-42.22023 1209.071 140.83105
-36.942772 1209.071 140.83105
-31.66522 1209.071 140.83105
-26.387667 1209.071 140.83105
-21.110115 1209.071 140.83105
-15.83256 1209.071 140.83105
-10.555108 1209.071 140.83105
-5.277554 1209.071 140.83105
0 1209.071 140.83105
5.2774534 1209.071 140.83105
10.555108 1209.071 140.83105
15.83256 1209.071 140.83105
21.110216 1209.071 140.83105
26.387667 1209.071 140.83105
31.665119 1209.071 140.83105
37.274155 1200.0031 166.31348
42.598946 1200.0031 166.31348
47.923943 1200.0031 166.31348
53.248734 1200.0031 166.31348
58.573528 1200.0031 166.31348
63.898525 1200.0031 166.31348
69.223312 1200.0031 166.31348
74.548309 1200.0031 166.31348
79.8731 1200.0031 166.31348
85.197891 1200.0031 166.31348
90.522888 1200.0031 166.31348
95.847679 1200.0031 166.31348
101.17268 1200.0031 166.31348
106.49747 1200.0031 166.31348
110.82812 1209.071 140.83105
116.10578 1209.071 140.83105
122.47205 1200.0031 166.31348
127.79705 1200.0031 166.31348
133.12184 1200.0031 166.31348
138.44662 1200.0031 166.31348
143.77162 1200.0031 166.31348
149.09642 1200.0031 166.31348
154.42142 1200.0031 166.31348
159.7462 1200.0031 166.31348
165.071 1200.0031 166.31348
170.396 1200.0031 166.31348
175.72078 1200.0031 166.31348
181.04578 1200.0031 166.31348
186.37057 1200.0031 166.31348
193.39961 1190.9348 191.79614
198.77194 1190.9348 191.79614
204.14407 1190.9348 191.79614
209.5164 1190.9348 191.79614
214.88853 1190.9348 191.79614
220.26068 1190.9348 191.79614
225.63301 1190.9348 191.79614
231.00513 1190.9348 191.79614
236.37747 1190.9348 191.79614
241.7496 1190.9348 191.79614
247.12175 1190.9348 191.79614
254.80147 1181.5309 218.22241
260.22269 1181.5309 218.22241
265.6441 1181.5309 218.22241
271.06534 1181.5309 218.22241
278.99033 1172.127 244.64868
284.46085 1172.127 244.64868
289.93118 1172.127 244.64868
295.40167 1172.127 244.64868
300.87201 1172.127 244.64868
306.34235 1172.127 244.64868
311.81284 1172.127 244.64868
320.23227 1162.387 272.0188
325.75366 1162.387 272.0188
331.27481 1162.387 272.0188
336.79596 1162.387 272.0188
342.31735 1162.387 272.0188
347.8385 1162.387 272.0188
350.10568 1172.127 244.64868
355.57602 1172.127 244.64868
-216.85228 1176.5405 216.10425
-211.43095 1176.5405 216.10425
-206.00961 1176.5405 216.10425
-200.58839 1176.5405 216.10425
-195.16707 1176.5405 216.10425
-189.74574 1176.5405 216.10425
-184.32442 1176.5405 216.10425
-178.90309 1176.5405 216.10425
-173.48186 1176.5405 216.10425
-168.06053 1176.5405 216.10425
-162.63921 1176.5405 216.10425
-157.21788 1176.5405 216.10425
-151.79655 1176.5405 216.10425
-145.04982 1185.9897 189.69702
-139.67758 1185.9897 189.69702
-134.30534 1185.9897 189.69702
-127.79694 1195.1014 164.23291
-122.47205 1195.1014 164.23291
-116.10578 1204.2131 138.7688
-110.82822 1204.2131 138.7688
-106.49747 1195.1014 164.23291
-101.17258 1195.1014 164.23291
-95.847679 1195.1014 164.23291
-89.718109 1204.2131 138.7688
-84.440552 1204.2131 138.7688
-79.163002 1204.2131 138.7688
-73.885452 1204.2131 138.7688
-68.607895 1204.2131 138.7688
-63.330441 1204.2131 138.7688
-57.551434 1212.9874 114.24805
-52.319469 1212.9874 114.24805
-47.49778 1204.2131 138.7688
-42.22023 1204.2131 138.7688
-36.942772 1204.2131 138.7688
-31.66522 1204.2131 138.7688
-26.387667 1204.2131 138.7688
-21.110115 1204.2131 138.7688
-15.83256 1204.2131 138.7688
-10.555108 1204.2131 138.7688
-5.277554 1204.2131 138.7688
0 1204.2131 138.7688
5.2774534 1204.2131 138.7688
10.555108 1204.2131 138.7688
15.83256 1204.2131 138.7688
21.110216 1204.2131 138.7688
26.387667 1204.2131 138.7688
31.665119 1204.2131 138.7688
37.274155 1195.1014 164.23291
42.22023 1204.2131 138.7688
47.497883 1204.2131 138.7688
53.248734 1195.1014 164.23291
58.573528 1195.1014 164.23291
63.898525 1195.1014 164.23291
69.223312 1195.1014 164.23291
74.548309 1195.1014 164.23291
79.8731 1195.1014 164.23291
85.197891 1195.1014 164.23291
90.522888 1195.1014 164.23291
95.847679 1195.1014 164.23291
101.17268 1195.1014 164.23291
106.49747 1195.1014 164.23291
110.82812 1204.2131 138.7688
116.10578 1204.2131 138.7688
122.47205 1195.1014 164.23291
127.79705 1195.1014 164.23291
133.12184 1195.1014 164.23291
138.44662 1195.1014 164.23291
143.77162 1195.1014 164.23291
149.09642 1195.1014 164.23291
154.42142 1195.1014 164.23291
159.7462 1195.1014 164.23291
165.071 1195.1014 164.23291
170.396 1195.1014 164.23291
175.72078 1195.1014 164.23291
181.04578 1195.1014 164.23291
188.02748 1185.9897 189.69702
193.39961 1185.9897 189.69702
198.77194 1185.9897 189.69702
204.14407 1185.9897 189.69702
209.5164 1185.9897 189.69702
214.88853 1185.9897 189.69702
220.26068 1185.9897 189.69702
225.63301 1185.9897 189.69702
231.00513 1185.9897 189.69702
236.37747 1185.9897 189.69702
241.7496 1185.9897 189.69702
247.12175 1185.9897 189.69702
254.80147 1176.5405 216.10425
260.22269 1176.5405 216.10425
265.6441 1176.5405 216.10425
271.06534 1176.5405 216.10425
278.99033 1167.0914 242.51123
284.46085 1167.0914 242.51123
289.93118 1167.0914 242.51123
295.40167 1167.0914 242.51123
300.87201 1167.0914 242.51123
306.34235 1167.0914 242.51123
311.81284 1167.0914 242.51123
317.28317 1167.0914 242.51123
325.75366 1157.3047 269.86157
331.27481 1157.3047 269.86157
336.79596 1157.3047 269.86157
342.31735 1157.3047 269.86157
347.8385 1157.3047 269.86157
350.10568 1167.0914 242.51123
355.57602 1167.0914 242.51123
357.80618 1176.5405 216.10425
363.2276 1176.5405 216.10425
-216.85228 1171.5502 213.98584
-211.43095 1171.5502 213.98584
-206.00961 1171.5502 213.98584
-200.58839 1171.5502 213.98584
