ply
format ascii 1.0
comment PCL generated
element vertex 1546
property float x
property float y
property float z
element camera 0
property float view_px
property float view_py
property float view_pz
property float x_axisx
property float x_axisy
property float x_axisz
property float y_axisx
property float y_axisy
property float y_axisz
property float z_axisx
property float z_axisy
property float z_axisz
property float focal
property float scalex
property float scaley
property float centerx
property float centery
property int viewportx
property int viewporty
property float k1
property float k2
end_header
-215.73711 991.39441 296.1228
-210.05991 991.39441 296.1228
-204.38258 991.39441 296.1228
-198.70528 991.39441 296.1228
-193.02797 991.39441 296.1228
-187.35065 991.39441 296.1228
-181.67343 991.39441 296.1228
-175.99611 991.39441 296.1228
-170.3188 991.39441 296.1228
-164.64149 991.39441 296.1228
-158.96417 991.39441 296.1228
-153.28697 991.39441 296.1228
-146.24205 1002.7775 268.36401
-140.61734 1002.7775 268.36401
-133.73022 1014.1604 240.60474
-126.98864 1025.1639 213.77124
-121.46747 1025.1639 213.77124
-114.87842 1036.1676 186.93726
-109.408 1036.1676 186.93726
-103.00481 1046.7917 161.02905
-97.583481 1046.7917 161.02905
-92.162254 1046.7917 161.02905
-85.197998 1067.6605 110.13745
-79.8731 1067.6605 110.13745
-73.885452 1077.9053 85.154297
-68.015266 1087.7705 61.09668
-62.236362 1097.6357 37.038818
-56.567814 1107.1216 13.90625
-50.986935 1116.6074 -9.2263184
-45.888226 1116.6074 -9.2263184
-40.789509 1116.6074 -9.2263184
-35.690891 1116.6074 -9.2263184
-30.592182 1116.6074 -9.2263184
-25.274302 1126.0934 -32.358887
-20.051102 1135.1997 -54.566162
-15.038302 1135.1997 -54.566162
-9.9414377 1144.306 -76.773193
-4.9707189 1144.306 -76.773193
0 1144.306 -76.773193
4.970624 1144.306 -76.773193
9.9414377 1144.306 -76.773193
14.912063 1144.306 -76.773193
19.882875 1144.306 -76.773193
24.651867 1153.0331 -98.055176
29.582165 1153.0331 -98.055176
34.51265 1153.0331 -98.055176
39.442951 1153.0331 -98.055176
44.373436 1153.0331 -98.055176
49.303734 1153.0331 -98.055176
54.234035 1153.0331 -98.055176
59.16452 1153.0331 -98.055176
64.094818 1153.0331 -98.055176
69.025299 1153.0331 -98.055176
73.955605 1153.0331 -98.055176
78.885902 1153.0331 -98.055176
83.816391 1153.0331 -98.055176
88.746681 1153.0331 -98.055176
93.67717 1153.0331 -98.055176
98.607468 1153.0331 -98.055176
103.53777 1153.0331 -98.055176
108.46826 1153.0331 -98.055176
112.47104 1161.76 -119.33716
117.36121 1161.76 -119.33716
122.25117 1161.76 -119.33716
127.14114 1161.76 -119.33716
130.98982 1170.1075 -139.69385
135.84122 1170.1075 -139.69385
140.69281 1170.1075 -139.69385
145.5442 1170.1075 -139.69385
151.59137 1161.76 -119.33716
156.48154 1161.76 -119.33716
161.37152 1161.76 -119.33716
166.26167 1161.76 -119.33716
171.15164 1161.76 -119.33716
177.49336 1153.0331 -98.055176
182.42386 1153.0331 -98.055176
188.88657 1144.306 -76.773193
193.85738 1144.306 -76.773193
198.828 1144.306 -76.773193
205.52391 1135.1997 -54.566162
210.5368 1135.1997 -54.566162
217.35895 1126.0934 -32.358887
222.41393 1126.0934 -32.358887
227.4687 1126.0934 -32.358887
-280.85068 974.35596 322.56763
-275.11899 974.35596 322.56763
-269.38745 974.35596 322.56763
-263.65579 974.35596 322.56763
-255.47821 986.16846 293.90454
-249.8009 986.16846 293.90454
-244.12358 986.16846 293.90454
-238.44638 986.16846 293.90454
-232.76904 986.16846 293.90454
-224.98775 997.59985 266.16626
-219.36304 997.59985 266.16626
-215.73711 986.16846 293.90454
-210.05991 986.16846 293.90454
-204.38258 986.16846 293.90454
-198.70528 986.16846 293.90454
-193.02797 986.16846 293.90454
-187.35065 986.16846 293.90454
-181.67343 986.16846 293.90454
-175.99611 986.16846 293.90454
-170.3188 986.16846 293.90454
-164.64149 986.16846 293.90454
-158.96417 986.16846 293.90454
-153.28697 986.16846 293.90454
-146.24205 997.59985 266.16626
-140.61734 997.59985 266.16626
-133.73022 1009.0312 238.42773
-126.98864 1020.0817 211.61377
-121.46747 1020.0817 211.61377
-114.87842 1031.1321 184.7998
-109.408 1031.1321 184.7998
-103.00481 1041.8014 158.91089
-97.583481 1041.8014 158.91089
-92.162254 1041.8014 158.91089
-85.197998 1062.759 108.05688
-79.8731 1062.759 108.05688
-73.885452 1073.0472 83.092285
-68.015266 1082.9545 59.052246
-62.236362 1092.8617 35.012451
-56.567814 1102.3879 11.896973
-50.986935 1111.9141 -11.218506
-45.888226 1111.9141 -11.218506
-40.789509 1111.9141 -11.218506
-35.690891 1111.9141 -11.218506
-30.329182 1121.4403 -34.333984
-25.274302 1121.4403 -34.333984
-20.051102 1130.5853 -56.524658
-15.038302 1130.5853 -56.524658
-9.9414377 1139.7305 -78.715332
-4.9707189 1139.7305 -78.715332
0 1139.7305 -78.715332
4.970624 1139.7305 -78.715332
9.9414377 1139.7305 -78.715332
14.912063 1139.7305 -78.715332
19.882875 1139.7305 -78.715332
24.8535 1139.7305 -78.715332
29.582165 1148.4946 -99.981689
34.51265 1148.4946 -99.981689
39.442951 1148.4946 -99.981689
44.373436 1148.4946 -99.981689
49.303734 1148.4946 -99.981689
54.234035 1148.4946 -99.981689
59.16452 1148.4946 -99.981689
64.094818 1148.4946 -99.981689
69.025299 1148.4946 -99.981689
73.955605 1148.4946 -99.981689
78.885902 1148.4946 -99.981689
83.816391 1148.4946 -99.981689
88.746681 1148.4946 -99.981689
93.67717 1148.4946 -99.981689
98.607468 1148.4946 -99.981689
103.53777 1148.4946 -99.981689
108.46826 1148.4946 -99.981689
112.47104 1157.2587 -121.2478
117.36121 1157.2587 -121.2478
122.25117 1157.2587 -121.2478
127.14114 1157.2587 -121.2478
130.98982 1165.6417 -141.58936
135.84122 1165.6417 -141.58936
140.69281 1165.6417 -141.58936
145.5442 1165.6417 -141.58936
151.59137 1157.2587 -121.2478
156.48154 1157.2587 -121.2478
161.37152 1157.2587 -121.2478
166.26167 1157.2587 -121.2478
171.15164 1157.2587 -121.2478
177.49336 1148.4946 -99.981689
182.42386 1148.4946 -99.981689
188.88657 1139.7305 -78.715332
193.85738 1139.7305 -78.715332
198.828 1139.7305 -78.715332
205.52391 1130.5853 -56.524658
212.30417 1121.4403 -34.333984
217.35895 1121.4403 -34.333984
222.41393 1121.4403 -34.333984
227.4687 1121.4403 -34.333984
-317.92847 980.9425 291.68628
-312.25116 980.9425 291.68628
-300.89655 980.9425 291.68628
-295.2193 980.9425 291.68628
-292.314 969.07996 320.32812
-286.58234 969.07996 320.32812
-280.85068 969.07996 320.32812
-275.11899 969.07996 320.32812
-269.38745 969.07996 320.32812
-263.65579 969.07996 320.32812
-255.47821 980.9425 291.68628
-249.8009 980.9425 291.68628
-244.12358 980.9425 291.68628
-238.44638 980.9425 291.68628
-230.61244 992.42236 263.96851
-224.98775 992.42236 263.96851
-219.36304 992.42236 263.96851
-215.73711 980.9425 291.68628
-210.05991 980.9425 291.68628
-204.38258 980.9425 291.68628
-198.70528 980.9425 291.68628
-193.02797 980.9425 291.68628
-187.35065 980.9425 291.68628
-181.67343 980.9425 291.68628
-174.36551 992.42236 263.96851
-168.7408 992.42236 263.96851
-164.64149 980.9425 291.68628
-158.96417 980.9425 291.68628
-151.86678 992.42236 263.96851
-146.24205 992.42236 263.96851
-139.30234 1003.9021 236.25049
-133.73022 1003.9021 236.25049
-126.98864 1014.9993 209.45654
-121.46747 1014.9993 209.45654
-114.87842 1026.0966 182.66235
-109.408 1026.0966 182.66235
-103.93758 1026.0966 182.66235
-97.583481 1036.811 156.79248
-92.162254 1036.811 156.79248
-85.955437 1047.5255 130.92236
-79.8731 1057.8574 105.97632
-74.54821 1057.8574 105.97632
-69.223312 1057.8574 105.97632
-62.236362 1088.0876 32.98584
-56.085648 1107.2207 -13.210693
-50.986935 1107.2207 -13.210693
-45.888226 1107.2207 -13.210693
-40.789509 1107.2207 -13.210693
-35.690891 1107.2207 -13.210693
-30.329182 1116.7874 -36.309082
-25.274302 1116.7874 -36.309082
-20.051102 1125.9711 -58.483398
-15.038302 1125.9711 -58.483398
-9.9414377 1135.1549 -80.657715
-4.9707189 1135.1549 -80.657715
0 1125.9711 -58.483398
4.970624 1135.1549 -80.657715
9.9414377 1135.1549 -80.657715
14.912063 1135.1549 -80.657715
19.882875 1135.1549 -80.657715
24.8535 1135.1549 -80.657715
29.824125 1135.1549 -80.657715
34.794941 1135.1549 -80.657715
39.442951 1143.9562 -101.90796
44.373436 1143.9562 -101.90796
49.303734 1143.9562 -101.90796
54.234035 1143.9562 -101.90796
59.16452 1143.9562 -101.90796
64.094818 1143.9562 -101.90796
69.025299 1143.9562 -101.90796
73.955605 1143.9562 -101.90796
78.885902 1143.9562 -101.90796
83.816391 1143.9562 -101.90796
88.746681 1143.9562 -101.90796
93.67717 1143.9562 -101.90796
98.607468 1143.9562 -101.90796
103.53777 1143.9562 -101.90796
108.46826 1143.9562 -101.90796
112.47104 1152.7574 -123.15845
117.36121 1152.7574 -123.15845
122.25117 1152.7574 -123.15845
127.14114 1152.7574 -123.15845
130.98982 1161.1759 -143.48511
135.84122 1161.1759 -143.48511
140.69281 1161.1759 -143.48511
145.5442 1161.1759 -143.48511
150.3956 1161.1759 -143.48511
156.48154 1152.7574 -123.15845
161.37152 1152.7574 -123.15845
166.26167 1152.7574 -123.15845
171.15164 1152.7574 -123.15845
177.49336 1143.9562 -101.90796
182.42386 1143.9562 -101.90796
188.88657 1135.1549 -80.657715
193.85738 1135.1549 -80.657715
198.828 1135.1549 -80.657715
203.79865 1135.1549 -80.657715
210.5368 1125.9711 -58.483398
217.35895 1116.7874 -36.309082
222.41393 1116.7874 -36.309082
227.4687 1116.7874 -36.309082
-331.8569 987.24475 261.77075
-326.23221 987.24475 261.77075
-320.60754 987.24475 261.77075
-314.98285 987.24475 261.77075
-312.25116 975.71655 289.46802
-306.57385 975.71655 289.46802
-300.89655 975.71655 289.46802
-295.2193 975.71655 289.46802
-289.54199 975.71655 289.46802
-286.58234 963.80396 318.08838
-278.18738 975.71655 289.46802
-272.51004 975.71655 289.46802
-266.83286 975.71655 289.46802
-261.15552 975.71655 289.46802
-255.47821 975.71655 289.46802
-249.8009 975.71655 289.46802
-241.86177 987.24475 261.77075
-236.23717 987.24475 261.77075
-230.61244 987.24475 261.77075
-224.98775 987.24475 261.77075
-219.36304 987.24475 261.77075
-213.73831 987.24475 261.77075
-210.05991 975.71655 289.46802
-204.38258 975.71655 289.46802
-198.70528 975.71655 289.46802
-193.02797 975.71655 289.46802
-185.61484 987.24475 261.77075
-179.99023 987.24475 261.77075
-174.36551 987.24475 261.77075
-168.7408 987.24475 261.77075
-163.1161 987.24475 261.77075
-157.49138 987.24475 261.77075
-151.86678 987.24475 261.77075
-144.87445 998.77295 234.07324
-139.30234 998.77295 234.07324
-132.5099 1009.917 207.29932
-126.98864 1009.917 207.29932
-121.46747 1009.917 207.29932
-114.87842 1021.061 180.5249
-109.408 1021.061 180.5249
-103.93758 1021.061 180.5249
-98.467163 1021.061 180.5249
-92.162254 1031.8207 154.67432
-85.955437 1042.5803 128.82324
-80.583206 1042.5803 128.82324
-74.54821 1052.9559 103.89551
-69.223312 1052.9559 103.89551
-62.236362 1083.3136 30.959473
-56.085648 1102.5273 -15.203125
-50.986935 1102.5273 -15.203125
-45.888226 1102.5273 -15.203125
-40.789509 1102.5273 -15.203125
-35.690891 1102.5273 -15.203125
-30.329182 1112.1343 -38.28418
-25.274302 1112.1343 -38.28418
-20.051102 1121.3568 -60.442139
-15.038302 1121.3568 -60.442139
-10.025599 1121.3568 -60.442139
-5.0127993 1121.3568 -60.442139
0 1121.3568 -60.442139
4.970624 1130.5795 -82.599854
9.9414377 1130.5795 -82.599854
14.912063 1130.5795 -82.599854
19.882875 1130.5795 -82.599854
24.8535 1130.5795 -82.599854
29.824125 1130.5795 -82.599854
34.794941 1130.5795 -82.599854
39.442951 1139.4177 -103.83447
44.373436 1139.4177 -103.83447
49.303734 1139.4177 -103.83447
54.234035 1139.4177 -103.83447
59.16452 1139.4177 -103.83447
64.094818 1139.4177 -103.83447
69.025299 1139.4177 -103.83447
73.955605 1139.4177 -103.83447
78.885902 1139.4177 -103.83447
83.816391 1139.4177 -103.83447
88.746681 1139.4177 -103.83447
93.67717 1139.4177 -103.83447
98.607468 1139.4177 -103.83447
103.53777 1139.4177 -103.83447
108.46826 1139.4177 -103.83447
112.47104 1148.2561 -125.06909
117.36121 1148.2561 -125.06909
122.25117 1148.2561 -125.06909
127.14114 1148.2561 -125.06909
132.03131 1148.2561 -125.06909
135.84122 1156.7101 -145.38062
140.69281 1156.7101 -145.38062
145.5442 1156.7101 -145.38062
150.3956 1156.7101 -145.38062
156.48154 1148.2561 -125.06909
161.37152 1148.2561 -125.06909
166.26167 1148.2561 -125.06909
171.15164 1148.2561 -125.06909
177.49336 1139.4177 -103.83447
182.42386 1139.4177 -103.83447
187.35416 1139.4177 -103.83447
193.85738 1130.5795 -82.599854
198.828 1130.5795 -82.599854
203.79865 1130.5795 -82.599854
210.5368 1121.3568 -60.442139
215.54951 1121.3568 -60.442139
218.71088 1130.5795 -82.599854
223.6815 1130.5795 -82.599854
228.65215 1130.5795 -82.599854
-437.15164 970.49048 287.24951
-403.05096 1004.8346 205.14185
-397.52982 1004.8346 205.14185
-392.00854 1004.8346 205.14185
-386.48727 1004.8346 205.14185
-380.96603 1004.8346 205.14185
-375.44473 1004.8346 205.14185
-331.8569 982.06726 259.573
-326.23221 982.06726 259.573
-320.60754 982.06726 259.573
-314.98285 982.06726 259.573
-309.35815 982.06726 259.573
-303.73343 982.06726 259.573
-298.10873 982.06726 259.573
-292.4841 982.06726 259.573
-289.54199 970.49048 287.24951
-283.86469 970.49048 287.24951
-278.18738 970.49048 287.24951
-272.51004 970.49048 287.24951
-266.83286 970.49048 287.24951
-261.15552 970.49048 287.24951
-255.47821 970.49048 287.24951
-249.8009 970.49048 287.24951
-241.86177 982.06726 259.573
-236.23717 982.06726 259.573
-230.61244 982.06726 259.573
-224.98775 982.06726 259.573
-219.36304 982.06726 259.573
-213.73831 982.06726 259.573
-210.05991 970.49048 287.24951
-204.38258 970.49048 287.24951
-198.70528 970.49048 287.24951
-193.02797 970.49048 287.24951
-185.61484 982.06726 259.573
-179.99023 982.06726 259.573
-174.36551 982.06726 259.573
-168.7408 982.06726 259.573
-163.1161 982.06726 259.573
-157.49138 982.06726 259.573
-151.86678 982.06726 259.573
-144.87445 993.64392 231.896
-139.30234 993.64392 231.896
-132.5099 1004.8346 205.14185
-126.98864 1004.8346 205.14185
-121.46747 1004.8346 205.14185
-114.87842 1016.0255 178.38745
-109.408 1016.0255 178.38745
-103.93758 1016.0255 178.38745
-98.467163 1016.0255 178.38745
-92.162254 1026.8303 152.55591
-86.740929 1026.8303 152.55591
-79.8731 1048.0543 101.81494
-73.885452 1058.4733 76.906006
-68.607895 1058.4733 76.906006
-62.236362 1078.5394 28.932861
-56.085648 1097.834 -17.195312
-50.986935 1097.834 -17.195312
-45.888226 1097.834 -17.195312
-40.789509 1097.834 -17.195312
-35.690891 1097.834 -17.195312
-30.329182 1107.4813 -40.259277
-25.274302 1107.4813 -40.259277
-20.051102 1116.7426 -62.400635
-15.038302 1116.7426 -62.400635
-9.9414377 1126.0039 -84.541992
-4.9707189 1126.0039 -84.541992
0 1126.0039 -84.541992
4.970624 1126.0039 -84.541992
9.9414377 1126.0039 -84.541992
14.912063 1126.0039 -84.541992
19.882875 1126.0039 -84.541992
24.8535 1126.0039 -84.541992
29.824125 1126.0039 -84.541992
34.794941 1126.0039 -84.541992
39.442951 1134.8793 -105.76099
44.373436 1134.8793 -105.76099
49.303734 1134.8793 -105.76099
54.234035 1134.8793 -105.76099
59.16452 1134.8793 -105.76099
64.094818 1134.8793 -105.76099
69.025299 1134.8793 -105.76099
73.955605 1134.8793 -105.76099
78.885902 1134.8793 -105.76099
83.816391 1134.8793 -105.76099
88.746681 1134.8793 -105.76099
93.67717 1134.8793 -105.76099
98.607468 1134.8793 -105.76099
103.53777 1134.8793 -105.76099
108.46826 1134.8793 -105.76099
112.47104 1143.7548 -126.97974
117.36121 1143.7548 -126.97974
122.25117 1143.7548 -126.97974
127.14114 1143.7548 -126.97974
132.03131 1143.7548 -126.97974
136.92126 1143.7548 -126.97974
141.81143 1143.7548 -126.97974
146.7014 1143.7548 -126.97974
151.59137 1143.7548 -126.97974
156.48154 1143.7548 -126.97974
161.37152 1143.7548 -126.97974
166.26167 1143.7548 -126.97974
171.15164 1143.7548 -126.97974
177.49336 1134.8793 -105.76099
182.42386 1134.8793 -105.76099
187.35416 1134.8793 -105.76099
192.28465 1134.8793 -105.76099
197.21494 1134.8793 -105.76099
203.79865 1126.0039 -84.541992
208.76944 1126.0039 -84.541992
213.74007 1126.0039 -84.541992
218.71088 1126.0039 -84.541992
223.6815 1126.0039 -84.541992
228.65215 1126.0039 -84.541992
-431.47433 965.26453 285.03125
-425.79703 965.26453 285.03125
-408.57227 999.75232 202.98462
-403.05096 999.75232 202.98462
-397.52982 999.75232 202.98462
-392.00854 999.75232 202.98462
-386.48727 999.75232 202.98462
-380.96603 999.75232 202.98462
-375.44473 999.75232 202.98462
-369.92358 999.75232 202.98462
-364.40231 999.75232 202.98462
-362.18607 988.51477 229.71899
-359.98038 976.88965 257.37524
-354.35565 976.88965 257.37524
-348.73102 976.88965 257.37524
-343.10632 976.88965 257.37524
-337.4816 976.88965 257.37524
-331.8569 976.88965 257.37524
-326.23221 976.88965 257.37524
-317.60934 988.51477 229.71899
-312.03726 988.51477 229.71899
-309.35815 976.88965 257.37524
-303.73343 976.88965 257.37524
-298.10873 976.88965 257.37524
-292.4841 976.88965 257.37524
-286.85938 976.88965 257.37524
-281.23468 976.88965 257.37524
-278.18738 965.26453 285.03125
-272.51004 965.26453 285.03125
-266.83286 965.26453 285.03125
-261.15552 965.26453 285.03125
-253.11121 976.88965 257.37524
-247.4865 976.88965 257.37524
-241.86177 976.88965 257.37524
-236.23717 976.88965 257.37524
-230.61244 976.88965 257.37524
-224.98775 976.88965 257.37524
-219.36304 976.88965 257.37524
-213.73831 976.88965 257.37524
-208.11371 976.88965 257.37524
-204.38258 965.26453 285.03125
-198.70528 965.26453 285.03125
-193.02797 965.26453 285.03125
-185.61484 976.88965 257.37524
-179.99023 976.88965 257.37524
-174.36551 976.88965 257.37524
-168.7408 976.88965 257.37524
-163.1161 976.88965 257.37524
-158.96417 965.26453 285.03125
-151.86678 976.88965 257.37524
-144.87445 988.51477 229.71899
-139.30234 988.51477 229.71899
-132.5099 999.75232 202.98462
-126.98864 999.75232 202.98462
-120.34885 1010.99 176.25
-114.87842 1010.99 176.25
-109.408 1010.99 176.25
-103.93758 1010.99 176.25
-98.467163 1010.99 176.25
-92.162254 1021.8401 150.43774
-86.740929 1021.8401 150.43774
-79.8731 1043.1527 99.734375
-73.885452 1053.6152 74.843994
-68.607895 1053.6152 74.843994
-62.236362 1073.7654 26.906494
-56.567814 1083.453 3.8596191
-50.986935 1093.1406 -19.1875
-45.888226 1093.1406 -19.1875
-40.789509 1093.1406 -19.1875
-35.690891 1093.1406 -19.1875
-30.329182 1102.8282 -42.234375
-25.274302 1102.8282 -42.234375
-20.051102 1112.1282 -64.359375
-15.038302 1112.1282 -64.359375
-9.9414377 1121.4283 -86.484131
-4.9707189 1121.4283 -86.484131
0 1121.4283 -86.484131
4.970624 1121.4283 -86.484131
9.9414377 1121.4283 -86.484131
14.912063 1121.4283 -86.484131
19.882875 1121.4283 -86.484131
24.8535 1121.4283 -86.484131
29.824125 1121.4283 -86.484131
34.794941 1121.4283 -86.484131
39.442951 1130.3409 -107.6875
44.373436 1130.3409 -107.6875
49.303734 1130.3409 -107.6875
54.234035 1130.3409 -107.6875
59.16452 1130.3409 -107.6875
64.094818 1130.3409 -107.6875
69.025299 1130.3409 -107.6875
73.955605 1130.3409 -107.6875
78.885902 1130.3409 -107.6875
83.816391 1130.3409 -107.6875
88.746681 1130.3409 -107.6875
93.67717 1130.3409 -107.6875
98.607468 1130.3409 -107.6875
103.53777 1130.3409 -107.6875
108.46826 1130.3409 -107.6875
112.47104 1139.2534 -128.89062
117.36121 1139.2534 -128.89062
122.25117 1139.2534 -128.89062
127.14114 1139.2534 -128.89062
132.03131 1139.2534 -128.89062
136.92126 1139.2534 -128.89062
141.81143 1139.2534 -128.89062
146.7014 1139.2534 -128.89062
151.59137 1139.2534 -128.89062
156.48154 1139.2534 -128.89062
161.37152 1139.2534 -128.89062
166.26167 1139.2534 -128.89062
171.15164 1139.2534 -128.89062
177.49336 1130.3409 -107.6875
182.42386 1130.3409 -107.6875
187.35416 1130.3409 -107.6875
192.28465 1130.3409 -107.6875
197.21494 1130.3409 -107.6875
202.14523 1130.3409 -107.6875
208.76944 1121.4283 -86.484131
213.74007 1121.4283 -86.484131
218.71088 1121.4283 -86.484131
223.6815 1121.4283 -86.484131
228.65215 1121.4283 -86.484131
233.62294 1121.4283 -86.484131
-431.47433 960.03857 282.81299
-425.79703 960.03857 282.81299
-420.11972 960.03857 282.81299
-403.05096 994.66992 200.82715
-397.52982 994.66992 200.82715
-395.61865 983.38562 227.54175
-390.04654 983.38562 227.54175
-380.96603 994.66992 200.82715
-375.44473 994.66992 200.82715
-369.92358 994.66992 200.82715
-364.40231 994.66992 200.82715
-362.18607 983.38562 227.54175
-359.98038 971.71216 255.17749
-354.35565 971.71216 255.17749
-348.73102 971.71216 255.17749
-343.10632 971.71216 255.17749
-337.4816 971.71216 255.17749
-331.8569 971.71216 255.17749
-326.23221 971.71216 255.17749
-317.60934 983.38562 227.54175
-312.03726 983.38562 227.54175
-309.35815 971.71216 255.17749
-303.73343 971.71216 255.17749
-298.10873 971.71216 255.17749
-292.4841 971.71216 255.17749
-286.85938 971.71216 255.17749
-281.23468 971.71216 255.17749
-275.60995 971.71216 255.17749
-269.98526 971.71216 255.17749
-264.36063 971.71216 255.17749
-261.15552 960.03857 282.81299
-253.11121 971.71216 255.17749
-247.4865 971.71216 255.17749
-241.86177 971.71216 255.17749
-236.23717 971.71216 255.17749
-230.61244 971.71216 255.17749
-224.98775 971.71216 255.17749
-219.36304 971.71216 255.17749
-213.73831 971.71216 255.17749
-208.11371 971.71216 255.17749
-204.38258 960.03857 282.81299
-198.70528 960.03857 282.81299
-193.02797 960.03857 282.81299
-187.35065 960.03857 282.81299
-181.67343 960.03857 282.81299
-175.99611 960.03857 282.81299
-170.3188 960.03857 282.81299
-164.64149 960.03857 282.81299
-157.49138 971.71216 255.17749
-151.86678 971.71216 255.17749
-144.87445 983.38562 227.54175
-139.30234 983.38562 227.54175
-132.5099 994.66992 200.82715
-126.98864 994.66992 200.82715
-120.34885 1005.9545 174.11255
-114.87842 1005.9545 174.11255
-109.408 1005.9545 174.11255
-103.93758 1005.9545 174.11255
-97.583481 1016.8497 148.31934
-92.162254 1016.8497 148.31934
-86.740929 1016.8497 148.31934
-79.8731 1038.2512 97.653809
-73.247231 1058.8744 48.830811
-68.015266 1058.8744 48.830811
-62.236362 1068.9913 24.879883
-56.567814 1078.7194 1.8500977
-50.986935 1088.4473 -21.179688
-45.888226 1088.4473 -21.179688
-40.789509 1088.4473 -21.179688
-35.690891 1088.4473 -21.179688
-30.592182 1088.4473 -21.179688
-25.274302 1098.1753 -44.209473
-20.051102 1107.5139 -66.317871
-15.038302 1107.5139 -66.317871
-10.025599 1107.5139 -66.317871
-5.0127993 1107.5139 -66.317871
0 1107.5139 -66.317871
4.970624 1116.8528 -88.426514
9.9414377 1116.8528 -88.426514
14.912063 1116.8528 -88.426514
19.882875 1116.8528 -88.426514
24.8535 1116.8528 -88.426514
29.824125 1116.8528 -88.426514
34.794941 1116.8528 -88.426514
39.765564 1116.8528 -88.426514
44.736378 1116.8528 -88.426514
49.303734 1125.8025 -109.61377
54.234035 1125.8025 -109.61377
59.16452 1125.8025 -109.61377
64.094818 1125.8025 -109.61377
69.025299 1125.8025 -109.61377
73.955605 1125.8025 -109.61377
78.885902 1125.8025 -109.61377
83.816391 1125.8025 -109.61377
88.746681 1125.8025 -109.61377
93.67717 1125.8025 -109.61377
98.607468 1125.8025 -109.61377
103.53777 1125.8025 -109.61377
108.46826 1125.8025 -109.61377
112.47104 1134.7522 -130.80127
117.36121 1134.7522 -130.80127
122.25117 1134.7522 -130.80127
127.14114 1134.7522 -130.80127
132.03131 1134.7522 -130.80127
136.92126 1134.7522 -130.80127
141.81143 1134.7522 -130.80127
146.7014 1134.7522 -130.80127
151.59137 1134.7522 -130.80127
156.48154 1134.7522 -130.80127
161.37152 1134.7522 -130.80127
166.26167 1134.7522 -130.80127
171.15164 1134.7522 -130.80127
177.49336 1125.8025 -109.61377
182.42386 1125.8025 -109.61377
187.35416 1125.8025 -109.61377
192.28465 1125.8025 -109.61377
197.21494 1125.8025 -109.61377
202.14523 1125.8025 -109.61377
208.76944 1116.8528 -88.426514
213.74007 1116.8528 -88.426514
218.71088 1116.8528 -88.426514
223.6815 1116.8528 -88.426514
228.65215 1116.8528 -88.426514
233.62294 1116.8528 -88.426514
-437.15164 954.81262 280.59473
-431.47433 954.81262 280.59473
-425.79703 954.81262 280.59473
-420.11972 954.81262 280.59473
-406.76279 978.25647 225.3645
-401.19077 978.25647 225.3645
-399.35324 966.53455 252.97974
-393.72855 966.53455 252.97974
-384.47443 978.25647 225.3645
-378.90234 978.25647 225.3645
-373.33029 978.25647 225.3645
-367.75818 978.25647 225.3645
-362.18607 978.25647 225.3645
-359.98038 966.53455 252.97974
-354.35565 966.53455 252.97974
-348.73102 966.53455 252.97974
-343.10632 966.53455 252.97974
-337.4816 966.53455 252.97974
-331.8569 966.53455 252.97974
-326.23221 966.53455 252.97974
-320.60754 966.53455 252.97974
-314.98285 966.53455 252.97974
-309.35815 966.53455 252.97974
-303.73343 966.53455 252.97974
-298.10873 966.53455 252.97974
-292.4841 966.53455 252.97974
-286.85938 966.53455 252.97974
-281.23468 966.53455 252.97974
-275.60995 966.53455 252.97974
-269.98526 966.53455 252.97974
-264.36063 966.53455 252.97974
-258.73593 966.53455 252.97974
-253.11121 966.53455 252.97974
-247.4865 966.53455 252.97974
-241.86177 966.53455 252.97974
-236.23717 966.53455 252.97974
-230.61244 966.53455 252.97974
-224.98775 966.53455 252.97974
-219.36304 966.53455 252.97974
-213.73831 966.53455 252.97974
-208.11371 966.53455 252.97974
-204.38258 954.81262 280.59473
-198.70528 954.81262 280.59473
-193.02797 954.81262 280.59473
-187.35065 954.81262 280.59473
-181.67343 954.81262 280.59473
-175.99611 954.81262 280.59473
-170.3188 954.81262 280.59473
-164.64149 954.81262 280.59473
-157.49138 966.53455 252.97974
-151.86678 966.53455 252.97974
-144.87445 978.25647 225.3645
-139.30234 978.25647 225.3645
-132.5099 989.58765 198.66992
-126.98864 989.58765 198.66992
-120.34885 1000.9189 171.9751
-114.87842 1000.9189 171.9751
-109.408 1000.9189 171.9751
-103.93758 1000.9189 171.9751
-97.583481 1011.8594 146.20117
-92.162254 1011.8594 146.20117
-86.740929 1011.8594 146.20117
-79.163002 1043.8993 70.719727
-73.247231 1054.0583 46.786621
-68.015266 1054.0583 46.786621
-62.236362 1064.2173 22.853516
-56.567814 1073.9856 -0.15917969
-50.986935 1083.7539 -23.171875
-45.888226 1083.7539 -23.171875
-40.789509 1083.7539 -23.171875
-35.690891 1083.7539 -23.171875
-30.592182 1083.7539 -23.171875
-25.274302 1093.5222 -46.18457
-20.051102 1102.8997 -68.276611
-15.038302 1102.8997 -68.276611
-10.025599 1102.8997 -68.276611
-5.0127993 1102.8997 -68.276611
0 1102.8997 -68.276611
4.970624 1112.2772 -90.368652
9.9414377 1112.2772 -90.368652
14.912063 1112.2772 -90.368652
19.882875 1112.2772 -90.368652
24.8535 1112.2772 -90.368652
29.824125 1112.2772 -90.368652
34.794941 1112.2772 -90.368652
39.765564 1112.2772 -90.368652
44.736378 1112.2772 -90.368652
49.707001 1112.2772 -90.368652
54.677624 1112.2772 -90.368652
59.648441 1112.2772 -90.368652
64.094818 1121.264 -111.54028
69.025299 1121.264 -111.54028
73.955605 1121.264 -111.54028
78.885902 1121.264 -111.54028
83.816391 1121.264 -111.54028
88.746681 1121.264 -111.54028
93.67717 1121.264 -111.54028
98.607468 1121.264 -111.54028
103.53777 1121.264 -111.54028
108.46826 1121.264 -111.54028
112.47104 1130.2509 -132.71191
117.36121 1130.2509 -132.71191
122.25117 1130.2509 -132.71191
127.14114 1130.2509 -132.71191
132.03131 1130.2509 -132.71191
136.92126 1130.2509 -132.71191
141.81143 1130.2509 -132.71191
146.7014 1130.2509 -132.71191
151.59137 1130.2509 -132.71191
156.48154 1130.2509 -132.71191
161.37152 1130.2509 -132.71191
166.26167 1130.2509 -132.71191
171.15164 1130.2509 -132.71191
177.49336 1121.264 -111.54028
182.42386 1121.264 -111.54028
187.35416 1121.264 -111.54028
192.28465 1121.264 -111.54028
197.21494 1121.264 -111.54028
202.14523 1121.264 -111.54028
207.07573 1121.264 -111.54028
212.00603 1121.264 -111.54028
216.93652 1121.264 -111.54028
223.6815 1112.2772 -90.368652
226.7971 1121.264 -111.54028
231.7276 1121.264 -111.54028
-437.15164 949.58655 278.37646
-431.47433 949.58655 278.37646
-425.79703 949.58655 278.37646
-420.11972 949.58655 278.37646
-410.6026 961.35693 250.78198
-404.97797 961.35693 250.78198
-399.35324 961.35693 250.78198
-393.72855 961.35693 250.78198
-384.47443 973.12732 223.18726
-378.90234 973.12732 223.18726
-373.33029 973.12732 223.18726
-367.75818 973.12732 223.18726
-362.18607 973.12732 223.18726
-359.98038 961.35693 250.78198
-354.35565 961.35693 250.78198
-348.73102 961.35693 250.78198
-343.10632 961.35693 250.78198
-337.4816 961.35693 250.78198
-331.8569 961.35693 250.78198
-326.23221 961.35693 250.78198
-320.60754 961.35693 250.78198
-314.98285 961.35693 250.78198
-309.35815 961.35693 250.78198
-303.73343 961.35693 250.78198
-298.10873 961.35693 250.78198
-292.4841 961.35693 250.78198
-286.85938 961.35693 250.78198
-281.23468 961.35693 250.78198
-275.60995 961.35693 250.78198
-269.98526 961.35693 250.78198
-264.36063 961.35693 250.78198
-258.73593 961.35693 250.78198
-253.11121 961.35693 250.78198
-247.4865 961.35693 250.78198
-241.86177 961.35693 250.78198
-236.23717 961.35693 250.78198
-230.61244 961.35693 250.78198
-224.98775 961.35693 250.78198
-219.36304 961.35693 250.78198
-213.73831 961.35693 250.78198
-208.11371 961.35693 250.78198
-204.38258 949.58655 278.37646
-198.70528 949.58655 278.37646
-193.02797 949.58655 278.37646
-187.35065 949.58655 278.37646
-181.67343 949.58655 278.37646
-175.99611 949.58655 278.37646
-170.3188 949.58655 278.37646
-164.64149 949.58655 278.37646
-158.96417 949.58655 278.37646
-151.86678 961.35693 250.78198
-144.87445 973.12732 223.18726
-139.30234 973.12732 223.18726
-132.5099 984.50525 196.51245
-126.98864 984.50525 196.51245
-121.46747 984.50525 196.51245
-114.87842 995.8833 169.83765
-109.408 995.8833 169.83765
-103.00481 1006.869 144.08276
-97.583481 1006.869 144.08276
-91.327667 1017.8546 118.32788
-85.197998 1028.448 93.492676
-79.163002 1039.0413 68.657715
-73.247231 1049.2423 44.742188
-68.015266 1049.2423 44.742188
-62.236362 1059.4431 20.826904
-56.567814 1069.2518 -2.168457
-50.986935 1079.0604 -25.164062
-45.888226 1079.0604 -25.164062
-40.789509 1079.0604 -25.164062
-35.690891 1079.0604 -25.164062
-30.592182 1079.0604 -25.164062
-25.274302 1088.8691 -48.159668
-20.051102 1098.2853 -70.235352
-15.038302 1098.2853 -70.235352
-10.025599 1098.2853 -70.235352
-5.0127993 1098.2853 -70.235352
0 1098.2853 -70.235352
5.0127034 1098.2853 -70.235352
10.025599 1098.2853 -70.235352
14.912063 1107.7017 -92.310791
19.882875 1107.7017 -92.310791
24.8535 1107.7017 -92.310791
29.824125 1107.7017 -92.310791
34.794941 1107.7017 -92.310791
39.765564 1107.7017 -92.310791
44.736378 1107.7017 -92.310791
49.707001 1107.7017 -92.310791
54.677624 1107.7017 -92.310791
59.648441 1107.7017 -92.310791
64.094818 1116.7256 -113.4668
69.025299 1116.7256 -113.4668
73.955605 1116.7256 -113.4668
78.885902 1116.7256 -113.4668
83.816391 1116.7256 -113.4668
88.746681 1116.7256 -113.4668
93.67717 1116.7256 -113.4668
98.607468 1116.7256 -113.4668
103.53777 1116.7256 -113.4668
108.46826 1116.7256 -113.4668
112.47104 1125.7495 -134.62256
117.36121 1125.7495 -134.62256
122.25117 1125.7495 -134.62256
127.14114 1125.7495 -134.62256
132.03131 1125.7495 -134.62256
136.92126 1125.7495 -134.62256
141.81143 1125.7495 -134.62256
146.7014 1125.7495 -134.62256
151.59137 1125.7495 -134.62256
156.48154 1125.7495 -134.62256
161.37152 1125.7495 -134.62256
166.26167 1125.7495 -134.62256
171.15164 1125.7495 -134.62256
177.49336 1116.7256 -113.4668
182.42386 1116.7256 -113.4668
187.35416 1116.7256 -113.4668
192.28465 1116.7256 -113.4668
197.21494 1116.7256 -113.4668
202.14523 1116.7256 -113.4668
207.07573 1116.7256 -113.4668
212.00603 1116.7256 -113.4668
216.93652 1116.7256 -113.4668
221.86681 1116.7256 -113.4668
226.7971 1116.7256 -113.4668
231.7276 1116.7256 -113.4668
-433.10144 956.17944 248.58423
-427.47672 956.17944 248.58423
-425.79703 944.36072 276.1582
-420.11972 944.36072 276.1582
-414.44241 944.36072 276.1582
-404.97797 956.17944 248.58423
-399.35324 956.17944 248.58423
-393.72855 956.17944 248.58423
-388.10385 956.17944 248.58423
-382.47913 956.17944 248.58423
-376.85449 956.17944 248.58423
-371.2298 956.17944 248.58423
-365.60507 956.17944 248.58423
-359.98038 956.17944 248.58423
-354.35565 956.17944 248.58423
-348.73102 956.17944 248.58423
-343.10632 956.17944 248.58423
-337.4816 956.17944 248.58423
-334.9603 944.36072 276.1582
-329.28299 944.36072 276.1582
-323.60577 944.36072 276.1582
-314.98285 956.17944 248.58423
-309.35815 956.17944 248.58423
-306.57385 944.36072 276.1582
-298.10873 956.17944 248.58423
-292.4841 956.17944 248.58423
-286.85938 956.17944 248.58423
-281.23468 956.17944 248.58423
-275.60995 956.17944 248.58423
-269.98526 956.17944 248.58423
-264.36063 956.17944 248.58423
-258.73593 956.17944 248.58423
-253.11121 956.17944 248.58423
-247.4865 956.17944 248.58423
-241.86177 956.17944 248.58423
-236.23717 956.17944 248.58423
-230.61244 956.17944 248.58423
-224.98775 956.17944 248.58423
-219.36304 956.17944 248.58423
-213.73831 956.17944 248.58423
-208.11371 956.17944 248.58423
-204.38258 944.36072 276.1582
-198.70528 944.36072 276.1582
-193.02797 944.36072 276.1582
-187.35065 944.36072 276.1582
-181.67343 944.36072 276.1582
-175.99611 944.36072 276.1582
-170.3188 944.36072 276.1582
-164.64149 944.36072 276.1582
-158.96417 944.36072 276.1582
-151.86678 956.17944 248.58423
-146.24205 956.17944 248.58423
-139.30234 967.99817 221.01001
-132.5099 979.42297 194.35522
-126.98864 979.42297 194.35522
-121.46747 979.42297 194.35522
-114.87842 990.8479 167.7002
-109.408 990.8479 167.7002
-102.07204 1012.9095 116.22876
-96.699806 1012.9095 116.22876
-90.522888 1023.5465 91.412109
-85.197998 1023.5465 91.412109
-79.163002 1034.1833 66.595459
-73.247231 1044.4263 42.697998
-68.015266 1044.4263 42.697998
-62.236362 1054.6692 18.800537
-56.567814 1064.5182 -4.1779785
-51.42527 1064.5182 -4.1779785
-46.282722 1064.5182 -4.1779785
-40.789509 1074.3672 -27.15625
-35.690891 1074.3672 -27.15625
-30.592182 1074.3672 -27.15625
-25.493467 1074.3672 -27.15625
-20.219421 1084.2162 -50.134766
-15.038302 1093.6711 -72.193848
-10.025599 1093.6711 -72.193848
-5.0127993 1093.6711 -72.193848
0 1093.6711 -72.193848
5.0127034 1093.6711 -72.193848
10.025599 1093.6711 -72.193848
14.912063 1103.1261 -94.253174
19.882875 1103.1261 -94.253174
24.8535 1103.1261 -94.253174
29.824125 1103.1261 -94.253174
34.794941 1103.1261 -94.253174
39.765564 1103.1261 -94.253174
44.736378 1103.1261 -94.253174
49.707001 1103.1261 -94.253174
54.677624 1103.1261 -94.253174
59.648441 1103.1261 -94.253174
64.619064 1103.1261 -94.253174
69.025299 1112.1871 -115.39307
73.955605 1112.1871 -115.39307
79.531128 1103.1261 -94.253174
84.501938 1103.1261 -94.253174
88.746681 1112.1871 -115.39307
93.67717 1112.1871 -115.39307
98.607468 1112.1871 -115.39307
103.53777 1112.1871 -115.39307
108.46826 1112.1871 -115.39307
113.39855 1112.1871 -115.39307
117.36121 1121.2483 -136.5332
122.25117 1121.2483 -136.5332
127.14114 1121.2483 -136.5332
132.03131 1121.2483 -136.5332
136.92126 1121.2483 -136.5332
141.81143 1121.2483 -136.5332
146.7014 1121.2483 -136.5332
151.59137 1121.2483 -136.5332
156.48154 1121.2483 -136.5332
162.70229 1112.1871 -115.39307
167.63278 1112.1871 -115.39307
172.56308 1112.1871 -115.39307
177.49336 1112.1871 -115.39307
182.42386 1112.1871 -115.39307
187.35416 1112.1871 -115.39307
192.28465 1112.1871 -115.39307
197.21494 1112.1871 -115.39307
202.14523 1112.1871 -115.39307
207.07573 1112.1871 -115.39307
212.00603 1112.1871 -115.39307
216.93652 1112.1871 -115.39307
221.86681 1112.1871 -115.39307
226.7971 1112.1871 -115.39307
231.7276 1112.1871 -115.39307
242.63324 1084.2162 -50.134766
-433.10144 951.00183 246.38647
-427.47672 951.00183 246.38647
-425.79703 939.13464 273.9397
-420.11972 939.13464 273.9397
-414.44241 939.13464 273.9397
-408.76517 939.13464 273.9397
-403.08786 939.13464 273.9397
-397.41055 939.13464 273.9397
-388.10385 951.00183 246.38647
-382.47913 951.00183 246.38647
-376.85449 951.00183 246.38647
-371.2298 951.00183 246.38647
-365.60507 951.00183 246.38647
-359.98038 951.00183 246.38647
-354.35565 951.00183 246.38647
-348.73102 951.00183 246.38647
-343.10632 951.00183 246.38647
-337.4816 951.00183 246.38647
-334.9603 939.13464 273.9397
-329.28299 939.13464 273.9397
-323.60577 939.13464 273.9397
-314.98285 951.00183 246.38647
-309.35815 951.00183 246.38647
-303.73343 951.00183 246.38647
-298.10873 951.00183 246.38647
-292.4841 951.00183 246.38647
-284.17679 962.86902 218.83301
-278.60468 962.86902 218.83301
-275.60995 951.00183 246.38647
-267.46045 962.86902 218.83301
-261.88843 962.86902 218.83301
-258.73593 951.00183 246.38647
-253.11121 951.00183 246.38647
-247.4865 951.00183 246.38647
-241.86177 951.00183 246.38647
-236.23717 951.00183 246.38647
-230.61244 951.00183 246.38647
-227.09174 939.13464 273.9397
-221.41443 939.13464 273.9397
-215.73711 939.13464 273.9397
-210.05991 939.13464 273.9397
-204.38258 939.13464 273.9397
-198.70528 939.13464 273.9397
-193.02797 939.13464 273.9397
-187.35065 939.13464 273.9397
-181.67343 939.13464 273.9397
-175.99611 939.13464 273.9397
-170.3188 939.13464 273.9397
-164.64149 939.13464 273.9397
-158.96417 939.13464 273.9397
-151.86678 951.00183 246.38647
-146.24205 951.00183 246.38647
-139.30234 962.86902 218.83301
-132.5099 974.34058 192.198
-126.98864 974.34058 192.198
-121.46747 974.34058 192.198
-114.87842 985.81226 165.56274
-108.42614 996.88831 139.84644
-102.07204 1007.9644 114.12964
-95.847679 1018.6449 89.331543
-90.522888 1018.6449 89.331543
-84.440552 1029.3252 64.533447
-79.163002 1029.3252 64.533447
-73.247231 1039.6102 40.653809
-68.015266 1039.6102 40.653809
-62.236362 1049.895 16.77417
-56.567814 1059.7844 -6.1872559
-51.42527 1059.7844 -6.1872559
-46.282722 1059.7844 -6.1872559
-41.140175 1059.7844 -6.1872559
-35.690891 1069.6737 -29.148438
-30.592182 1069.6737 -29.148438
-25.493467 1069.6737 -29.148438
-20.219421 1079.5631 -52.109863
-15.038302 1089.0568 -74.152588
-10.025599 1089.0568 -74.152588
-5.0127993 1089.0568 -74.152588
0 1089.0568 -74.152588
5.0127034 1089.0568 -74.152588
10.025599 1089.0568 -74.152588
15.038302 1089.0568 -74.152588
19.882875 1098.5505 -96.195312
24.8535 1098.5505 -96.195312
30.076605 1089.0568 -74.152588
34.794941 1098.5505 -96.195312
39.765564 1098.5505 -96.195312
44.736378 1098.5505 -96.195312
49.707001 1098.5505 -96.195312
54.677624 1098.5505 -96.195312
59.648441 1098.5505 -96.195312
64.619064 1098.5505 -96.195312
69.025299 1107.6487 -117.31958
73.955605 1107.6487 -117.31958
79.531128 1098.5505 -96.195312
84.501938 1098.5505 -96.195312
88.746681 1107.6487 -117.31958
93.67717 1107.6487 -117.31958
98.607468 1107.6487 -117.31958
103.53777 1107.6487 -117.31958
108.46826 1107.6487 -117.31958
113.39855 1107.6487 -117.31958
117.36121 1116.7468 -138.44409
122.25117 1116.7468 -138.44409
127.14114 1116.7468 -138.44409
132.03131 1116.7468 -138.44409
136.92126 1116.7468 -138.44409
141.81143 1116.7468 -138.44409
146.7014 1116.7468 -138.44409
151.59137 1116.7468 -138.44409
156.48154 1116.7468 -138.44409
162.70229 1107.6487 -117.31958
167.63278 1107.6487 -117.31958
172.56308 1107.6487 -117.31958
177.49336 1107.6487 -117.31958
182.42386 1107.6487 -117.31958
187.35416 1107.6487 -117.31958
192.28465 1107.6487 -117.31958
197.21494 1107.6487 -117.31958
202.14523 1107.6487 -117.31958
207.07573 1107.6487 -117.31958
212.00603 1107.6487 -117.31958
216.93652 1107.6487 -117.31958
221.86681 1107.6487 -117.31958
228.65215 1098.5505 -96.195312
235.60069 1089.0568 -74.152588
242.63324 1079.5631 -52.109863
-438.72607 945.82434 244.18872
-433.10144 945.82434 244.18872
-427.47672 945.82434 244.18872
-421.85202 945.82434 244.18872
-416.22729 945.82434 244.18872
-414.44241 933.90869 271.72144
-408.76517 933.90869 271.72144
-403.08786 933.90869 271.72144
-397.41055 933.90869 271.72144
-391.73325 933.90869 271.72144
-386.05594 933.90869 271.72144
-376.85449 945.82434 244.18872
-371.2298 945.82434 244.18872
-365.60507 945.82434 244.18872
-363.34677 933.90869 271.72144
-357.66946 933.90869 271.72144
-351.99222 933.90869 271.72144
-343.10632 945.82434 244.18872
-337.4816 945.82434 244.18872
-334.9603 933.90869 271.72144
-329.28299 933.90869 271.72144
-323.60577 933.90869 271.72144
-314.98285 945.82434 244.18872
-309.35815 945.82434 244.18872
-303.73343 945.82434 244.18872
-298.10873 945.82434 244.18872
-292.4841 945.82434 244.18872
-284.17679 957.73999 216.65576
-278.60468 957.73999 216.65576
-275.60995 945.82434 244.18872
-267.46045 957.73999 216.65576
-261.88843 957.73999 216.65576
-258.73593 945.82434 244.18872
-253.11121 945.82434 244.18872
-247.4865 945.82434 244.18872
-244.12358 933.90869 271.72144
-238.44638 933.90869 271.72144
-232.76904 933.90869 271.72144
-227.09174 933.90869 271.72144
-221.41443 933.90869 271.72144
-215.73711 933.90869 271.72144
-210.05991 933.90869 271.72144
-204.38258 933.90869 271.72144
-198.70528 933.90869 271.72144
-193.02797 933.90869 271.72144
-187.35065 933.90869 271.72144
-181.67343 933.90869 271.72144
-175.99611 933.90869 271.72144
-170.3188 933.90869 271.72144
-164.64149 933.90869 271.72144
-158.96417 933.90869 271.72144
-151.86678 945.82434 244.18872
-144.87445 957.73999 216.65576
-139.30234 957.73999 216.65576
-132.5099 969.2583 190.04053
-126.98864 969.2583 190.04053
-121.46747 969.2583 190.04053
-114.87842 980.77686 163.42529
-108.42614 991.89807 137.72803
-102.07204 1003.0193 112.03076
-95.847679 1013.7433 87.250977
-89.718109 1024.4673 62.471436
-84.440552 1024.4673 62.471436
-79.163002 1024.4673 62.471436
-73.247231 1034.7942 38.609375
-68.015266 1034.7942 38.609375
-62.236362 1045.121 14.747559
-57.04998 1045.121 14.747559
-51.42527 1055.0508 -8.1965332
-46.282722 1055.0508 -8.1965332
-41.140175 1055.0508 -8.1965332
-35.690891 1064.9805 -31.140625
-30.592182 1064.9805 -31.140625
-25.493467 1064.9805 -31.140625
-20.219421 1074.9102 -54.084961
-15.038302 1084.4425 -76.111084
-10.025599 1084.4425 -76.111084
-5.0127993 1084.4425 -76.111084
0 1084.4425 -76.111084
5.0127034 1084.4425 -76.111084
10.025599 1084.4425 -76.111084
15.038302 1084.4425 -76.111084
19.882875 1093.975 -98.137451
24.8535 1093.975 -98.137451
30.076605 1084.4425 -76.111084
34.794941 1093.975 -98.137451
39.765564 1093.975 -98.137451
44.736378 1093.975 -98.137451
49.707001 1093.975 -98.137451
54.677624 1093.975 -98.137451
59.648441 1093.975 -98.137451
64.619064 1093.975 -98.137451
69.589882 1093.975 -98.137451
74.560501 1093.975 -98.137451
79.531128 1093.975 -98.137451
84.501938 1093.975 -98.137451
89.472572 1093.975 -98.137451
93.67717 1103.1104 -119.24609
98.607468 1103.1104 -119.24609
103.53777 1103.1104 -119.24609
108.46826 1103.1104 -119.24609
113.39855 1103.1104 -119.24609
117.36121 1112.2456 -140.35474
122.25117 1112.2456 -140.35474
127.14114 1112.2456 -140.35474
132.03131 1112.2456 -140.35474
136.92126 1112.2456 -140.35474
141.81143 1112.2456 -140.35474
146.7014 1112.2456 -140.35474
151.59137 1112.2456 -140.35474
156.48154 1112.2456 -140.35474
162.70229 1103.1104 -119.24609
167.63278 1103.1104 -119.24609
172.56308 1103.1104 -119.24609
177.49336 1103.1104 -119.24609
182.42386 1103.1104 -119.24609
187.35416 1103.1104 -119.24609
192.28465 1103.1104 -119.24609
197.21494 1103.1104 -119.24609
202.14523 1103.1104 -119.24609
207.07573 1103.1104 -119.24609
212.00603 1103.1104 -119.24609
216.93652 1103.1104 -119.24609
223.6815 1093.975 -98.137451
228.65215 1093.975 -98.137451
235.60069 1084.4425 -76.111084
242.63324 1074.9102 -54.084961
247.68822 1074.9102 -54.084961
-459.86078 928.68274 269.50317
-442.82886 928.68274 269.50317
-433.10144 940.64673 241.99097
-427.47672 940.64673 241.99097
-421.85202 940.64673 241.99097
-416.22729 940.64673 241.99097
-410.6026 940.64673 241.99097
-408.76517 928.68274 269.50317
-403.08786 928.68274 269.50317
-397.41055 928.68274 269.50317
-391.73325 928.68274 269.50317
-386.05594 928.68274 269.50317
-376.85449 940.64673 241.99097
-371.2298 940.64673 241.99097
-365.60507 940.64673 241.99097
-359.98038 940.64673 241.99097
-354.35565 940.64673 241.99097
-351.99222 928.68274 269.50317
-343.10632 940.64673 241.99097
-337.4816 940.64673 241.99097
-331.8569 940.64673 241.99097
-329.28299 928.68274 269.50317
-323.60577 928.68274 269.50317
-317.92847 928.68274 269.50317
-312.25116 928.68274 269.50317
-306.57385 928.68274 269.50317
-298.10873 940.64673 241.99097
-292.4841 940.64673 241.99097
-286.85938 940.64673 241.99097
-281.23468 940.64673 241.99097
-275.60995 940.64673 241.99097
-269.98526 940.64673 241.99097
-264.36063 940.64673 241.99097
-258.73593 940.64673 241.99097
-253.11121 940.64673 241.99097
-247.4865 940.64673 241.99097
-244.12358 928.68274 269.50317
-238.44638 928.68274 269.50317
-232.76904 928.68274 269.50317
-227.09174 928.68274 269.50317
-221.41443 928.68274 269.50317
-215.73711 928.68274 269.50317
-210.05991 928.68274 269.50317
-204.38258 928.68274 269.50317
-198.70528 928.68274 269.50317
-193.02797 928.68274 269.50317
-187.35065 928.68274 269.50317
-181.67343 928.68274 269.50317
-175.99611 928.68274 269.50317
-170.3188 928.68274 269.50317
-164.64149 928.68274 269.50317
-158.96417 928.68274 269.50317
-151.86678 940.64673 241.99097
-144.87445 952.61072 214.47852
-139.30234 952.61072 214.47852
-132.5099 964.1759 187.8833
-126.98864 964.1759 187.8833
-121.46747 964.1759 187.8833
-114.87842 975.74121 161.28784
-109.408 975.74121 161.28784
-102.07204 998.07397 109.93164
-95.847679 1008.8417 85.170166
-89.718109 1019.6093 60.40918
-84.440552 1019.6093 60.40918
-78.479202 1029.9781 36.565186
-73.247231 1029.9781 36.565186
-68.015266 1029.9781 36.565186
-62.783401 1029.9781 36.565186
-57.04998 1040.3469 12.721191
-51.42527 1050.3169 -10.205811
-46.282722 1050.3169 -10.205811
-41.140175 1050.3169 -10.205811
-35.690891 1060.287 -33.133057
-30.592182 1060.287 -33.133057
-25.493467 1060.287 -33.133057
-20.219421 1070.2571 -56.060059
-15.164542 1070.2571 -56.060059
-10.025599 1079.8281 -78.069824
-5.0127993 1079.8281 -78.069824
0 1079.8281 -78.069824
5.0127034 1079.8281 -78.069824
10.025599 1079.8281 -78.069824
15.038302 1079.8281 -78.069824
19.882875 1089.3994 -100.07959
24.8535 1089.3994 -100.07959
29.824125 1089.3994 -100.07959
34.794941 1089.3994 -100.07959
39.765564 1089.3994 -100.07959
44.736378 1089.3994 -100.07959
49.707001 1089.3994 -100.07959
54.677624 1089.3994 -100.07959
60.1534 1079.8281 -78.069824
64.619064 1089.3994 -100.07959
69.589882 1089.3994 -100.07959
74.560501 1089.3994 -100.07959
80.204407 1079.8281 -78.069824
84.501938 1089.3994 -100.07959
89.472572 1089.3994 -100.07959
94.443382 1089.3994 -100.07959
98.607468 1098.5718 -121.17261
103.53777 1098.5718 -121.17261
108.46826 1098.5718 -121.17261
113.39855 1098.5718 -121.17261
118.32904 1098.5718 -121.17261
122.25117 1107.7443 -142.26538
127.14114 1107.7443 -142.26538
132.03131 1107.7443 -142.26538
136.92126 1107.7443 -142.26538
141.81143 1107.7443 -142.26538
146.7014 1107.7443 -142.26538
151.59137 1107.7443 -142.26538
156.48154 1107.7443 -142.26538
162.70229 1098.5718 -121.17261
167.63278 1098.5718 -121.17261
172.56308 1098.5718 -121.17261
177.49336 1098.5718 -121.17261
182.42386 1098.5718 -121.17261
187.35416 1098.5718 -121.17261
192.28465 1098.5718 -121.17261
197.21494 1098.5718 -121.17261
202.14523 1098.5718 -121.17261
207.07573 1098.5718 -121.17261
212.00603 1098.5718 -121.17261
216.93652 1098.5718 -121.17261
223.6815 1089.3994 -100.07959
228.65215 1089.3994 -100.07959
235.60069 1079.8281 -78.069824
242.63324 1070.2571 -56.060059
247.68822 1070.2571 -56.060059
252.74301 1070.2571 -56.060059
267.41144 1050.3169 -10.205811
272.55386 1050.3169 -10.205811
-442.82886 923.45679 267.28491
-429.05124 947.48169 212.30127
-423.47913 947.48169 212.30127
-421.85202 935.46924 239.79321
-416.22729 935.46924 239.79321
-410.6026 935.46924 239.79321
-408.76517 923.45679 267.28491
-403.08786 923.45679 267.28491
-397.41055 923.45679 267.28491
-391.73325 923.45679 267.28491
-386.05594 923.45679 267.28491
-380.37869 923.45679 267.28491
-371.2298 935.46924 239.79321
-365.60507 935.46924 239.79321
-359.98038 935.46924 239.79321
-354.35565 935.46924 239.79321
-348.73102 935.46924 239.79321
-343.10632 935.46924 239.79321
-337.4816 935.46924 239.79321
-331.8569 935.46924 239.79321
-329.28299 923.45679 267.28491
-323.60577 923.45679 267.28491
-317.92847 923.45679 267.28491
-312.25116 923.45679 267.28491
-306.57385 923.45679 267.28491
-300.89655 923.45679 267.28491
-292.4841 935.46924 239.79321
-286.85938 935.46924 239.79321
-281.23468 935.46924 239.79321
-275.60995 935.46924 239.79321
-269.98526 935.46924 239.79321
-264.36063 935.46924 239.79321
-258.73593 935.46924 239.79321
-253.11121 935.46924 239.79321
-247.4865 935.46924 239.79321
-244.12358 923.45679 267.28491
-238.44638 923.45679 267.28491
