ply
format ascii 1.0
comment PCL generated
element vertex 1589
property float x
property float y
property float z
element camera 0
property float view_px
property float view_py
property float view_pz
property float x_axisx
property float x_axisy
property float x_axisz
property float y_axisx
property float y_axisy
property float y_axisz
property float z_axisx
property float z_axisy
property float z_axisz
property float focal
property float scalex
property float scaley
property float centerx
property float centery
property int viewportx
property int viewporty
property float k1
property float k2
end_header
-26.861067 805.21338 28.067139
-21.488834 805.21338 28.067139
-16.26388 792.28455 52.99707
-10.842655 792.28455 52.99707
-5.4213276 792.28455 52.99707
0 792.28455 52.99707
5.4212241 792.28455 52.99707
10.842655 792.28455 52.99707
16.26388 792.28455 52.99707
21.68531 792.28455 52.99707
27.106535 792.28455 52.99707
32.822319 779.35571 77.927002
38.292843 779.35571 77.927002
43.763157 779.35571 77.927002
49.233688 779.35571 77.927002
54.704002 779.35571 77.927002
60.174316 779.35571 77.927002
65.644844 779.35571 77.927002
71.115158 779.35571 77.927002
76.585686 779.35571 77.927002
82.056 779.35571 77.927002
87.526314 779.35571 77.927002
92.996849 779.35571 77.927002
99.382401 765.96497 103.7478
104.90378 765.96497 103.7478
110.42493 765.96497 103.7478
115.9461 765.96497 103.7478
121.46747 765.96497 103.7478
126.98864 765.96497 103.7478
132.51001 765.96497 103.7478
138.03117 765.96497 103.7478
143.55234 765.96497 103.7478
149.07372 765.96497 103.7478
154.59486 765.96497 103.7478
160.11624 765.96497 103.7478
165.63741 765.96497 103.7478
172.73482 752.57446 129.56812
178.30704 752.57446 129.56812
185.61484 738.72205 156.27905
191.23967 738.72205 156.27905
196.86427 738.72205 156.27905
202.48888 738.72205 156.27905
208.11371 738.72205 156.27905
215.73711 724.86975 182.98975
221.41454 724.86975 182.98975
227.09174 724.86975 182.98975
232.76895 724.86975 182.98975
238.44638 724.86975 182.98975
244.12358 724.86975 182.98975
-114.87842 774.32007 75.789551
-109.408 774.32007 75.789551
-103.00481 787.29407 50.878906
-96.699806 800.26807 25.968018
-91.327667 800.26807 25.968018
-85.955437 800.26807 25.968018
-80.583206 800.26807 25.968018
-75.210968 800.26807 25.968018
-69.838737 800.26807 25.968018
-64.466599 800.26807 25.968018
-59.094368 800.26807 25.968018
-53.722134 800.26807 25.968018
-48.349903 800.26807 25.968018
-42.977669 800.26807 25.968018
-37.605534 800.26807 25.968018
-32.233299 800.26807 25.968018
-26.861067 800.26807 25.968018
-21.488834 800.26807 25.968018
-16.26388 787.29407 50.878906
-10.842655 787.29407 50.878906
-5.4213276 787.29407 50.878906
0 787.29407 50.878906
5.4212241 787.29407 50.878906
10.842655 787.29407 50.878906
16.41116 774.32007 75.789551
21.881683 774.32007 75.789551
27.352001 774.32007 75.789551
32.822319 774.32007 75.789551
38.292843 774.32007 75.789551
43.763157 774.32007 75.789551
49.233688 774.32007 75.789551
54.704002 774.32007 75.789551
60.174316 774.32007 75.789551
66.255005 760.88257 101.59033
71.776169 760.88257 101.59033
76.585686 774.32007 75.789551
82.056 774.32007 75.789551
87.526314 774.32007 75.789551
92.996849 774.32007 75.789551
99.382401 760.88257 101.59033
104.90378 760.88257 101.59033
110.42493 760.88257 101.59033
115.9461 760.88257 101.59033
121.46747 760.88257 101.59033
126.98864 760.88257 101.59033
132.51001 760.88257 101.59033
138.03117 760.88257 101.59033
143.55234 760.88257 101.59033
149.07372 760.88257 101.59033
154.59486 760.88257 101.59033
160.11624 760.88257 101.59033
165.63741 760.88257 101.59033
171.15857 760.88257 101.59033
178.30704 747.44519 127.39087
185.61484 733.54443 154.0813
191.23967 733.54443 154.0813
196.86427 733.54443 154.0813
202.48888 733.54443 154.0813
208.11371 733.54443 154.0813
215.73711 719.64368 180.77148
221.41454 719.64368 180.77148
227.09174 719.64368 180.77148
232.76895 719.64368 180.77148
238.44638 719.64368 180.77148
244.12358 719.64368 180.77148
-120.34885 769.28455 73.6521
-114.87842 769.28455 73.6521
-109.408 769.28455 73.6521
-103.00481 782.30371 48.760498
-97.583481 782.30371 48.760498
-91.327667 795.32288 23.868896
-85.955437 795.32288 23.868896
-80.583206 795.32288 23.868896
-75.210968 795.32288 23.868896
-69.838737 795.32288 23.868896
-64.466599 795.32288 23.868896
-59.094368 795.32288 23.868896
-53.722134 795.32288 23.868896
-48.349903 795.32288 23.868896
-42.977669 795.32288 23.868896
-37.605534 795.32288 23.868896
-32.233299 795.32288 23.868896
-26.861067 795.32288 23.868896
-21.488834 795.32288 23.868896
-16.26388 782.30371 48.760498
-10.842655 782.30371 48.760498
-5.4213276 782.30371 48.760498
0 782.30371 48.760498
5.4212241 782.30371 48.760498
10.842655 782.30371 48.760498
16.41116 769.28455 73.6521
21.881683 769.28455 73.6521
27.352001 769.28455 73.6521
32.822319 769.28455 73.6521
38.292843 769.28455 73.6521
43.763157 769.28455 73.6521
49.691303 755.80017 99.433105
55.212467 755.80017 99.433105
60.733631 755.80017 99.433105
66.255005 755.80017 99.433105
71.776169 755.80017 99.433105
77.297546 755.80017 99.433105
82.818703 755.80017 99.433105
88.339859 755.80017 99.433105
93.861237 755.80017 99.433105
99.382401 755.80017 99.433105
104.90378 755.80017 99.433105
111.44187 742.31604 125.21362
117.01388 742.31604 125.21362
121.46747 755.80017 99.433105
126.98864 755.80017 99.433105
132.51001 755.80017 99.433105
138.03117 755.80017 99.433105
143.55234 755.80017 99.433105
149.07372 755.80017 99.433105
154.59486 755.80017 99.433105
160.11624 755.80017 99.433105
165.63741 755.80017 99.433105
171.15857 755.80017 99.433105
178.30704 742.31604 125.21362
185.61484 728.36682 151.88354
191.23967 728.36682 151.88354
196.86427 728.36682 151.88354
202.48888 728.36682 151.88354
210.05991 714.41772 178.55322
215.73711 714.41772 178.55322
221.41454 714.41772 178.55322
227.09174 714.41772 178.55322
232.76895 714.41772 178.55322
238.44638 714.41772 178.55322
244.12358 714.41772 178.55322
-120.34885 764.24902 71.514648
-114.87842 764.24902 71.514648
-109.408 764.24902 71.514648
-103.00481 777.31348 46.642334
-97.583481 777.31348 46.642334
-91.327667 790.37781 21.769775
-85.955437 790.37781 21.769775
-80.583206 790.37781 21.769775
-75.210968 790.37781 21.769775
-69.223312 802.97571 -2.2145996
-63.898525 802.97571 -2.2145996
-59.094368 790.37781 21.769775
-53.722134 790.37781 21.769775
-48.349903 790.37781 21.769775
-42.977669 790.37781 21.769775
-37.605534 790.37781 21.769775
-32.233299 790.37781 21.769775
-26.861067 790.37781 21.769775
-21.488834 790.37781 21.769775
-16.26388 777.31348 46.642334
-10.842655 777.31348 46.642334
-5.4213276 777.31348 46.642334
0 777.31348 46.642334
5.4212241 777.31348 46.642334
10.842655 777.31348 46.642334
16.41116 764.24902 71.514648
21.881683 764.24902 71.514648
27.352001 764.24902 71.514648
32.822319 764.24902 71.514648
38.292843 764.24902 71.514648
43.763157 764.24902 71.514648
49.691303 750.7179 97.275635
55.212467 750.7179 97.275635
60.733631 750.7179 97.275635
66.255005 750.7179 97.275635
71.776169 750.7179 97.275635
77.297546 750.7179 97.275635
82.818703 750.7179 97.275635
88.339859 750.7179 97.275635
93.861237 750.7179 97.275635
99.382401 750.7179 97.275635
105.86987 737.18689 123.03662
111.44187 737.18689 123.03662
117.01388 737.18689 123.03662
122.58611 737.18689 123.03662
128.15811 737.18689 123.03662
133.73033 737.18689 123.03662
138.03117 750.7179 97.275635
143.55234 750.7179 97.275635
149.07372 750.7179 97.275635
154.59486 750.7179 97.275635
160.11624 750.7179 97.275635
165.63741 750.7179 97.275635
172.73482 737.18689 123.03662
178.30704 737.18689 123.03662
185.61484 723.18933 149.68579
191.23967 723.18933 149.68579
196.86427 723.18933 149.68579
204.38248 709.19177 176.33496
210.05991 709.19177 176.33496
215.73711 709.19177 176.33496
221.41454 709.19177 176.33496
227.09174 709.19177 176.33496
232.76895 709.19177 176.33496
238.44638 709.19177 176.33496
246.46077 694.72754 203.87231
-120.34885 759.2135 69.377197
-114.87842 759.2135 69.377197
-109.408 759.2135 69.377197
-103.00481 772.323 44.523926
-97.583481 772.323 44.523926
-91.327667 785.43262 19.670654
-85.955437 785.43262 19.670654
-80.583206 785.43262 19.670654
-75.210968 785.43262 19.670654
-69.223312 798.0741 -4.295166
-63.898525 798.0741 -4.295166
-59.094368 785.43262 19.670654
-53.722134 785.43262 19.670654
-48.349903 785.43262 19.670654
-42.977669 785.43262 19.670654
-37.605534 785.43262 19.670654
-32.233299 785.43262 19.670654
-26.861067 785.43262 19.670654
-21.488834 785.43262 19.670654
-16.26388 772.323 44.523926
-10.842655 772.323 44.523926
-5.4704208 759.2135 69.377197
0 759.2135 69.377197
5.4703169 759.2135 69.377197
10.940842 759.2135 69.377197
16.41116 759.2135 69.377197
21.881683 759.2135 69.377197
27.352001 759.2135 69.377197
32.822319 759.2135 69.377197
38.292843 759.2135 69.377197
43.763157 759.2135 69.377197
49.691303 745.6355 95.118408
55.212467 745.6355 95.118408
60.733631 745.6355 95.118408
66.255005 745.6355 95.118408
71.776169 745.6355 95.118408
77.297546 745.6355 95.118408
82.818703 745.6355 95.118408
88.339859 745.6355 95.118408
93.861237 745.6355 95.118408
99.382401 745.6355 95.118408
106.86926 718.01172 147.48804
112.49387 718.01172 147.48804
118.11848 718.01172 147.48804
122.58611 732.05774 120.85938
128.15811 732.05774 120.85938
133.73033 732.05774 120.85938
138.03117 745.6355 95.118408
143.55234 745.6355 95.118408
149.07372 745.6355 95.118408
156.01857 732.05774 120.85938
161.59081 732.05774 120.85938
167.16281 732.05774 120.85938
172.73482 732.05774 120.85938
179.99023 718.01172 147.48804
185.61484 718.01172 147.48804
191.23967 718.01172 147.48804
196.86427 718.01172 147.48804
204.38248 703.9657 174.11646
210.05991 703.9657 174.11646
215.73711 703.9657 174.11646
221.41454 703.9657 174.11646
227.09174 703.9657 174.11646
232.76895 703.9657 174.11646
238.44638 703.9657 174.11646
-120.34885 754.17798 67.239746
-114.87842 754.17798 67.239746
-109.408 754.17798 67.239746
-103.00481 767.33276 42.405762
-97.583481 767.33276 42.405762
-91.327667 780.48755 17.571533
-85.955437 780.48755 17.571533
-80.583206 780.48755 17.571533
-75.210968 780.48755 17.571533
-69.838737 780.48755 17.571533
-64.466599 780.48755 17.571533
-59.094368 780.48755 17.571533
-53.722134 780.48755 17.571533
-48.349903 780.48755 17.571533
-42.977669 780.48755 17.571533
-37.605534 780.48755 17.571533
-32.233299 780.48755 17.571533
-26.861067 780.48755 17.571533
-21.488834 780.48755 17.571533
-16.26388 767.33276 42.405762
-10.940842 754.17798 67.239746
-5.4704208 754.17798 67.239746
0 754.17798 67.239746
5.4703169 754.17798 67.239746
10.940842 754.17798 67.239746
16.41116 754.17798 67.239746
21.881683 754.17798 67.239746
27.352001 754.17798 67.239746
32.822319 754.17798 67.239746
38.292843 754.17798 67.239746
44.16993 740.55322 92.961182
49.691303 740.55322 92.961182
55.212467 740.55322 92.961182
60.733631 740.55322 92.961182
66.255005 740.55322 92.961182
71.776169 740.55322 92.961182
77.297546 740.55322 92.961182
82.818703 740.55322 92.961182
88.339859 740.55322 92.961182
93.861237 740.55322 92.961182
101.24444 712.83423 145.29028
106.86926 712.83423 145.29028
113.54587 698.73975 171.89819
119.22308 698.73975 171.89819
123.7433 712.83423 145.29028
129.3679 712.83423 145.29028
134.99274 712.83423 145.29028
139.30234 726.92871 118.68213
144.87434 726.92871 118.68213
150.44656 726.92871 118.68213
156.01857 726.92871 118.68213
161.59081 726.92871 118.68213
167.16281 726.92871 118.68213
172.73482 726.92871 118.68213
179.99023 712.83423 145.29028
185.61484 712.83423 145.29028
191.23967 712.83423 145.29028
198.70528 698.73975 171.89819
204.38248 698.73975 171.89819
210.05991 698.73975 171.89819
215.73711 698.73975 171.89819
221.41454 698.73975 171.89819
227.09174 698.73975 171.89819
232.76895 698.73975 171.89819
238.44638 698.73975 171.89819
-120.34885 749.14246 65.102295
-113.84747 762.34241 40.287598
-108.42614 762.34241 40.287598
-103.00481 762.34241 40.287598
-97.583481 762.34241 40.287598
-92.162254 762.34241 40.287598
-86.740929 762.34241 40.287598
-80.583206 775.54236 15.472412
-75.210968 775.54236 15.472412
-69.838737 775.54236 15.472412
-64.466599 775.54236 15.472412
-59.094368 775.54236 15.472412
-53.722134 775.54236 15.472412
-48.349903 775.54236 15.472412
-42.977669 775.54236 15.472412
-37.605534 775.54236 15.472412
-32.233299 775.54236 15.472412
-26.861067 775.54236 15.472412
-21.685207 762.34241 40.287598
-16.26388 762.34241 40.287598
-10.940842 749.14246 65.102295
-5.4704208 749.14246 65.102295
0 749.14246 65.102295
5.4703169 749.14246 65.102295
10.940842 749.14246 65.102295
16.41116 749.14246 65.102295
21.881683 749.14246 65.102295
27.352001 749.14246 65.102295
32.822319 749.14246 65.102295
38.292843 749.14246 65.102295
44.16993 735.47083 90.803711
49.691303 735.47083 90.803711
55.212467 735.47083 90.803711
60.733631 735.47083 90.803711
66.255005 735.47083 90.803711
71.776169 735.47083 90.803711
77.297546 735.47083 90.803711
82.818703 735.47083 90.803711
88.339859 735.47083 90.803711
93.861237 735.47083 90.803711
101.24444 707.65662 143.09253
106.86926 707.65662 143.09253
113.54587 693.51379 169.67993
119.22308 693.51379 169.67993
123.7433 707.65662 143.09253
129.3679 707.65662 143.09253
134.99274 707.65662 143.09253
139.30234 721.79944 116.50488
144.87434 721.79944 116.50488
151.86678 707.65662 143.09253
156.01857 721.79944 116.50488
161.59081 721.79944 116.50488
168.7408 707.65662 143.09253
174.36542 707.65662 143.09253
179.99023 707.65662 143.09253
185.61484 707.65662 143.09253
193.02808 693.51379 169.67993
198.70528 693.51379 169.67993
204.38248 693.51379 169.67993
210.05991 693.51379 169.67993
215.73711 693.51379 169.67993
221.41454 693.51379 169.67993
227.09174 693.51379 169.67993
232.76895 693.51379 169.67993
238.44638 693.51379 169.67993
-113.84747 757.35205 38.169189
-108.42614 757.35205 38.169189
-103.00481 757.35205 38.169189
-97.583481 757.35205 38.169189
-92.162254 757.35205 38.169189
-86.740929 757.35205 38.169189
-81.319603 757.35205 38.169189
-75.210968 770.59729 13.373291
-69.838737 770.59729 13.373291
-64.466599 770.59729 13.373291
-59.094368 770.59729 13.373291
-53.722134 770.59729 13.373291
-48.349903 770.59729 13.373291
-42.977669 770.59729 13.373291
-37.605534 770.59729 13.373291
-32.233299 770.59729 13.373291
-26.861067 770.59729 13.373291
-21.685207 757.35205 38.169189
-16.26388 757.35205 38.169189
-10.940842 744.10693 62.964844
-5.4704208 744.10693 62.964844
0 744.10693 62.964844
5.4703169 744.10693 62.964844
10.940842 744.10693 62.964844
16.41116 744.10693 62.964844
21.881683 744.10693 62.964844
27.352001 744.10693 62.964844
32.822319 744.10693 62.964844
38.292843 744.10693 62.964844
44.16993 730.38867 88.646484
49.691303 730.38867 88.646484
55.212467 730.38867 88.646484
61.292946 716.67041 114.32788
66.865166 716.67041 114.32788
73.120972 702.47913 140.89478
77.297546 730.38867 88.646484
82.818703 730.38867 88.646484
89.153404 716.67041 114.32788
95.619835 702.47913 140.89478
101.24444 702.47913 140.89478
107.86867 688.28784 167.46167
113.54587 688.28784 167.46167
119.22308 688.28784 167.46167
124.90051 688.28784 167.46167
130.57771 688.28784 167.46167
136.25513 688.28784 167.46167
140.61734 702.47913 140.89478
146.24194 702.47913 140.89478
151.86678 702.47913 140.89478
157.49138 702.47913 140.89478
163.1162 702.47913 140.89478
168.7408 702.47913 140.89478
175.99602 688.28784 167.46167
181.67343 688.28784 167.46167
187.35065 688.28784 167.46167
193.02808 688.28784 167.46167
198.70528 688.28784 167.46167
204.38248 688.28784 167.46167
210.05991 688.28784 167.46167
215.73711 688.28784 167.46167
221.41454 688.28784 167.46167
227.09174 688.28784 167.46167
232.76895 688.28784 167.46167
238.44638 688.28784 167.46167
-113.84747 752.36169 36.051025
-108.42614 752.36169 36.051025
-103.00481 752.36169 36.051025
-97.583481 752.36169 36.051025
-92.162254 752.36169 36.051025
-86.740929 752.36169 36.051025
-81.319603 752.36169 36.051025
-75.210968 765.6521 11.27417
-69.838737 765.6521 11.27417
-64.466599 765.6521 11.27417
-59.094368 765.6521 11.27417
-53.722134 765.6521 11.27417
-48.349903 765.6521 11.27417
-42.977669 765.6521 11.27417
-37.605534 765.6521 11.27417
-32.233299 765.6521 11.27417
-26.861067 765.6521 11.27417
-21.685207 752.36169 36.051025
-16.26388 752.36169 36.051025
-10.940842 739.07129 60.827393
-5.4704208 739.07129 60.827393
0 739.07129 60.827393
5.4703169 739.07129 60.827393
10.940842 739.07129 60.827393
16.41116 739.07129 60.827393
21.881683 739.07129 60.827393
27.352001 739.07129 60.827393
32.822319 739.07129 60.827393
38.648773 725.30615 86.489014
44.16993 725.30615 86.489014
49.691303 725.30615 86.489014
55.212467 725.30615 86.489014
61.292946 711.54126 112.15063
67.496368 697.30151 138.69702
73.120972 697.30151 138.69702
78.745796 697.30151 138.69702
84.370399 697.30151 138.69702
89.99501 697.30151 138.69702
95.619835 697.30151 138.69702
102.19124 683.06177 165.24341
107.86867 683.06177 165.24341
113.54587 683.06177 165.24341
119.22308 683.06177 165.24341
124.90051 683.06177 165.24341
130.57771 683.06177 165.24341
136.25513 683.06177 165.24341
141.93234 683.06177 165.24341
147.60954 683.06177 165.24341
153.28697 683.06177 165.24341
157.49138 697.30151 138.69702
163.1162 697.30151 138.69702
168.7408 697.30151 138.69702
175.99602 683.06177 165.24341
181.67343 683.06177 165.24341
187.35065 683.06177 165.24341
193.02808 683.06177 165.24341
198.70528 683.06177 165.24341
204.38248 683.06177 165.24341
210.05991 683.06177 165.24341
215.73711 683.06177 165.24341
221.41454 683.06177 165.24341
227.09174 683.06177 165.24341
232.76895 683.06177 165.24341
238.44638 683.06177 165.24341
-113.84747 747.37146 33.932617
-108.42614 747.37146 33.932617
-103.00481 747.37146 33.932617
-97.583481 747.37146 33.932617
-92.162254 747.37146 33.932617
-86.740929 747.37146 33.932617
-81.319603 747.37146 33.932617
-75.898277 747.37146 33.932617
-69.838737 760.70703 9.175293
-64.466599 760.70703 9.175293
-59.094368 760.70703 9.175293
-53.722134 760.70703 9.175293
-48.349903 760.70703 9.175293
-42.977669 760.70703 9.175293
-37.605534 760.70703 9.175293
-32.233299 760.70703 9.175293
-27.106535 747.37146 33.932617
-21.685207 747.37146 33.932617
-16.41116 734.03589 58.689941
-10.940842 734.03589 58.689941
-5.4704208 734.03589 58.689941
0 734.03589 58.689941
5.4703169 734.03589 58.689941
10.940842 734.03589 58.689941
16.41116 734.03589 58.689941
21.881683 734.03589 58.689941
27.352001 734.03589 58.689941
33.127396 720.224 84.331787
38.648773 720.224 84.331787
44.16993 720.224 84.331787
49.691303 720.224 84.331787
55.212467 720.224 84.331787
61.292946 706.41211 109.97339
67.496368 692.12402 136.49951
73.120972 692.12402 136.49951
78.745796 692.12402 136.49951
84.370399 692.12402 136.49951
89.99501 692.12402 136.49951
95.619835 692.12402 136.49951
102.19124 677.83594 163.02515
107.86867 677.83594 163.02515
113.54587 677.83594 163.02515
119.22308 677.83594 163.02515
124.90051 677.83594 163.02515
130.57771 677.83594 163.02515
136.25513 677.83594 163.02515
141.93234 677.83594 163.02515
147.60954 677.83594 163.02515
153.28697 677.83594 163.02515
158.96417 677.83594 163.02515
164.6416 677.83594 163.02515
170.3188 677.83594 163.02515
175.99602 677.83594 163.02515
181.67343 677.83594 163.02515
187.35065 677.83594 163.02515
193.02808 677.83594 163.02515
198.70528 677.83594 163.02515
204.38248 677.83594 163.02515
210.05991 677.83594 163.02515
217.80254 663.07153 190.43506
221.41454 677.83594 163.02515
227.09174 677.83594 163.02515
232.76895 677.83594 163.02515
238.44638 677.83594 163.02515
-113.84747 742.3811 31.814453
-108.42614 742.3811 31.814453
-103.00481 742.3811 31.814453
-97.583481 742.3811 31.814453
-92.162254 742.3811 31.814453
-86.740929 742.3811 31.814453
-81.319603 742.3811 31.814453
-75.898277 742.3811 31.814453
-70.476952 742.3811 31.814453
-65.055725 742.3811 31.814453
-59.634396 742.3811 31.814453
-54.21307 742.3811 31.814453
-48.79174 742.3811 31.814453
-43.370415 742.3811 31.814453
-37.949188 742.3811 31.814453
-32.527863 742.3811 31.814453
-27.106535 742.3811 31.814453
-21.685207 742.3811 31.814453
-16.41116 729.00037 56.55249
-10.940842 729.00037 56.55249
-5.4704208 729.00037 56.55249
0 729.00037 56.55249
5.4703169 729.00037 56.55249
10.940842 729.00037 56.55249
16.41116 729.00037 56.55249
21.881683 729.00037 56.55249
27.606234 715.1416 82.174561
33.127396 715.1416 82.174561
38.648773 715.1416 82.174561
44.16993 715.1416 82.174561
50.148926 701.28296 107.79614
55.720936 701.28296 107.79614
61.292946 701.28296 107.79614
67.496368 686.94641 134.30151
73.120972 686.94641 134.30151
79.482201 672.60986 160.80688
85.159401 672.60986 160.80688
89.99501 686.94641 134.30151
95.619835 686.94641 134.30151
102.19124 672.60986 160.80688
107.86867 672.60986 160.80688
113.54587 672.60986 160.80688
119.22308 672.60986 160.80688
126.09628 657.79541 188.19556
130.57771 672.60986 160.80688
136.25513 672.60986 160.80688
141.93234 672.60986 160.80688
147.60954 672.60986 160.80688
153.28697 672.60986 160.80688
158.96417 672.60986 160.80688
164.6416 672.60986 160.80688
170.3188 672.60986 160.80688
175.99602 672.60986 160.80688
181.67343 672.60986 160.80688
187.35065 672.60986 160.80688
193.02808 672.60986 160.80688
198.70528 672.60986 160.80688
204.38248 672.60986 160.80688
210.05991 672.60986 160.80688
217.80254 657.79541 188.19556
223.53432 657.79541 188.19556
229.26587 657.79541 188.19556
234.99742 657.79541 188.19556
-108.42614 737.39075 29.696289
-103.00481 737.39075 29.696289
-97.583481 737.39075 29.696289
-92.162254 737.39075 29.696289
-86.740929 737.39075 29.696289
-81.319603 737.39075 29.696289
-75.898277 737.39075 29.696289
-70.476952 737.39075 29.696289
-65.055725 737.39075 29.696289
-59.634396 737.39075 29.696289
-54.21307 737.39075 29.696289
-48.79174 737.39075 29.696289
-43.370415 737.39075 29.696289
-37.949188 737.39075 29.696289
-32.527863 737.39075 29.696289
-27.106535 737.39075 29.696289
-21.685207 737.39075 29.696289
-16.41116 723.96484 54.415039
-10.940842 723.96484 54.415039
-5.4704208 723.96484 54.415039
0 723.96484 54.415039
5.4703169 723.96484 54.415039
10.940842 723.96484 54.415039
16.41116 723.96484 54.415039
21.881683 723.96484 54.415039
27.606234 710.05933 80.01709
33.127396 710.05933 80.01709
38.648773 710.05933 80.01709
44.16993 710.05933 80.01709
50.148926 696.15381 105.61914
55.720936 696.15381 105.61914
61.292946 696.15381 105.61914
68.127563 667.38403 158.58838
73.804771 667.38403 158.58838
79.482201 667.38403 158.58838
85.159401 667.38403 158.58838
90.836609 667.38403 158.58838
96.514038 667.38403 158.58838
102.19124 667.38403 158.58838
107.86867 667.38403 158.58838
113.54587 667.38403 158.58838
119.22308 667.38403 158.58838
126.09628 652.51953 185.95605
130.57771 667.38403 158.58838
136.25513 667.38403 158.58838
143.29117 652.51953 185.95605
149.02272 652.51953 185.95605
154.75452 652.51953 185.95605
158.96417 667.38403 158.58838
164.6416 667.38403 158.58838
170.3188 667.38403 158.58838
175.99602 667.38403 158.58838
181.67343 667.38403 158.58838
187.35065 667.38403 158.58838
193.02808 667.38403 158.58838
200.60764 652.51953 185.95605
204.38248 667.38403 158.58838
210.05991 667.38403 158.58838
217.80254 652.51953 185.95605
223.53432 652.51953 185.95605
229.26587 652.51953 185.95605
234.99742 652.51953 185.95605
-108.42614 732.40039 27.577881
-103.00481 732.40039 27.577881
-97.583481 732.40039 27.577881
-92.162254 732.40039 27.577881
-86.740929 732.40039 27.577881
-81.319603 732.40039 27.577881
-75.898277 732.40039 27.577881
-70.476952 732.40039 27.577881
-65.055725 732.40039 27.577881
-59.634396 732.40039 27.577881
-54.21307 732.40039 27.577881
-48.79174 732.40039 27.577881
-43.370415 732.40039 27.577881
-37.949188 732.40039 27.577881
-32.527863 732.40039 27.577881
-27.106535 732.40039 27.577881
-21.685207 732.40039 27.577881
-16.41116 718.9292 52.277588
-10.940842 718.9292 52.277588
-5.4704208 718.9292 52.277588
0 718.9292 52.277588
5.4703169 718.9292 52.277588
10.940842 718.9292 52.277588
16.41116 718.9292 52.277588
21.881683 718.9292 52.277588
27.606234 704.97693 77.859863
33.127396 704.97693 77.859863
38.648773 704.97693 77.859863
44.16993 704.97693 77.859863
50.148926 691.02466 103.44189
55.720936 691.02466 103.44189
61.292946 691.02466 103.44189
68.127563 662.15796 156.37012
73.804771 662.15796 156.37012
79.482201 662.15796 156.37012
85.159401 662.15796 156.37012
90.836609 662.15796 156.37012
96.514038 662.15796 156.37012
102.19124 662.15796 156.37012
107.86867 662.15796 156.37012
113.54587 662.15796 156.37012
119.22308 662.15796 156.37012
126.09628 647.24341 183.71655
131.82784 647.24341 183.71655
137.55962 647.24341 183.71655
143.29117 647.24341 183.71655
149.02272 647.24341 183.71655
154.75452 647.24341 183.71655
160.48607 647.24341 183.71655
166.21785 647.24341 183.71655
170.3188 662.15796 156.37012
175.99602 662.15796 156.37012
183.41275 647.24341 183.71655
189.1443 647.24341 183.71655
194.87608 647.24341 183.71655
200.60764 647.24341 183.71655
206.33919 647.24341 183.71655
212.07098 647.24341 183.71655
217.80254 647.24341 183.71655
225.6541 632.32898 211.06299
231.44 632.32898 211.06299
-108.42614 727.41016 25.459717
-103.00481 727.41016 25.459717
-97.583481 727.41016 25.459717
-92.162254 727.41016 25.459717
-86.740929 727.41016 25.459717
-81.319603 727.41016 25.459717
-75.898277 727.41016 25.459717
-70.476952 727.41016 25.459717
-65.055725 727.41016 25.459717
-59.634396 727.41016 25.459717
-54.21307 727.41016 25.459717
-48.79174 727.41016 25.459717
-43.370415 727.41016 25.459717
-37.949188 727.41016 25.459717
-32.527863 727.41016 25.459717
-27.106535 727.41016 25.459717
-21.685207 727.41016 25.459717
-16.41116 713.8938 50.140137
-10.940842 713.8938 50.140137
-5.4704208 713.8938 50.140137
0 713.8938 50.140137
5.4703169 713.8938 50.140137
10.940842 713.8938 50.140137
16.41116 713.8938 50.140137
21.881683 713.8938 50.140137
27.606234 699.89465 75.702637
33.127396 699.89465 75.702637
38.648773 699.89465 75.702637
44.16993 699.89465 75.702637
50.148926 685.89563 101.26465
55.720936 685.89563 101.26465
61.292946 685.89563 101.26465
68.127563 656.93201 154.15186
73.804771 656.93201 154.15186
79.482201 656.93201 154.15186
85.159401 656.93201 154.15186
90.836609 656.93201 154.15186
96.514038 656.93201 154.15186
102.19124 656.93201 154.15186
107.86867 656.93201 154.15186
113.54587 656.93201 154.15186
119.22308 656.93201 154.15186
126.09628 641.96753 181.47705
131.82784 641.96753 181.47705
137.55962 641.96753 181.47705
143.29117 641.96753 181.47705
149.02272 641.96753 181.47705
154.75452 641.96753 181.47705
160.48607 641.96753 181.47705
166.21785 641.96753 181.47705
170.3188 656.93201 154.15186
175.99602 656.93201 154.15186
183.41275 641.96753 181.47705
189.1443 641.96753 181.47705
194.87608 641.96753 181.47705
200.60764 641.96753 181.47705
206.33919 641.96753 181.47705
212.07098 641.96753 181.47705
217.80254 641.96753 181.47705
223.53432 641.96753 181.47705
-102.07204 735.9812 -1.3203125
-96.699806 735.9812 -1.3203125
-92.162254 722.41968 23.341309
-86.740929 722.41968 23.341309
-81.319603 722.41968 23.341309
-75.898277 722.41968 23.341309
-70.476952 722.41968 23.341309
-65.055725 722.41968 23.341309
-59.634396 722.41968 23.341309
-54.21307 722.41968 23.341309
-48.79174 722.41968 23.341309
-43.370415 722.41968 23.341309
-37.949188 722.41968 23.341309
-32.527863 722.41968 23.341309
-27.106535 722.41968 23.341309
-21.685207 722.41968 23.341309
-16.41116 708.85815 48.002686
-10.940842 708.85815 48.002686
-5.4704208 708.85815 48.002686
0 708.85815 48.002686
5.4703169 708.85815 48.002686
10.940842 708.85815 48.002686
16.41116 708.85815 48.002686
22.085073 694.81226 73.545166
27.606234 694.81226 73.545166
33.127396 694.81226 73.545166
38.648773 694.81226 73.545166
44.576702 680.76636 99.087402
50.148926 680.76636 99.087402
55.720936 680.76636 99.087402
61.292946 680.76636 99.087402
66.865166 680.76636 99.087402
74.51136 636.69141 179.23755
80.243141 636.69141 179.23755
85.159401 651.70605 151.93359
90.836609 651.70605 151.93359
96.514038 651.70605 151.93359
103.16959 636.69141 179.23755
108.90137 636.69141 179.23755
114.63293 636.69141 179.23755
120.36449 636.69141 179.23755
126.09628 636.69141 179.23755
131.82784 636.69141 179.23755
137.55962 636.69141 179.23755
143.29117 636.69141 179.23755
149.02272 636.69141 179.23755
154.75452 636.69141 179.23755
160.48607 636.69141 179.23755
166.21785 636.69141 179.23755
171.9494 636.69141 179.23755
177.68095 636.69141 179.23755
183.41275 636.69141 179.23755
189.1443 636.69141 179.23755
194.87608 636.69141 179.23755
200.60764 636.69141 179.23755
208.29593 621.67688 206.54126
214.08206 621.67688 206.54126
219.86795 621.67688 206.54126
-102.07204 731.03613 -3.4194336
-96.699806 731.03613 -3.4194336
-91.327667 731.03613 -3.4194336
-85.955437 731.03613 -3.4194336
-81.319603 717.42944 21.223145
-75.898277 717.42944 21.223145
-70.476952 717.42944 21.223145
-65.055725 717.42944 21.223145
-59.634396 717.42944 21.223145
-54.21307 717.42944 21.223145
-48.79174 717.42944 21.223145
-43.370415 717.42944 21.223145
-37.949188 717.42944 21.223145
-32.527863 717.42944 21.223145
-27.106535 717.42944 21.223145
-21.685207 717.42944 21.223145
-16.41116 703.82275 45.865234
-10.940842 703.82275 45.865234
-5.4704208 703.82275 45.865234
0 703.82275 45.865234
5.4703169 703.82275 45.865234
10.940842 703.82275 45.865234
16.41116 703.82275 45.865234
22.085073 689.72998 71.387939
27.606234 689.72998 71.387939
33.127396 689.72998 71.387939
38.648773 689.72998 71.387939
44.576702 675.63733 96.9104
50.148926 675.63733 96.9104
55.720936 675.63733 96.9104
61.871544 661.05872 123.31299
75.217957 616.35095 204.28052
81.004089 616.35095 204.28052
85.974701 631.41553 176.99805
91.706261 631.41553 176.99805
97.438042 631.41553 176.99805
103.16959 631.41553 176.99805
108.90137 631.41553 176.99805
114.63293 631.41553 176.99805
120.36449 631.41553 176.99805
126.09628 631.41553 176.99805
131.82784 631.41553 176.99805
137.55962 631.41553 176.99805
143.29117 631.41553 176.99805
149.02272 631.41553 176.99805
154.75452 631.41553 176.99805
160.48607 631.41553 176.99805
166.21785 631.41553 176.99805
171.9494 631.41553 176.99805
177.68095 631.41553 176.99805
183.41275 631.41553 176.99805
189.1443 631.41553 176.99805
194.87608 631.41553 176.99805
200.60764 631.41553 176.99805
208.29593 616.35095 204.28052
214.08206 616.35095 204.28052
224.19868 584.76392 261.48608
230.0988 584.76392 261.48608
-102.07204 726.09094 -5.5185547
-96.699806 726.09094 -5.5185547
-91.327667 726.09094 -5.5185547
-85.955437 726.09094 -5.5185547
-81.319603 712.43896 19.104736
-75.898277 712.43896 19.104736
-70.476952 712.43896 19.104736
-65.055725 712.43896 19.104736
-59.634396 712.43896 19.104736
-54.21307 712.43896 19.104736
-48.79174 712.43896 19.104736
-43.370415 712.43896 19.104736
-37.949188 712.43896 19.104736
-32.527863 712.43896 19.104736
-27.106535 712.43896 19.104736
-21.685207 712.43896 19.104736
-16.41116 698.78711 43.727783
-10.940842 698.78711 43.727783
-5.4704208 698.78711 43.727783
0 698.78711 43.727783
5.4703169 698.78711 43.727783
10.940842 698.78711 43.727783
16.41116 698.78711 43.727783
22.085073 684.64758 69.230469
27.606234 684.64758 69.230469
33.127396 684.64758 69.230469
39.0047 670.50818 94.733154
44.576702 670.50818 94.733154
50.148926 670.50818 94.733154
56.246937 655.8811 121.11523
61.871544 655.8811 121.11523
75.217957 611.02478 202.01978
81.004089 611.02478 202.01978
85.974701 626.1394 174.7583
91.706261 626.1394 174.7583
97.438042 626.1394 174.7583
104.14796 611.02478 202.01978
109.93409 611.02478 202.01978
115.72 611.02478 202.01978
121.50592 611.02478 202.01978
127.29205 611.02478 202.01978
133.07796 611.02478 202.01978
138.86409 611.02478 202.01978
143.29117 626.1394 174.7583
149.02272 626.1394 174.7583
154.75452 626.1394 174.7583
160.48607 626.1394 174.7583
166.21785 626.1394 174.7583
171.9494 626.1394 174.7583
177.68095 626.1394 174.7583
183.41275 626.1394 174.7583
189.1443 626.1394 174.7583
194.87608 626.1394 174.7583
200.60764 626.1394 174.7583
210.37888 594.93506 231.04004
218.29883 579.33301 259.18066
224.19868 579.33301 259.18066
230.0988 579.33301 259.18066
-102.07204 721.14575 -7.6176758
-96.699806 721.14575 -7.6176758
-91.327667 721.14575 -7.6176758
-85.955437 721.14575 -7.6176758
-81.319603 707.44861 16.986572
-75.898277 707.44861 16.986572
-70.476952 707.44861 16.986572
-65.055725 707.44861 16.986572
-59.634396 707.44861 16.986572
-54.21307 707.44861 16.986572
-48.79174 707.44861 16.986572
-43.370415 707.44861 16.986572
-37.949188 707.44861 16.986572
-32.527863 707.44861 16.986572
-27.106535 707.44861 16.986572
-21.685207 707.44861 16.986572
-16.41116 693.75159 41.590332
-10.940842 693.75159 41.590332
-5.4704208 693.75159 41.590332
0 693.75159 41.590332
5.4703169 693.75159 41.590332
10.940842 693.75159 41.590332
16.41116 693.75159 41.590332
22.085073 679.56519 67.073242
27.606234 679.56519 67.073242
33.127396 679.56519 67.073242
39.0047 665.37891 92.555908
44.576702 665.37891 92.555908
50.622326 650.70349 118.91748
56.246937 650.70349 118.91748
61.871544 650.70349 118.91748
70.126366 589.55566 228.75659
75.217957 605.69873 199.75903
81.004089 605.69873 199.75903
86.790001 605.69873 199.75903
91.706261 620.86328 172.5188
97.438042 620.86328 172.5188
104.14796 605.69873 199.75903
109.93409 605.69873 199.75903
115.72 605.69873 199.75903
121.50592 605.69873 199.75903
127.29205 605.69873 199.75903
133.07796 605.69873 199.75903
138.86409 605.69873 199.75903
144.65001 605.69873 199.75903
150.43591 605.69873 199.75903
156.22206 605.69873 199.75903
160.48607 620.86328 172.5188
166.21785 620.86328 172.5188
171.9494 620.86328 172.5188
177.68095 620.86328 172.5188
183.41275 620.86328 172.5188
189.1443 620.86328 172.5188
194.87608 620.86328 172.5188
202.51001 605.69873 199.75903
210.37888 589.55566 228.75659
218.29883 573.90186 256.87549
224.19868 573.90186 256.87549
-102.07204 716.20068 -9.7165527
-96.699806 716.20068 -9.7165527
-91.327667 716.20068 -9.7165527
-85.955437 716.20068 -9.7165527
-81.319603 702.45837 14.868164
-75.898277 702.45837 14.868164
-70.476952 702.45837 14.868164
-65.055725 702.45837 14.868164
-59.634396 702.45837 14.868164
-54.21307 702.45837 14.868164
-48.79174 702.45837 14.868164
-43.370415 702.45837 14.868164
-37.949188 702.45837 14.868164
-32.527863 702.45837 14.868164
-27.106535 702.45837 14.868164
-21.685207 702.45837 14.868164
-16.41116 688.71606 39.452881
-10.940842 688.71606 39.452881
-5.4704208 688.71606 39.452881
0 688.71606 39.452881
5.4703169 688.71606 39.452881
10.940842 688.71606 39.452881
16.41116 688.71606 39.452881
22.085073 674.48291 64.916016
27.606234 674.48291 64.916016
33.127396 674.48291 64.916016
39.0047 660.24988 90.378662
44.576702 660.24988 90.378662
50.148926 660.24988 90.378662
56.246937 645.526 116.71973
61.871544 645.526 116.71973
70.126366 584.17639 226.47339
75.970139 584.17639 226.47339
81.004089 600.3728 197.49829
86.790001 600.3728 197.49829
92.57592 600.3728 197.49829
98.362045 600.3728 197.49829
104.14796 600.3728 197.49829
109.93409 600.3728 197.49829
115.72 600.3728 197.49829
121.50592 600.3728 197.49829
127.29205 600.3728 197.49829
133.07796 600.3728 197.49829
138.86409 600.3728 197.49829
144.65001 600.3728 197.49829
150.43591 600.3728 197.49829
156.22206 600.3728 197.49829
160.48607 615.5874 170.2793
166.21785 615.5874 170.2793
171.9494 615.5874 170.2793
177.68095 615.5874 170.2793
183.41275 615.5874 170.2793
189.1443 615.5874 170.2793
194.87608 615.5874 170.2793
202.51001 600.3728 197.49829
210.37888 584.17639 226.47339
218.29883 568.47107 254.57007
226.464 551.78394 284.42334
-102.07204 711.25537 -11.815674
-96.699806 711.25537 -11.815674
-91.327667 711.25537 -11.815674
-85.955437 711.25537 -11.815674
-81.319603 697.46802 12.75
-75.898277 697.46802 12.75
-70.476952 697.46802 12.75
-65.055725 697.46802 12.75
-59.634396 697.46802 12.75
-54.21307 697.46802 12.75
-48.79174 697.46802 12.75
-43.370415 697.46802 12.75
-37.949188 697.46802 12.75
-32.527863 697.46802 12.75
-27.106535 697.46802 12.75
-21.685207 697.46802 12.75
-16.41116 683.68054 37.31543
-10.940842 683.68054 37.31543
-5.4704208 683.68054 37.31543
0 683.68054 37.31543
5.4703169 683.68054 37.31543
11.042537 669.40051 62.758545
16.563698 669.40051 62.758545
22.085073 669.40051 62.758545
27.606234 669.40051 62.758545
33.127396 669.40051 62.758545
39.0047 655.12061 88.201416
44.576702 655.12061 88.201416
50.148926 655.12061 88.201416
56.246937 640.34839 114.52197
63.048027 610.31128 168.03979
69.432045 595.04663 195.23755
75.970139 578.79712 224.18994
81.814133 578.79712 224.18994
86.790001 595.04663 195.23755
92.57592 595.04663 195.23755
98.362045 595.04663 195.23755
104.14796 595.04663 195.23755
109.93409 595.04663 195.23755
115.72 595.04663 195.23755
121.50592 595.04663 195.23755
127.29205 595.04663 195.23755
133.07796 595.04663 195.23755
140.25273 578.79712 224.18994
144.65001 595.04663 195.23755
150.43591 595.04663 195.23755
156.22206 595.04663 195.23755
162.00795 595.04663 195.23755
166.21785 610.31128 168.03979
171.9494 610.31128 168.03979
177.68095 610.31128 168.03979
183.41275 610.31128 168.03979
189.1443 610.31128 168.03979
194.87608 610.31128 168.03979
202.51001 595.04663 195.23755
210.37888 578.79712 224.18994
218.29883 563.04004 252.26489
226.464 546.2981 282.09473
-103.93758 678.64502 35.177979
-98.467163 678.64502 35.177979
-92.162254 692.47766 10.631592
-86.740929 692.47766 10.631592
-81.319603 692.47766 10.631592
-75.898277 692.47766 10.631592
-70.476952 692.47766 10.631592
-65.055725 692.47766 10.631592
-59.634396 692.47766 10.631592
-54.21307 692.47766 10.631592
-48.79174 692.47766 10.631592
-43.370415 692.47766 10.631592
-37.949188 692.47766 10.631592
-32.527863 692.47766 10.631592
-27.106535 692.47766 10.631592
-21.685207 692.47766 10.631592
-16.41116 678.64502 35.177979
-10.940842 678.64502 35.177979
-5.4704208 678.64502 35.177979
0 678.64502 35.177979
5.4703169 678.64502 35.177979
11.042537 664.31824 60.601318
16.563698 664.31824 60.601318
22.085073 664.31824 60.601318
27.606234 664.31824 60.601318
33.127396 664.31824 60.601318
39.0047 649.99158 86.024414
44.576702 649.99158 86.024414
50.622326 635.1709 112.32422
56.772934 620.35022 138.62378
63.048027 605.0354 165.80029
69.432045 589.7207 192.97681
75.970139 573.41785 221.90649
81.814133 573.41785 221.90649
86.790001 589.7207 192.97681
92.57592 589.7207 192.97681
98.362045 589.7207 192.97681
104.14796 589.7207 192.97681
111.03343 573.41785 221.90649
116.8772 573.41785 221.90649
122.72098 573.41785 221.90649
127.29205 589.7207 192.97681
133.07796 589.7207 192.97681
140.25273 573.41785 221.90649
144.65001 589.7207 192.97681
150.43591 589.7207 192.97681
156.22206 589.7207 192.97681
162.00795 589.7207 192.97681
166.21785 605.0354 165.80029
171.9494 605.0354 165.80029
177.68095 605.0354 165.80029
183.41275 605.0354 165.80029
189.1443 605.0354 165.80029
196.72409 589.7207 192.97681
204.53511 573.41785 221.90649
212.39873 557.60913 249.95947
218.29883 557.60913 249.95947
226.464 540.81226 279.76611
-103.93758 673.6095 33.040527
-98.467163 673.6095 33.040527
-92.996849 673.6095 33.040527
-87.526421 673.6095 33.040527
-81.319603 687.4873 8.5134277
-75.898277 687.4873 8.5134277
-70.476952 687.4873 8.5134277
-65.055725 687.4873 8.5134277
-59.634396 687.4873 8.5134277
-54.21307 687.4873 8.5134277
-48.79174 687.4873 8.5134277
-43.370415 687.4873 8.5134277
-37.949188 687.4873 8.5134277
-32.527863 687.4873 8.5134277
-27.106535 687.4873 8.5134277
-21.685207 687.4873 8.5134277
-16.41116 673.6095 33.040527
-10.940842 673.6095 33.040527
-5.4704208 673.6095 33.040527
0 673.6095 33.040527
5.521163 659.23584 58.443848
11.042537 659.23584 58.443848
16.563698 659.23584 58.443848
22.085073 659.23584 58.443848
27.606234 659.23584 58.443848
33.432476 644.86243 83.847168
39.0047 644.86243 83.847168
44.576702 644.86243 83.847168
50.622326 629.99329 110.12646
56.772934 615.12415 136.40552
64.282372 568.03845 219.62305
70.126366 568.03845 219.62305
75.970139 568.03845 219.62305
81.814133 568.03845 219.62305
86.790001 584.39453 190.71582
92.57592 584.39453 190.71582
98.362045 584.39453 190.71582
104.14796 584.39453 190.71582
111.03343 568.03845 219.62305
116.8772 568.03845 219.62305
122.72098 568.03845 219.62305
127.29205 584.39453 190.71582
133.07796 584.39453 190.71582
140.25273 568.03845 219.62305
146.09651 568.03845 219.62305
150.43591 584.39453 190.71582
156.22206 584.39453 190.71582
162.00795 584.39453 190.71582
167.7941 584.39453 190.71582
173.58 584.39453 190.71582
179.36592 584.39453 190.71582
185.15205 584.39453 190.71582
190.93796 584.39453 190.71582
196.72409 584.39453 190.71582
204.53511 568.03845 219.62305
212.39873 552.1781 247.6543
218.29883 552.1781 247.6543
226.464 535.32642 277.4375
232.42372 535.32642 277.4375
-103.93758 668.57397 30.903076
-98.467163 668.57397 30.903076
-92.162254 682.49707 6.3950195
-86.740929 682.49707 6.3950195
-81.319603 682.49707 6.3950195
-75.898277 682.49707 6.3950195
-70.476952 682.49707 6.3950195
-65.055725 682.49707 6.3950195
-59.634396 682.49707 6.3950195
-54.21307 682.49707 6.3950195
-48.79174 682.49707 6.3950195
-43.370415 682.49707 6.3950195
-37.949188 682.49707 6.3950195
-32.527863 682.49707 6.3950195
-27.106535 682.49707 6.3950195
-21.685207 682.49707 6.3950195
-16.41116 668.57397 30.903076
-11.042537 654.15356 56.286621
-5.5212684 654.15356 56.286621
0 654.15356 56.286621
5.521163 654.15356 56.286621
11.042537 654.15356 56.286621
16.563698 654.15356 56.286621
22.085073 654.15356 56.286621
27.606234 654.15356 56.286621
33.432476 639.73328 81.669922
39.0047 639.73328 81.669922
44.576702 639.73328 81.669922
50.622326 624.8158 107.92871
56.246937 624.8158 107.92871
64.282372 562.6593 217.33984
70.126366 562.6593 217.33984
76.699524 546.74731 245.34888
82.599632 546.74731 245.34888
87.657906 562.6593 217.33984
93.501671 562.6593 217.33984
99.345665 562.6593 217.33984
105.18944 562.6593 217.33984
111.03343 562.6593 217.33984
116.8772 562.6593 217.33984
122.72098 562.6593 217.33984
128.56497 562.6593 217.33984
134.40874 562.6593 217.33984
140.25273 562.6593 217.33984
146.09651 562.6593 217.33984
151.94028 562.6593 217.33984
157.78427 562.6593 217.33984
162.00795 579.0686 188.45508
167.7941 579.0686 188.45508
173.58 579.0686 188.45508
179.36592 579.0686 188.45508
185.15205 579.0686 188.45508
190.93796 579.0686 188.45508
198.69133 562.6593 217.33984
206.49884 546.74731 245.34888
212.39873 546.74731 245.34888
220.50452 529.8407 275.10889
226.464 529.8407 275.10889
232.42372 529.8407 275.10889
-109.408 663.53833 28.765625
-103.93758 663.53833 28.765625
-98.467163 663.53833 28.765625
-92.162254 677.50659 4.2768555
-86.740929 677.50659 4.2768555
-81.319603 677.50659 4.2768555
-75.898277 677.50659 4.2768555
-70.476952 677.50659 4.2768555
-65.055725 677.50659 4.2768555
-59.634396 677.50659 4.2768555
-54.21307 677.50659 4.2768555
-48.79174 677.50659 4.2768555
-43.370415 677.50659 4.2768555
-38.292843 663.53833 28.765625
-32.527863 677.50659 4.2768555
-27.106535 677.50659 4.2768555
-21.881578 663.53833 28.765625
-16.563698 649.07117 54.12915
-11.042537 649.07117 54.12915
-5.5212684 649.07117 54.12915
0 649.07117 54.12915
5.521163 649.07117 54.12915
11.042537 649.07117 54.12915
16.563698 649.07117 54.12915
22.085073 649.07117 54.12915
27.606234 649.07117 54.12915
33.432476 634.60413 79.492676
39.0047 634.60413 79.492676
44.576702 634.60413 79.492676
50.622326 619.63818 105.73096
56.246937 619.63818 105.73096
65.55529 524.35474 272.78027
71.515007 524.35474 272.78027
76.699524 541.31628 243.0437
82.599632 541.31628 243.0437
88.499504 541.31628 243.0437
93.501671 557.27991 215.0564
99.345665 557.27991 215.0564
105.18944 557.27991 215.0564
111.03343 557.27991 215.0564
116.8772 557.27991 215.0564
122.72098 557.27991 215.0564
128.56497 557.27991 215.0564
134.40874 557.27991 215.0564
141.5993 541.31628 243.0437
147.49918 541.31628 243.0437
151.94028 557.27991 215.0564
157.78427 557.27991 215.0564
162.00795 573.74243 186.19434
167.7941 573.74243 186.19434
173.58 573.74243 186.19434
179.36592 573.74243 186.19434
185.15205 573.74243 186.19434
192.84734 557.27991 215.0564
200.59895 541.31628 243.0437
206.49884 541.31628 243.0437
214.54478 524.35474 272.78027
220.50452 524.35474 272.78027
226.464 524.35474 272.78027
232.42372 524.35474 272.78027
-109.408 658.50293 26.628174
-103.00481 672.51636 2.1586914
-97.583481 672.51636 2.1586914
-92.162254 672.51636 2.1586914
-86.740929 672.51636 2.1586914
-81.319603 672.51636 2.1586914
-75.898277 672.51636 2.1586914
-70.476952 672.51636 2.1586914
-65.055725 672.51636 2.1586914
-59.634396 672.51636 2.1586914
-54.21307 672.51636 2.1586914
-48.79174 672.51636 2.1586914
-43.370415 672.51636 2.1586914
-37.949188 672.51636 2.1586914
-32.527863 672.51636 2.1586914
-27.106535 672.51636 2.1586914
-21.685207 672.51636 2.1586914
-16.563698 643.98901 51.971924
-11.042537 643.98901 51.971924
-5.5212684 643.98901 51.971924
0 643.98901 51.971924
5.521163 643.98901 51.971924
11.042537 643.98901 51.971924
16.563698 643.98901 51.971924
22.28846 629.4751 77.315674
27.860468 629.4751 77.315674
33.432476 629.4751 77.315674
39.0047 629.4751 77.315674
44.997505 614.46069 103.5332
51.095726 599.44629 129.75073
57.316467 583.9314 156.84229
65.55529 518.86902 270.4519
71.515007 518.86902 270.4519
77.474495 518.86902 270.4519
83.434212 518.86902 270.4519
88.499504 535.88538 240.73828
94.399376 535.88538 240.73828
99.345665 551.90063 212.77295
105.18944 551.90063 212.77295
111.03343 551.90063 212.77295
116.8772 551.90063 212.77295
122.72098 551.90063 212.77295
129.79932 535.88538 240.73828
135.69919 535.88538 240.73828
141.5993 535.88538 240.73828
146.09651 551.90063 212.77295
151.94028 551.90063 212.77295
157.78427 551.90063 212.77295
163.62804 551.90063 212.77295
167.7941 568.4165 183.93359
173.58 568.4165 183.93359
179.36592 568.4165 183.93359
185.15205 568.4165 183.93359
192.84734 551.90063 212.77295
200.59895 535.88538 240.73828
206.49884 535.88538 240.73828
214.54478 518.86902 270.4519
220.50452 518.86902 270.4519
226.464 518.86902 270.4519
234.74864 501.85266 300.16504
-109.408 653.46741 24.490723
-103.00481 667.52588 0.040283203
-97.583481 667.52588 0.040283203
-92.162254 667.52588 0.040283203
-86.740929 667.52588 0.040283203
-81.319603 667.52588 0.040283203
-75.898277 667.52588 0.040283203
-70.476952 667.52588 0.040283203
-65.055725 667.52588 0.040283203
-59.634396 667.52588 0.040283203
-54.21307 667.52588 0.040283203
-48.79174 667.52588 0.040283203
-43.370415 667.52588 0.040283203
-37.949188 667.52588 0.040283203
-32.527863 667.52588 0.040283203
-27.106535 667.52588 0.040283203
-21.685207 667.52588 0.040283203
-16.563698 638.90649 49.814697
-11.042537 638.90649 49.814697
-5.5212684 638.90649 49.814697
0 638.90649 49.814697
5.521163 638.90649 49.814697
11.042537 638.90649 49.814697
16.563698 638.90649 49.814697
22.28846 624.34583 75.138428
27.860468 624.34583 75.138428
33.432476 624.34583 75.138428
39.0047 624.34583 75.138428
44.997505 609.28308 101.33545
51.095726 594.22021 127.53223
57.316467 578.65527 154.60254
71.515007 513.38306 268.12329
77.474495 513.38306 268.12329
83.434212 513.38306 268.12329
89.3937 513.38306 268.12329
94.399376 530.45435 238.43311
100.29948 530.45435 238.43311
106.19936 530.45435 238.43311
112.09946 530.45435 238.43311
117.99934 530.45435 238.43311
123.89921 530.45435 238.43311
129.79932 530.45435 238.43311
135.69919 530.45435 238.43311
141.5993 530.45435 238.43311
146.09651 546.52124 210.48975
151.94028 546.52124 210.48975
157.78427 546.52124 210.48975
163.62804 546.52124 210.48975
169.47203 546.52124 210.48975
175.31581 546.52124 210.48975
181.15958 546.52124 210.48975
187.00357 546.52124 210.48975
192.84734 546.52124 210.48975
200.59895 530.45435 238.43311
208.58531 513.38306 268.12329
214.54478 513.38306 268.12329
222.71021 496.31189 297.81299
228.72931 496.31189 297.81299
234.74864 496.31189 297.81299
-103.00481 662.53564 -2.0778809
-97.583481 662.53564 -2.0778809
-92.162254 662.53564 -2.0778809
-86.740929 662.53564 -2.0778809
-81.319603 662.53564 -2.0778809
-75.898277 662.53564 -2.0778809
-70.476952 662.53564 -2.0778809
