ply
format ascii 1.0
comment PCL generated
element vertex 1588
property float x
property float y
property float z
element camera 0
property float view_px
property float view_py
property float view_pz
property float x_axisx
property float x_axisy
property float x_axisz
property float y_axisx
property float y_axisy
property float y_axisz
property float z_axisx
property float z_axisy
property float z_axisz
property float focal
property float scalex
property float scaley
property float centerx
property float centery
property int viewportx
property int viewporty
property float k1
property float k2
end_header
57.316467 641.96753 181.47705
63.048027 641.96753 181.47705
68.779808 641.96753 181.47705
75.217957 627.00305 208.80225
81.004089 627.00305 208.80225
86.790001 627.00305 208.80225
92.57592 627.00305 208.80225
99.345665 611.073 237.89014
104.14796 627.00305 208.80225
109.93409 627.00305 208.80225
116.8772 611.073 237.89014
122.72098 611.073 237.89014
129.79932 595.62585 266.09668
135.69919 595.62585 266.09668
141.5993 595.62585 266.09668
147.49918 595.62585 266.09668
153.39905 595.62585 266.09668
160.90871 579.21313 296.06641
165.19902 595.62585 266.09668
171.09912 595.62585 266.09668
176.99901 595.62585 266.09668
182.8989 595.62585 266.09668
188.799 595.62585 266.09668
194.69885 595.62585 266.09668
200.59895 595.62585 266.09668
206.49884 595.62585 266.09668
214.54478 579.21313 296.06641
220.50452 579.21313 296.06641
226.464 579.21313 296.06641
232.42372 579.21313 296.06641
238.38321 579.21313 296.06641
244.3427 579.21313 296.06641
-117.01398 680.76636 99.087402
-110.42493 694.81226 73.545166
-104.90366 694.81226 73.545166
-99.382401 694.81226 73.545166
-93.861237 694.81226 73.545166
-88.339973 694.81226 73.545166
-82.818703 694.81226 73.545166
-78.009285 680.76636 99.087402
-71.776169 694.81226 73.545166
-66.255005 694.81226 73.545166
-60.733734 694.81226 73.545166
-55.212467 694.81226 73.545166
-49.6912 694.81226 73.545166
-44.16993 694.81226 73.545166
-39.0047 680.76636 99.087402
-33.432583 680.76636 99.087402
-27.860468 680.76636 99.087402
-22.288351 680.76636 99.087402
-16.716238 680.76636 99.087402
-11.24943 666.23621 125.51074
-5.6247149 666.23621 125.51074
0 666.23621 125.51074
5.6246076 666.23621 125.51074
11.24943 666.23621 125.51074
16.874039 666.23621 125.51074
22.709261 651.70605 151.93359
28.386467 651.70605 151.93359
34.063675 651.70605 151.93359
39.7411 651.70605 151.93359
45.418304 651.70605 151.93359
51.584908 636.69141 179.23755
57.316467 636.69141 179.23755
63.048027 636.69141 179.23755
68.779808 636.69141 179.23755
75.217957 621.67688 206.54126
81.004089 621.67688 206.54126
87.657906 605.6936 235.60669
93.501671 605.6936 235.60669
100.29948 590.19482 263.79126
106.19936 590.19482 263.79126
112.09946 590.19482 263.79126
117.99934 590.19482 263.79126
123.89921 590.19482 263.79126
129.79932 590.19482 263.79126
135.69919 590.19482 263.79126
141.5993 590.19482 263.79126
147.49918 590.19482 263.79126
153.39905 590.19482 263.79126
160.90871 573.72717 293.73779
165.19902 590.19482 263.79126
171.09912 590.19482 263.79126
176.99901 590.19482 263.79126
182.8989 590.19482 263.79126
188.799 590.19482 263.79126
194.69885 590.19482 263.79126
202.62582 573.72717 293.73779
208.58531 573.72717 293.73779
214.54478 573.72717 293.73779
220.50452 573.72717 293.73779
226.464 573.72717 293.73779
232.42372 573.72717 293.73779
238.38321 573.72717 293.73779
-110.42493 689.72998 71.387939
-104.90366 689.72998 71.387939
-99.382401 689.72998 71.387939
-93.861237 689.72998 71.387939
-88.339973 689.72998 71.387939
-82.818703 689.72998 71.387939
-77.297432 689.72998 71.387939
-71.776169 689.72998 71.387939
-66.255005 689.72998 71.387939
-60.733734 689.72998 71.387939
-55.212467 689.72998 71.387939
-49.6912 689.72998 71.387939
-44.16993 689.72998 71.387939
-39.0047 675.63733 96.9104
-33.432583 675.63733 96.9104
-27.860468 675.63733 96.9104
-22.288351 675.63733 96.9104
-16.716238 675.63733 96.9104
-11.24943 661.05872 123.31299
-5.6247149 661.05872 123.31299
0 661.05872 123.31299
5.6772065 646.4801 149.71533
11.24943 661.05872 123.31299
16.874039 661.05872 123.31299
22.709261 646.4801 149.71533
28.386467 646.4801 149.71533
34.063675 646.4801 149.71533
39.7411 646.4801 149.71533
45.418304 646.4801 149.71533
51.584908 631.41553 176.99805
57.316467 631.41553 176.99805
63.048027 631.41553 176.99805
69.432045 616.35095 204.28052
75.217957 616.35095 204.28052
81.814133 600.31445 233.32349
88.499504 584.76392 261.48608
94.399376 584.76392 261.48608
100.29948 584.76392 261.48608
106.19936 584.76392 261.48608
112.09946 584.76392 261.48608
117.99934 584.76392 261.48608
123.89921 584.76392 261.48608
129.79932 584.76392 261.48608
135.69919 584.76392 261.48608
141.5993 584.76392 261.48608
147.49918 584.76392 261.48608
154.94899 568.24146 291.40918
160.90871 568.24146 291.40918
166.86819 568.24146 291.40918
172.82793 568.24146 291.40918
176.99901 584.76392 261.48608
182.8989 584.76392 261.48608
188.799 584.76392 261.48608
194.69885 584.76392 261.48608
202.62582 568.24146 291.40918
208.58531 568.24146 291.40918
214.54478 568.24146 291.40918
220.50452 568.24146 291.40918
226.464 568.24146 291.40918
234.74864 551.71899 321.33203
-110.42493 684.64758 69.230469
-104.90366 684.64758 69.230469
-99.382401 684.64758 69.230469
-93.861237 684.64758 69.230469
-88.339973 684.64758 69.230469
-82.818703 684.64758 69.230469
-77.297432 684.64758 69.230469
-71.776169 684.64758 69.230469
-66.255005 684.64758 69.230469
-60.733734 684.64758 69.230469
-55.212467 684.64758 69.230469
-49.6912 684.64758 69.230469
-44.16993 684.64758 69.230469
-38.648773 684.64758 69.230469
-33.127502 684.64758 69.230469
-27.860468 670.50818 94.733154
-22.288351 670.50818 94.733154
-16.716238 670.50818 94.733154
-11.14423 670.50818 94.733154
-5.5721149 670.50818 94.733154
0 670.50818 94.733154
5.6772065 641.25403 147.49707
11.35463 641.25403 147.49707
17.031837 641.25403 147.49707
22.709261 641.25403 147.49707
28.386467 641.25403 147.49707
34.063675 641.25403 147.49707
39.7411 641.25403 147.49707
45.418304 641.25403 147.49707
51.584908 626.1394 174.7583
57.316467 626.1394 174.7583
63.048027 626.1394 174.7583
69.432045 611.02478 202.01978
75.970139 594.93506 231.04004
82.599632 579.33301 259.18066
88.499504 579.33301 259.18066
95.353195 562.75562 289.08057
101.31291 562.75562 289.08057
107.27239 562.75562 289.08057
112.09946 579.33301 259.18066
117.99934 579.33301 259.18066
123.89921 579.33301 259.18066
129.79932 579.33301 259.18066
135.69919 579.33301 259.18066
143.03001 562.75562 289.08057
148.9895 562.75562 289.08057
154.94899 562.75562 289.08057
160.90871 562.75562 289.08057
166.86819 562.75562 289.08057
172.82793 562.75562 289.08057
178.7874 562.75562 289.08057
184.74689 562.75562 289.08057
190.70662 562.75562 289.08057
196.66609 562.75562 289.08057
202.62582 562.75562 289.08057
208.58531 562.75562 289.08057
214.54478 562.75562 289.08057
222.71021 546.17822 318.97998
228.72931 546.17822 318.97998
234.74864 546.17822 318.97998
-105.86976 665.37891 92.555908
-100.29764 665.37891 92.555908
-94.725632 665.37891 92.555908
-89.153519 665.37891 92.555908
-83.581406 665.37891 92.555908
-78.009285 665.37891 92.555908
-71.776169 679.56519 67.073242
-66.255005 679.56519 67.073242
-60.733734 679.56519 67.073242
-55.212467 679.56519 67.073242
-49.6912 679.56519 67.073242
-44.16993 679.56519 67.073242
-38.648773 679.56519 67.073242
-33.127502 679.56519 67.073242
-27.860468 665.37891 92.555908
-22.288351 665.37891 92.555908
-16.716238 665.37891 92.555908
-11.14423 665.37891 92.555908
-5.5721149 665.37891 92.555908
0 665.37891 92.555908
5.6246076 650.70349 118.91748
11.35463 636.02808 145.27881
17.031837 636.02808 145.27881
22.709261 636.02808 145.27881
28.386467 636.02808 145.27881
34.063675 636.02808 145.27881
39.7411 636.02808 145.27881
45.418304 636.02808 145.27881
51.584908 620.86328 172.5188
57.316467 620.86328 172.5188
64.282372 589.55566 228.75659
70.126366 589.55566 228.75659
76.699524 573.90186 256.87549
83.434212 557.26965 286.75195
89.3937 557.26965 286.75195
95.353195 557.26965 286.75195
101.31291 557.26965 286.75195
107.27239 557.26965 286.75195
113.23211 557.26965 286.75195
119.1916 557.26965 286.75195
123.89921 573.90186 256.87549
129.79932 573.90186 256.87549
137.0703 557.26965 286.75195
143.03001 557.26965 286.75195
148.9895 557.26965 286.75195
154.94899 557.26965 286.75195
160.90871 557.26965 286.75195
166.86819 557.26965 286.75195
172.82793 557.26965 286.75195
178.7874 557.26965 286.75195
184.74689 557.26965 286.75195
190.70662 557.26965 286.75195
196.66609 557.26965 286.75195
202.62582 557.26965 286.75195
208.58531 557.26965 286.75195
214.54478 557.26965 286.75195
224.98077 523.51611 347.38306
231.06125 523.51611 347.38306
237.14194 523.51611 347.38306
-106.86916 645.526 116.71973
-100.29764 660.24988 90.378662
-94.725632 660.24988 90.378662
-89.153519 660.24988 90.378662
-83.581406 660.24988 90.378662
-78.009285 660.24988 90.378662
-71.776169 674.48291 64.916016
-66.255005 674.48291 64.916016
-60.733734 674.48291 64.916016
-55.212467 674.48291 64.916016
-49.6912 674.48291 64.916016
-44.16993 674.48291 64.916016
-38.648773 674.48291 64.916016
-33.127502 674.48291 64.916016
-27.860468 660.24988 90.378662
-22.288351 660.24988 90.378662
-16.716238 660.24988 90.378662
-11.14423 660.24988 90.378662
-5.5721149 660.24988 90.378662
0 660.24988 90.378662
5.6246076 645.526 116.71973
11.35463 630.80212 143.06055
17.031837 630.80212 143.06055
22.709261 630.80212 143.06055
28.386467 630.80212 143.06055
34.063675 630.80212 143.06055
39.7411 630.80212 143.06055
45.85313 615.5874 170.2793
51.584908 615.5874 170.2793
57.316467 615.5874 170.2793
63.048027 615.5874 170.2793
70.799652 568.47107 254.57007
77.474495 551.78394 284.42334
83.434212 551.78394 284.42334
89.3937 551.78394 284.42334
96.307007 535.0968 314.27637
102.32633 535.0968 314.27637
108.34544 535.0968 314.27637
113.23211 551.78394 284.42334
119.1916 551.78394 284.42334
125.1511 551.78394 284.42334
131.11081 551.78394 284.42334
137.0703 551.78394 284.42334
143.03001 551.78394 284.42334
148.9895 551.78394 284.42334
154.94899 551.78394 284.42334
160.90871 551.78394 284.42334
166.86819 551.78394 284.42334
172.82793 551.78394 284.42334
178.7874 551.78394 284.42334
184.74689 551.78394 284.42334
190.70662 551.78394 284.42334
196.66609 551.78394 284.42334
202.62582 551.78394 284.42334
208.58531 551.78394 284.42334
214.54478 551.78394 284.42334
227.25134 500.74121 375.73828
233.39317 500.74121 375.73828
239.53523 500.74121 375.73828
-100.29764 655.12061 88.201416
-94.725632 655.12061 88.201416
-89.153519 655.12061 88.201416
-83.581406 655.12061 88.201416
-78.009285 655.12061 88.201416
-71.776169 669.40051 62.758545
-66.255005 669.40051 62.758545
-60.733734 669.40051 62.758545
-55.212467 669.40051 62.758545
-49.6912 669.40051 62.758545
-44.16993 669.40051 62.758545
-38.648773 669.40051 62.758545
-33.127502 669.40051 62.758545
-27.860468 655.12061 88.201416
-22.288351 655.12061 88.201416
-16.716238 655.12061 88.201416
-11.14423 655.12061 88.201416
-5.5721149 655.12061 88.201416
0 655.12061 88.201416
5.6772065 625.57605 140.84204
11.35463 625.57605 140.84204
17.031837 625.57605 140.84204
22.709261 625.57605 140.84204
28.386467 625.57605 140.84204
34.063675 625.57605 140.84204
39.7411 625.57605 140.84204
45.85313 610.31128 168.03979
51.584908 610.31128 168.03979
57.316467 610.31128 168.03979
63.048027 610.31128 168.03979
68.779808 610.31128 168.03979
77.474495 546.2981 282.09473
84.268799 529.55603 311.92432
90.287903 529.55603 311.92432
96.307007 529.55603 311.92432
102.32633 529.55603 311.92432
108.34544 529.55603 311.92432
114.36477 529.55603 311.92432
119.1916 546.2981 282.09473
125.1511 546.2981 282.09473
131.11081 546.2981 282.09473
137.0703 546.2981 282.09473
143.03001 546.2981 282.09473
148.9895 546.2981 282.09473
154.94899 546.2981 282.09473
160.90871 546.2981 282.09473
166.86819 546.2981 282.09473
172.82793 546.2981 282.09473
178.7874 546.2981 282.09473
184.74689 546.2981 282.09473
190.70662 546.2981 282.09473
196.66609 546.2981 282.09473
202.62582 546.2981 282.09473
210.67177 529.55603 311.92432
218.90009 512.32178 342.63135
227.25134 495.0874 373.33838
233.39317 495.0874 373.33838
239.53523 495.0874 373.33838
-100.29764 649.99158 86.024414
-94.725632 649.99158 86.024414
-89.153519 649.99158 86.024414
-83.581406 649.99158 86.024414
-78.009285 649.99158 86.024414
-72.437172 649.99158 86.024414
-66.865166 649.99158 86.024414
-61.293053 649.99158 86.024414
-55.720936 649.99158 86.024414
-50.148819 649.99158 86.024414
-44.576702 649.99158 86.024414
-39.0047 649.99158 86.024414
-33.432583 649.99158 86.024414
-27.860468 649.99158 86.024414
-22.288351 649.99158 86.024414
-16.716238 649.99158 86.024414
-11.14423 649.99158 86.024414
-5.5721149 649.99158 86.024414
0 649.99158 86.024414
5.6772065 620.35022 138.62378
11.35463 620.35022 138.62378
17.031837 620.35022 138.62378
22.709261 620.35022 138.62378
28.386467 620.35022 138.62378
34.063675 620.35022 138.62378
40.121571 605.0354 165.80029
45.85313 605.0354 165.80029
51.584908 605.0354 165.80029
56.772934 620.35022 138.62378
62.450146 620.35022 138.62378
68.779808 605.0354 165.80029
78.249474 524.01538 309.57251
85.12793 506.72461 340.25537
91.208405 506.72461 340.25537
97.288872 506.72461 340.25537
102.32633 524.01538 309.57251
108.34544 524.01538 309.57251
114.36477 524.01538 309.57251
120.38387 524.01538 309.57251
125.1511 540.81226 279.76611
131.11081 540.81226 279.76611
137.0703 540.81226 279.76611
143.03001 540.81226 279.76611
148.9895 540.81226 279.76611
156.49895 524.01538 309.57251
162.51826 524.01538 309.57251
168.53737 524.01538 309.57251
172.82793 540.81226 279.76611
178.7874 540.81226 279.76611
184.74689 540.81226 279.76611
190.70662 540.81226 279.76611
198.63335 524.01538 309.57251
204.65266 524.01538 309.57251
212.81961 506.72461 340.25537
221.10928 489.43384 370.93872
227.25134 489.43384 370.93872
235.79173 471.64893 402.49854
241.99692 471.64893 402.49854
-106.86916 629.99329 110.12646
-100.29764 644.86243 83.847168
-94.725632 644.86243 83.847168
-89.153519 644.86243 83.847168
-83.581406 644.86243 83.847168
-78.009285 644.86243 83.847168
-72.437172 644.86243 83.847168
-66.865166 644.86243 83.847168
-61.293053 644.86243 83.847168
-55.212467 659.23584 58.443848
-49.6912 659.23584 58.443848
-44.16993 659.23584 58.443848
-39.0047 644.86243 83.847168
-33.432583 644.86243 83.847168
-27.860468 644.86243 83.847168
-22.288351 644.86243 83.847168
-16.716238 644.86243 83.847168
-11.14423 644.86243 83.847168
-5.5721149 644.86243 83.847168
0 644.86243 83.847168
5.6772065 615.12415 136.40552
11.35463 615.12415 136.40552
17.031837 615.12415 136.40552
22.709261 615.12415 136.40552
28.658234 599.75928 163.56079
34.389793 599.75928 163.56079
40.121571 599.75928 163.56079
45.85313 599.75928 163.56079
51.584908 599.75928 163.56079
56.772934 615.12415 136.40552
62.450146 615.12415 136.40552
79.845009 483.78015 368.53882
85.987076 483.78015 368.53882
91.208405 501.12744 337.87964
97.288872 501.12744 337.87964
103.36957 501.12744 337.87964
108.34544 518.47461 307.2207
114.36477 518.47461 307.2207
120.38387 518.47461 307.2207
126.40298 518.47461 307.2207
132.4223 518.47461 307.2207
138.44141 518.47461 307.2207
144.46074 518.47461 307.2207
150.47984 518.47461 307.2207
156.49895 518.47461 307.2207
162.51826 518.47461 307.2207
168.53737 518.47461 307.2207
172.82793 535.32642 277.4375
178.7874 535.32642 277.4375
186.59491 518.47461 307.2207
192.61424 518.47461 307.2207
198.63335 518.47461 307.2207
204.65266 518.47461 307.2207
212.81961 501.12744 337.87964
221.10928 483.78015 368.53882
227.25134 483.78015 368.53882
235.79173 465.93701 400.07397
241.99692 465.93701 400.07397
-105.86976 639.73328 81.669922
-100.29764 639.73328 81.669922
-94.725632 639.73328 81.669922
-89.153519 639.73328 81.669922
-83.581406 639.73328 81.669922
-78.009285 639.73328 81.669922
-72.437172 639.73328 81.669922
-66.865166 639.73328 81.669922
-61.293053 639.73328 81.669922
-55.212467 654.15356 56.286621
-49.6912 654.15356 56.286621
-44.16993 654.15356 56.286621
-39.0047 639.73328 81.669922
-33.432583 639.73328 81.669922
-27.860468 639.73328 81.669922
-22.288351 639.73328 81.669922
-16.716238 639.73328 81.669922
-11.14423 639.73328 81.669922
-5.5721149 639.73328 81.669922
0 639.73328 81.669922
5.6772065 609.89819 134.18726
11.35463 609.89819 134.18726
17.031837 609.89819 134.18726
22.926674 594.4834 161.32129
28.658234 594.4834 161.32129
34.389793 594.4834 161.32129
40.121571 594.4834 161.32129
45.85313 594.4834 161.32129
51.584908 594.4834 161.32129
57.316467 594.4834 161.32129
63.048027 594.4834 161.32129
85.987076 478.12646 366.13892
91.208405 495.53027 335.50391
97.288872 495.53027 335.50391
103.36957 495.53027 335.50391
109.45004 495.53027 335.50391
114.36477 512.93408 304.8689
120.38387 512.93408 304.8689
126.40298 512.93408 304.8689
132.4223 512.93408 304.8689
138.44141 512.93408 304.8689
144.46074 512.93408 304.8689
150.47984 512.93408 304.8689
156.49895 512.93408 304.8689
162.51826 512.93408 304.8689
168.53737 512.93408 304.8689
174.5567 512.93408 304.8689
180.57581 512.93408 304.8689
186.59491 512.93408 304.8689
192.61424 512.93408 304.8689
198.63335 512.93408 304.8689
206.73914 495.53027 335.50391
214.96744 478.12646 366.13892
221.10928 478.12646 366.13892
229.58678 460.22534 397.64941
235.79173 460.22534 397.64941
241.99692 460.22534 397.64941
-105.86976 634.60413 79.492676
-100.29764 634.60413 79.492676
-94.725632 634.60413 79.492676
-89.153519 634.60413 79.492676
-83.581406 634.60413 79.492676
-78.009285 634.60413 79.492676
-72.437172 634.60413 79.492676
-66.865166 634.60413 79.492676
-61.293053 634.60413 79.492676
-55.720936 634.60413 79.492676
-50.148819 634.60413 79.492676
-44.576702 634.60413 79.492676
-39.0047 634.60413 79.492676
-33.432583 634.60413 79.492676
-27.860468 634.60413 79.492676
-22.288351 634.60413 79.492676
-16.716238 634.60413 79.492676
-11.14423 634.60413 79.492676
-5.5721149 634.60413 79.492676
0 634.60413 79.492676
5.6772065 604.67212 131.96899
11.35463 604.67212 131.96899
17.031837 604.67212 131.96899
22.926674 589.20728 159.08154
28.658234 589.20728 159.08154
34.389793 589.20728 159.08154
40.121571 589.20728 159.08154
45.85313 589.20728 159.08154
52.074093 573.74243 186.19434
58.438602 557.27991 215.0564
85.987076 472.47278 363.73926
92.128906 472.47278 363.73926
97.288872 489.93298 333.12793
103.36957 489.93298 333.12793
109.45004 489.93298 333.12793
115.53073 489.93298 333.12793
121.61121 489.93298 333.12793
127.69167 489.93298 333.12793
132.4223 507.39331 302.51685
138.44141 507.39331 302.51685
144.46074 507.39331 302.51685
150.47984 507.39331 302.51685
156.49895 507.39331 302.51685
162.51826 507.39331 302.51685
168.53737 507.39331 302.51685
174.5567 507.39331 302.51685
180.57581 507.39331 302.51685
186.59491 507.39331 302.51685
192.61424 507.39331 302.51685
198.63335 507.39331 302.51685
206.73914 489.93298 333.12793
214.96744 472.47278 363.73926
221.10928 472.47278 363.73926
229.58678 454.51343 395.22485
235.79173 454.51343 395.22485
241.99692 454.51343 395.22485
248.20187 454.51343 395.22485
-105.86976 629.4751 77.315674
-100.29764 629.4751 77.315674
-94.725632 629.4751 77.315674
-89.153519 629.4751 77.315674
-83.581406 629.4751 77.315674
-78.009285 629.4751 77.315674
-72.437172 629.4751 77.315674
-66.865166 629.4751 77.315674
-61.293053 629.4751 77.315674
-55.720936 629.4751 77.315674
-50.148819 629.4751 77.315674
-44.576702 629.4751 77.315674
-39.0047 629.4751 77.315674
-33.432583 629.4751 77.315674
-27.860468 629.4751 77.315674
-22.288351 629.4751 77.315674
-16.716238 629.4751 77.315674
-11.14423 629.4751 77.315674
-5.5721149 629.4751 77.315674
0 629.4751 77.315674
5.6772065 599.44629 129.75073
11.35463 599.44629 129.75073
17.031837 599.44629 129.75073
22.926674 583.9314 156.84229
28.658234 583.9314 156.84229
34.389793 583.9314 156.84229
40.121571 583.9314 156.84229
45.85313 583.9314 156.84229
52.074093 568.4165 183.93359
92.128906 466.81921 361.33936
97.288872 484.33594 330.75195
103.36957 484.33594 330.75195
109.45004 484.33594 330.75195
115.53073 484.33594 330.75195
121.61121 484.33594 330.75195
127.69167 484.33594 330.75195
133.77237 484.33594 330.75195
139.85284 484.33594 330.75195
145.93353 484.33594 330.75195
152.01401 484.33594 330.75195
158.09448 484.33594 330.75195
164.17517 484.33594 330.75195
170.25565 484.33594 330.75195
174.5567 501.85266 300.16504
180.57581 501.85266 300.16504
186.59491 501.85266 300.16504
192.61424 501.85266 300.16504
200.65845 484.33594 330.75195
208.82561 466.81921 361.33936
214.96744 466.81921 361.33936
221.10928 466.81921 361.33936
229.58678 448.80176 392.80054
235.79173 448.80176 392.80054
241.99692 448.80176 392.80054
248.20187 448.80176 392.80054
-111.44187 624.34583 75.138428
-105.86976 624.34583 75.138428
-100.29764 624.34583 75.138428
-94.725632 624.34583 75.138428
-89.153519 624.34583 75.138428
-83.581406 624.34583 75.138428
-78.009285 624.34583 75.138428
-72.437172 624.34583 75.138428
-66.865166 624.34583 75.138428
-61.293053 624.34583 75.138428
-55.720936 624.34583 75.138428
-50.148819 624.34583 75.138428
-44.576702 624.34583 75.138428
-39.0047 624.34583 75.138428
-33.432583 624.34583 75.138428
-27.860468 624.34583 75.138428
-22.288351 624.34583 75.138428
-16.716238 624.34583 75.138428
-11.24943 609.28308 101.33545
-5.6247149 609.28308 101.33545
0 609.28308 101.33545
5.6772065 594.22021 127.53223
11.35463 594.22021 127.53223
17.031837 594.22021 127.53223
22.926674 578.65527 154.60254
28.658234 578.65527 154.60254
34.389793 578.65527 154.60254
40.121571 578.65527 154.60254
46.28796 563.09033 181.67285
52.074093 563.09033 181.67285
92.128906 461.16541 358.93945
97.288872 478.73865 328.37622
103.36957 478.73865 328.37622
109.45004 478.73865 328.37622
115.53073 478.73865 328.37622
121.61121 478.73865 328.37622
128.98036 461.16541 358.93945
135.12244 461.16541 358.93945
139.85284 478.73865 328.37622
145.93353 478.73865 328.37622
152.01401 478.73865 328.37622
158.09448 478.73865 328.37622
164.17517 478.73865 328.37622
170.25565 478.73865 328.37622
174.5567 496.31189 297.81299
180.57581 496.31189 297.81299
186.59491 496.31189 297.81299
192.61424 496.31189 297.81299
200.65845 478.73865 328.37622
208.82561 461.16541 358.93945
214.96744 461.16541 358.93945
223.38159 443.08997 390.37598
229.58678 443.08997 390.37598
235.79173 443.08997 390.37598
241.99692 443.08997 390.37598
248.20187 443.08997 390.37598
-111.44187 619.2168 72.961182
-105.86976 619.2168 72.961182
-100.29764 619.2168 72.961182
-94.725632 619.2168 72.961182
-89.153519 619.2168 72.961182
-83.581406 619.2168 72.961182
-78.009285 619.2168 72.961182
-72.437172 619.2168 72.961182
-66.865166 619.2168 72.961182
-61.293053 619.2168 72.961182
-55.720936 619.2168 72.961182
-50.148819 619.2168 72.961182
-44.576702 619.2168 72.961182
-38.648773 633.82422 47.657227
-33.127502 633.82422 47.657227
-27.860468 619.2168 72.961182
-22.288351 619.2168 72.961182
-16.716238 619.2168 72.961182
-11.24943 604.10559 99.137695
-5.6247149 604.10559 99.137695
0 604.10559 99.137695
5.6772065 588.99438 125.31396
11.35463 588.99438 125.31396
17.031837 588.99438 125.31396
22.926674 573.37939 152.36304
28.658234 573.37939 152.36304
34.389793 573.37939 152.36304
40.121571 573.37939 152.36304
46.28796 557.7644 179.41211
52.59483 541.14209 208.2063
92.128906 455.51184 356.53955
98.270729 455.51184 356.53955
104.4128 455.51184 356.53955
110.55464 455.51184 356.53955
116.69671 455.51184 356.53955
122.83854 455.51184 356.53955
128.98036 455.51184 356.53955
135.12244 455.51184 356.53955
141.26427 455.51184 356.53955
147.40634 455.51184 356.53955
153.54817 455.51184 356.53955
158.09448 473.1416 326.00024
164.17517 473.1416 326.00024
170.25565 473.1416 326.00024
176.33633 473.1416 326.00024
182.41681 473.1416 326.00024
188.49728 473.1416 326.00024
194.57797 473.1416 326.00024
200.65845 473.1416 326.00024
208.82561 455.51184 356.53955
217.17664 437.37817 387.95142
223.38159 437.37817 387.95142
229.58678 437.37817 387.95142
235.79173 437.37817 387.95142
241.99692 437.37817 387.95142
250.79681 418.74109 420.2356
-106.86916 598.92798 96.939941
-100.29764 614.08765 70.783936
-94.725632 614.08765 70.783936
-89.153519 614.08765 70.783936
-83.581406 614.08765 70.783936
-78.009285 614.08765 70.783936
-72.437172 614.08765 70.783936
-66.865166 614.08765 70.783936
-61.293053 614.08765 70.783936
-55.720936 614.08765 70.783936
-50.148819 614.08765 70.783936
-44.576702 614.08765 70.783936
-38.648773 628.74194 45.5
-33.127502 628.74194 45.5
-27.860468 614.08765 70.783936
-22.288351 614.08765 70.783936
-16.716238 614.08765 70.783936
-11.24943 598.92798 96.939941
-5.6247149 598.92798 96.939941
0 598.92798 96.939941
5.6772065 583.76831 123.0957
11.35463 583.76831 123.0957
17.031837 583.76831 123.0957
22.926674 568.10327 150.12354
28.658234 568.10327 150.12354
34.389793 568.10327 150.12354
40.121571 568.10327 150.12354
45.85313 568.10327 150.12354
51.584908 568.10327 150.12354
104.4128 449.85815 354.13989
110.55464 449.85815 354.13989
116.69671 449.85815 354.13989
122.83854 449.85815 354.13989
128.98036 449.85815 354.13989
135.12244 449.85815 354.13989
141.26427 449.85815 354.13989
147.40634 449.85815 354.13989
153.54817 449.85815 354.13989
158.09448 467.54431 323.62451
164.17517 467.54431 323.62451
170.25565 467.54431 323.62451
176.33633 467.54431 323.62451
182.41681 467.54431 323.62451
188.49728 467.54431 323.62451
194.57797 467.54431 323.62451
200.65845 467.54431 323.62451
208.82561 449.85815 354.13989
217.17664 431.66638 385.52686
223.38159 431.66638 385.52686
229.58678 431.66638 385.52686
235.79173 431.66638 385.52686
244.52698 412.96948 417.78589
250.79681 412.96948 417.78589
-106.86916 593.75049 94.742188
-100.29764 608.9585 68.606934
-94.725632 608.9585 68.606934
-89.153519 608.9585 68.606934
-83.581406 608.9585 68.606934
-78.009285 608.9585 68.606934
-72.437172 608.9585 68.606934
-66.865166 608.9585 68.606934
-61.293053 608.9585 68.606934
-55.720936 608.9585 68.606934
-50.148819 608.9585 68.606934
-44.576702 608.9585 68.606934
-39.0047 608.9585 68.606934
-33.432583 608.9585 68.606934
-27.860468 608.9585 68.606934
-22.288351 608.9585 68.606934
-16.874039 593.75049 94.742188
-11.24943 593.75049 94.742188
-5.6247149 593.75049 94.742188
0 593.75049 94.742188
5.6772065 578.54248 120.87744
11.35463 578.54248 120.87744
17.031837 578.54248 120.87744
22.926674 562.82739 147.88403
28.658234 562.82739 147.88403
34.389793 562.82739 147.88403
40.121571 562.82739 147.88403
45.85313 562.82739 147.88403
51.584908 562.82739 147.88403
110.55464 444.20459 351.73999
116.69671 444.20459 351.73999
122.83854 444.20459 351.73999
128.98036 444.20459 351.73999
135.12244 444.20459 351.73999
141.26427 444.20459 351.73999
147.40634 444.20459 351.73999
153.54817 444.20459 351.73999
158.09448 461.94727 321.24854
164.17517 461.94727 321.24854
170.25565 461.94727 321.24854
176.33633 461.94727 321.24854
182.41681 461.94727 321.24854
188.49728 461.94727 321.24854
194.57797 461.94727 321.24854
202.68355 444.20459 351.73999
208.82561 444.20459 351.73999
217.17664 425.95471 383.10254
223.38159 425.95471 383.10254
229.58678 425.95471 383.10254
235.79173 425.95471 383.10254
244.52698 407.19812 415.33594
250.79681 407.19812 415.33594
-106.86916 588.57288 92.544434
-100.29764 603.82935 66.429688
-94.725632 603.82935 66.429688
-89.153519 603.82935 66.429688
-83.581406 603.82935 66.429688
-78.009285 603.82935 66.429688
-72.437172 603.82935 66.429688
-66.865166 603.82935 66.429688
-61.293053 603.82935 66.429688
-55.720936 603.82935 66.429688
-50.148819 603.82935 66.429688
-44.576702 603.82935 66.429688
-39.0047 603.82935 66.429688
-33.432583 603.82935 66.429688
-28.123468 588.57288 92.544434
-22.498753 588.57288 92.544434
-16.874039 588.57288 92.544434
-11.24943 588.57288 92.544434
-5.6247149 588.57288 92.544434
0 588.57288 92.544434
5.6772065 573.31641 118.65918
11.35463 573.31641 118.65918
17.031837 573.31641 118.65918
22.926674 557.55127 145.64453
28.658234 557.55127 145.64453
34.389793 557.55127 145.64453
40.121571 557.55127 145.64453
45.85313 557.55127 145.64453
52.074093 541.78625 172.62988
116.69671 438.55078 349.34009
122.83854 438.55078 349.34009
130.30589 420.24292 380.67798
136.51108 420.24292 380.67798
141.26427 438.55078 349.34009
147.40634 438.55078 349.34009
153.54817 438.55078 349.34009
158.09448 456.34998 318.8728
164.17517 456.34998 318.8728
170.25565 456.34998 318.8728
176.33633 456.34998 318.8728
182.41681 456.34998 318.8728
188.49728 456.34998 318.8728
196.5417 438.55078 349.34009
202.68355 438.55078 349.34009
208.82561 438.55078 349.34009
217.17664 420.24292 380.67798
223.38159 420.24292 380.67798
229.58678 420.24292 380.67798
235.79173 420.24292 380.67798
244.52698 401.42651 412.88599
250.79681 401.42651 412.88599
-100.29764 598.7002 64.252441
-94.725632 598.7002 64.252441
-89.153519 598.7002 64.252441
-84.370399 583.39539 90.34668
-78.745689 583.39539 90.34668
-73.120972 583.39539 90.34668
-66.865166 598.7002 64.252441
-61.293053 598.7002 64.252441
-55.720936 598.7002 64.252441
-50.148819 598.7002 64.252441
-44.576702 598.7002 64.252441
-39.0047 598.7002 64.252441
-33.432583 598.7002 64.252441
-28.123468 583.39539 90.34668
-22.498753 583.39539 90.34668
-16.874039 583.39539 90.34668
-11.24943 583.39539 90.34668
-5.6247149 583.39539 90.34668
0 583.39539 90.34668
5.6772065 568.09045 116.44092
11.35463 568.09045 116.44092
17.031837 568.09045 116.44092
22.926674 552.27539 143.40503
28.386467 568.09045 116.44092
34.063675 568.09045 116.44092
39.7411 568.09045 116.44092
45.85313 552.27539 143.40503
116.69671 432.89722 346.94043
122.83854 432.89722 346.94043
130.30589 414.53113 378.25342
136.51108 414.53113 378.25342
141.26427 432.89722 346.94043
147.40634 432.89722 346.94043
153.54817 432.89722 346.94043
159.69002 432.89722 346.94043
165.83208 432.89722 346.94043
171.97391 432.89722 346.94043
178.11597 432.89722 346.94043
184.25781 432.89722 346.94043
190.39964 432.89722 346.94043
196.5417 432.89722 346.94043
202.68355 432.89722 346.94043
210.97169 414.53113 378.25342
217.17664 414.53113 378.25342
223.38159 414.53113 378.25342
229.58678 414.53113 378.25342
235.79173 414.53113 378.25342
241.99692 414.53113 378.25342
248.20187 414.53113 378.25342
257.06665 395.65515 410.43628
-100.29764 593.57104 62.075195
-94.725632 593.57104 62.075195
-89.153519 593.57104 62.075195
-84.370399 578.21777 88.148926
-78.745689 578.21777 88.148926
-73.120972 578.21777 88.148926
-67.496368 578.21777 88.148926
-61.293053 593.57104 62.075195
-55.720936 593.57104 62.075195
-50.148819 593.57104 62.075195
-44.576702 593.57104 62.075195
-39.0047 593.57104 62.075195
-33.432583 593.57104 62.075195
-28.123468 578.21777 88.148926
-22.498753 578.21777 88.148926
-16.874039 578.21777 88.148926
-11.24943 578.21777 88.148926
-5.6247149 578.21777 88.148926
0 578.21777 88.148926
5.6772065 562.86438 114.22266
11.35463 562.86438 114.22266
17.031837 562.86438 114.22266
22.926674 546.99927 141.16553
28.386467 562.86438 114.22266
34.063675 562.86438 114.22266
39.7411 562.86438 114.22266
45.85313 546.99927 141.16553
122.83854 427.24341 344.54053
128.98036 427.24341 344.54053
136.51108 408.81934 375.82886
141.26427 427.24341 344.54053
147.40634 427.24341 344.54053
153.54817 427.24341 344.54053
159.69002 427.24341 344.54053
165.83208 427.24341 344.54053
171.97391 427.24341 344.54053
178.11597 427.24341 344.54053
184.25781 427.24341 344.54053
190.39964 427.24341 344.54053
196.5417 427.24341 344.54053
202.68355 427.24341 344.54053
210.97169 408.81934 375.82886
217.17664 408.81934 375.82886
223.38159 408.81934 375.82886
229.58678 408.81934 375.82886
235.79173 408.81934 375.82886
241.99692 408.81934 375.82886
248.20187 408.81934 375.82886
257.06665 389.88354 407.98633
-101.24444 573.04016 85.951172
-95.619835 573.04016 85.951172
-89.995117 573.04016 85.951172
-84.370399 573.04016 85.951172
-78.745689 573.04016 85.951172
-73.120972 573.04016 85.951172
-67.496368 573.04016 85.951172
-61.293053 588.44189 59.897949
-55.720936 588.44189 59.897949
-50.148819 588.44189 59.897949
-44.576702 588.44189 59.897949
-39.0047 588.44189 59.897949
-33.748184 573.04016 85.951172
-28.123468 573.04016 85.951172
-22.498753 573.04016 85.951172
-16.874039 573.04016 85.951172
-11.24943 573.04016 85.951172
-5.6247149 573.04016 85.951172
0 573.04016 85.951172
5.6772065 557.63843 112.00415
11.35463 557.63843 112.00415
17.031837 557.63843 112.00415
22.926674 541.72327 138.92578
28.658234 541.72327 138.92578
34.389793 541.72327 138.92578
40.121571 541.72327 138.92578
45.85313 541.72327 138.92578
122.83854 421.5896 342.14062
128.98036 421.5896 342.14062
136.51108 403.10754 373.4043
141.26427 421.5896 342.14062
147.40634 421.5896 342.14062
153.54817 421.5896 342.14062
159.69002 421.5896 342.14062
165.83208 421.5896 342.14062
171.97391 421.5896 342.14062
178.11597 421.5896 342.14062
184.25781 421.5896 342.14062
190.39964 421.5896 342.14062
198.56155 403.10754 373.4043
204.76649 403.10754 373.4043
210.97169 403.10754 373.4043
217.17664 403.10754 373.4043
223.38159 403.10754 373.4043
229.58678 403.10754 373.4043
235.79173 403.10754 373.4043
241.99692 403.10754 373.4043
248.20187 403.10754 373.4043
257.06665 384.11206 405.53662
-101.24444 567.86267 83.753662
-95.619835 567.86267 83.753662
-89.995117 567.86267 83.753662
-84.370399 567.86267 83.753662
-78.745689 567.86267 83.753662
-73.120972 567.86267 83.753662
-67.496368 567.86267 83.753662
-61.871651 567.86267 83.753662
-56.246937 567.86267 83.753662
-50.622219 567.86267 83.753662
-44.997505 567.86267 83.753662
-39.372898 567.86267 83.753662
-33.748184 567.86267 83.753662
-28.123468 567.86267 83.753662
-22.498753 567.86267 83.753662
-16.874039 567.86267 83.753662
-11.24943 567.86267 83.753662
-5.6247149 567.86267 83.753662
0 567.86267 83.753662
5.6772065 552.41248 109.78613
11.35463 552.41248 109.78613
17.194897 536.44727 136.68628
22.926674 536.44727 136.68628
28.658234 536.44727 136.68628
34.389793 536.44727 136.68628
40.121571 536.44727 136.68628
45.85313 536.44727 136.68628
130.30589 397.39575 370.97998
136.51108 397.39575 370.97998
142.71603 397.39575 370.97998
148.92122 397.39575 370.97998
153.54817 415.93604 339.74072
159.69002 415.93604 339.74072
165.83208 415.93604 339.74072
171.97391 415.93604 339.74072
178.11597 415.93604 339.74072
184.25781 415.93604 339.74072
192.35635 397.39575 370.97998
198.56155 397.39575 370.97998
204.76649 397.39575 370.97998
210.97169 397.39575 370.97998
219.4472 378.34058 403.08667
225.71704 378.34058 403.08667
231.98711 378.34058 403.08667
238.25691 378.34058 403.08667
241.99692 397.39575 370.97998
248.20187 397.39575 370.97998
251.81891 415.93604 339.74072
257.96097 415.93604 339.74072
-101.24444 562.68506 81.555664
-95.619835 562.68506 81.555664
-89.995117 562.68506 81.555664
-84.370399 562.68506 81.555664
-78.745689 562.68506 81.555664
-73.120972 562.68506 81.555664
-67.496368 562.68506 81.555664
-61.871651 562.68506 81.555664
-56.246937 562.68506 81.555664
-50.622219 562.68506 81.555664
-44.997505 562.68506 81.555664
-39.372898 562.68506 81.555664
-33.748184 562.68506 81.555664
-28.123468 562.68506 81.555664
-22.498753 562.68506 81.555664
-16.874039 562.68506 81.555664
-11.24943 562.68506 81.555664
-5.6247149 562.68506 81.555664
0 562.68506 81.555664
5.6772065 547.1864 107.56763
11.35463 547.1864 107.56763
17.194897 531.17114 134.44678
22.926674 531.17114 134.44678
28.658234 531.17114 134.44678
34.389793 531.17114 134.44678
40.121571 531.17114 134.44678
46.28796 515.15601 161.32593
131.66823 372.56909 400.63672
137.93829 372.56909 400.63672
142.71603 391.68396 368.55542
148.92122 391.68396 368.55542
155.12617 391.68396 368.55542
161.33112 391.68396 368.55542
167.53632 391.68396 368.55542
173.74127 391.68396 368.55542
179.94646 391.68396 368.55542
186.15141 391.68396 368.55542
192.35635 391.68396 368.55542
198.56155 391.68396 368.55542
204.76649 391.68396 368.55542
210.97169 391.68396 368.55542
217.17664 391.68396 368.55542
225.71704 372.56909 400.63672
231.98711 372.56909 400.63672
238.25691 372.56909 400.63672
244.52698 372.56909 400.63672
250.79681 372.56909 400.63672
251.81891 410.28235 337.34082
257.96097 410.28235 337.34082
264.10281 410.28235 337.34082
-101.24444 557.50757 79.358154
-95.619835 557.50757 79.358154
-89.995117 557.50757 79.358154
-84.370399 557.50757 79.358154
-78.745689 557.50757 79.358154
-73.120972 557.50757 79.358154
-67.496368 557.50757 79.358154
-61.871651 557.50757 79.358154
-56.246937 557.50757 79.358154
-50.622219 557.50757 79.358154
-44.997505 557.50757 79.358154
-39.372898 557.50757 79.358154
-33.748184 557.50757 79.358154
-28.123468 557.50757 79.358154
-22.498753 557.50757 79.358154
-16.874039 557.50757 79.358154
-11.24943 557.50757 79.358154
-5.6247149 557.50757 79.358154
0 557.50757 79.358154
5.6772065 541.96045 105.34937
11.35463 541.96045 105.34937
17.194897 525.89526 132.20728
22.926674 525.89526 132.20728
28.658234 525.89526 132.20728
34.389793 525.89526 132.20728
40.121571 525.89526 132.20728
46.28796 509.83008 159.06519
134.50337 326.89368 464.89844
139.40408 347.10474 431.10962
142.71603 385.97229 366.13086
148.92122 385.97229 366.13086
155.12617 385.97229 366.13086
161.33112 385.97229 366.13086
167.53632 385.97229 366.13086
173.74127 385.97229 366.13086
179.94646 385.97229 366.13086
186.15141 385.97229 366.13086
192.35635 385.97229 366.13086
198.56155 385.97229 366.13086
204.76649 385.97229 366.13086
210.97169 385.97229 366.13086
217.17664 385.97229 366.13086
225.71704 366.79761 398.18701
231.98711 366.79761 398.18701
238.25691 366.79761 398.18701
244.52698 366.79761 398.18701
250.79681 366.79761 398.18701
251.81891 404.62878 334.94116
257.96097 404.62878 334.94116
264.10281 404.62878 334.94116
-95.619835 552.32983 77.1604
-89.995117 552.32983 77.1604
-84.370399 552.32983 77.1604
-78.745689 552.32983 77.1604
-73.120972 552.32983 77.1604
-67.496368 552.32983 77.1604
-61.871651 552.32983 77.1604
-56.246937 552.32983 77.1604
-50.622219 552.32983 77.1604
-44.997505 552.32983 77.1604
-39.372898 552.32983 77.1604
-33.748184 552.32983 77.1604
-28.123468 552.32983 77.1604
-22.498753 552.32983 77.1604
-16.874039 552.32983 77.1604
-11.24943 552.32983 77.1604
-5.6247149 552.32983 77.1604
0 552.32983 77.1604
5.6772065 536.7345 103.1311
11.35463 536.7345 103.1311
17.194897 520.61926 129.96777
22.926674 520.61926 129.96777
28.658234 520.61926 129.96777
34.389793 520.61926 129.96777
40.121571 520.61926 129.96777
46.28796 504.50391 156.80444
134.50337 320.9978 462.396
139.40408 341.27185 428.63379
144.20811 361.02612 395.73706
150.47818 361.02612 395.73706
155.12617 380.26038 363.7063
161.33112 380.26038 363.7063
167.53632 380.26038 363.7063
173.74127 380.26038 363.7063
179.94646 380.26038 363.7063
188.09761 361.02612 395.73706
194.36743 361.02612 395.73706
200.6375 361.02612 395.73706
206.90732 361.02612 395.73706
213.17738 361.02612 395.73706
219.4472 361.02612 395.73706
225.71704 361.02612 395.73706
231.98711 361.02612 395.73706
238.25691 361.02612 395.73706
244.52698 361.02612 395.73706
248.20187 380.26038 363.7063
254.40683 380.26038 363.7063
-102.19124 531.50854 100.91284
-96.514038 531.50854 100.91284
-90.836716 531.50854 100.91284
-85.159401 531.50854 100.91284
-79.482086 531.50854 100.91284
-73.120972 547.15234 74.962646
-67.496368 547.15234 74.962646
-61.871651 547.15234 74.962646
-56.246937 547.15234 74.962646
-50.622219 547.15234 74.962646
-44.997505 547.15234 74.962646
-39.372898 547.15234 74.962646
-33.432583 562.79626 49.012207
-27.860468 562.79626 49.012207
-22.288351 562.79626 49.012207
-16.874039 547.15234 74.962646
-11.24943 547.15234 74.962646
-5.6247149 547.15234 74.962646
0 547.15234 74.962646
5.6772065 531.50854 100.91284
11.35463 531.50854 100.91284
17.194897 515.34326 127.72827
22.926674 515.34326 127.72827
28.658234 515.34326 127.72827
34.389793 515.34326 127.72827
40.502045 499.17798 154.5437
46.28796 499.17798 154.5437
134.50337 315.10217 459.89331
139.40408 335.43921 426.15796
145.74052 335.43921 426.15796
150.47818 355.25464 393.28735
156.748 355.25464 393.28735
163.01784 355.25464 393.28735
169.2879 355.25464 393.28735
175.55771 355.25464 393.28735
181.82777 355.25464 393.28735
188.09761 355.25464 393.28735
194.36743 355.25464 393.28735
200.6375 355.25464 393.28735
206.90732 355.25464 393.28735
213.17738 355.25464 393.28735
221.77914 335.43921 426.15796
228.11559 335.43921 426.15796
231.98711 355.25464 393.28735
238.25691 355.25464 393.28735
241.99692 374.54871 361.28174
245.67708 393.32141 330.14136
251.81891 393.32141 330.14136
-102.19124 526.28259 98.69458
-96.514038 526.28259 98.69458
-90.836716 526.28259 98.69458
-85.159401 526.28259 98.69458
-79.482086 526.28259 98.69458
-73.120972 541.97485 72.764893
-67.496368 541.97485 72.764893
-61.871651 541.97485 72.764893
-56.246937 541.97485 72.764893
-50.622219 541.97485 72.764893
-44.576702 557.66699 46.834961
-39.0047 557.66699 46.834961
-33.432583 557.66699 46.834961
-27.860468 557.66699 46.834961
-22.288351 557.66699 46.834961
-16.874039 541.97485 72.764893
-11.24943 541.97485 72.764893
-5.6247149 541.97485 72.764893
0 541.97485 72.764893
5.7315598 510.06714 125.48877
11.463337 510.06714 125.48877
17.194897 510.06714 125.48877
22.926674 510.06714 125.48877
28.93 493.85181 152.28271
34.715912 493.85181 152.28271
40.502045 493.85181 152.28271
46.28796 493.85181 152.28271
139.40408 329.6062 423.68188
145.74052 329.6062 423.68188
152.07722 329.6062 423.68188
156.748 349.48315 390.8374
163.01784 349.48315 390.8374
169.2879 349.48315 390.8374
175.55771 349.48315 390.8374
181.82777 349.48315 390.8374
188.09761 349.48315 390.8374
196.43286 329.6062 423.68188
202.76955 329.6062 423.68188
209.106 329.6062 423.68188
215.44269 329.6062 423.68188
221.77914 329.6062 423.68188
228.11559 329.6062 423.68188
234.45229 329.6062 423.68188
240.78873 329.6062 423.68188
241.99692 368.83691 358.85742
245.67708 387.66772 327.74146
251.81891 387.66772 327.74146
-101.24444 536.79736 70.567139
-95.619835 536.79736 70.567139
-90.836716 521.05664 96.476318
-85.159401 521.05664 96.476318
-79.482086 521.05664 96.476318
-73.120972 536.79736 70.567139
-67.496368 536.79736 70.567139
-61.871651 536.79736 70.567139
-56.246937 536.79736 70.567139
-50.622219 536.79736 70.567139
-44.576702 552.53796 44.657715
-39.0047 552.53796 44.657715
-33.432583 552.53796 44.657715
-27.860468 552.53796 44.657715
-22.288351 552.53796 44.657715
-16.716238 552.53796 44.657715
-11.24943 536.79736 70.567139
-5.6247149 536.79736 70.567139
0 536.79736 70.567139
5.7315598 504.79126 123.24927
11.463337 504.79126 123.24927
17.194897 504.79126 123.24927
22.926674 504.79126 123.24927
28.93 488.52588 150.02222
34.715912 488.52588 150.02222
40.502045 488.52588 150.02222
46.28796 488.52588 150.02222
139.40408 323.77344 421.20605
145.74052 323.77344 421.20605
152.07722 323.77344 421.20605
158.41367 323.77344 421.20605
164.75012 323.77344 421.20605
171.08681 323.77344 421.20605
177.42326 323.77344 421.20605
183.75995 323.77344 421.20605
190.09641 323.77344 421.20605
196.43286 323.77344 421.20605
202.76955 323.77344 421.20605
209.106 323.77344 421.20605
215.44269 323.77344 421.20605
221.77914 323.77344 421.20605
228.11559 323.77344 421.20605
234.45229 323.77344 421.20605
240.78873 323.77344 421.20605
244.52698 343.71179 388.3877
250.79681 343.71179 388.3877
-101.24444 531.61963 68.369385
-95.619835 531.61963 68.369385
-89.995117 531.61963 68.369385
-84.370399 531.61963 68.369385
-78.745689 531.61963 68.369385
-73.120972 531.61963 68.369385
-67.496368 531.61963 68.369385
-61.871651 531.61963 68.369385
-56.246937 531.61963 68.369385
-50.622219 531.61963 68.369385
-44.997505 531.61963 68.369385
-39.0047 547.40881 42.480469
-33.432583 547.40881 42.480469
-27.860468 547.40881 42.480469
-22.288351 547.40881 42.480469
-16.716238 547.40881 42.480469
-11.24943 531.61963 68.369385
-5.6247149 531.61963 68.369385
0 515.83057 94.257812
5.7315598 499.51514 121.00952
11.463337 499.51514 121.00952
17.194897 499.51514 121.00952
23.144089 483.19971 147.76123
28.93 483.19971 147.76123
34.715912 483.19971 147.76123
40.502045 483.19971 147.76123
46.28796 483.19971 147.76123
52.074093 483.19971 147.76123
139.40408 317.94067 418.73022
145.74052 317.94067 418.73022
152.07722 317.94067 418.73022
158.41367 317.94067 418.73022
164.75012 317.94067 418.73022
171.08681 317.94067 418.73022
177.42326 317.94067 418.73022
183.75995 317.94067 418.73022
190.09641 317.94067 418.73022
196.43286 317.94067 418.73022
202.76955 317.94067 418.73022
209.106 317.94067 418.73022
215.44269 317.94067 418.73022
221.77914 317.94067 418.73022
228.11559 317.94067 418.73022
234.45229 317.94067 418.73022
240.78873 317.94067 418.73022
244.52698 337.94019 385.93774
250.79681 337.94019 385.93774
-101.24444 526.44214 66.171631
-95.619835 526.44214 66.171631
-89.995117 526.44214 66.171631
-84.370399 526.44214 66.171631
-78.745689 526.44214 66.171631
-73.120972 526.44214 66.171631
-67.496368 526.44214 66.171631
-61.871651 526.44214 66.171631
-56.246937 526.44214 66.171631
-50.622219 526.44214 66.171631
-44.997505 526.44214 66.171631
-39.372898 526.44214 66.171631
-33.748184 526.44214 66.171631
-28.123468 526.44214 66.171631
-22.498753 526.44214 66.171631
-16.716238 542.27979 40.303223
-11.14423 542.27979 40.303223
-5.6247149 526.44214 66.171631
0 510.60474 92.039551
5.7315598 494.23926 118.77002
11.463337 494.23926 118.77002
17.357956 477.87378 145.50049
23.144089 477.87378 145.50049
28.93 477.87378 145.50049
34.715912 477.87378 145.50049
40.502045 477.87378 145.50049
46.28796 477.87378 145.50049
52.074093 477.87378 145.50049
139.40408 312.10791 416.25439
145.74052 312.10791 416.25439
152.07722 312.10791 416.25439
158.41367 312.10791 416.25439
164.75012 312.10791 416.25439
171.08681 312.10791 416.25439
177.42326 312.10791 416.25439
183.75995 312.10791 416.25439
190.09641 312.10791 416.25439
196.43286 312.10791 416.25439
202.76955 312.10791 416.25439
209.106 312.10791 416.25439
215.44269 312.10791 416.25439
221.77914 312.10791 416.25439
228.11559 312.10791 416.25439
236.98235 291.51904 449.88281
240.78873 312.10791 416.25439
247.12543 312.10791 416.25439
-95.619835 521.26465 63.973877
-89.995117 521.26465 63.973877
-84.370399 521.26465 63.973877
-78.745689 521.26465 63.973877
-73.120972 521.26465 63.973877
-67.496368 521.26465 63.973877
-61.871651 521.26465 63.973877
-56.246937 521.26465 63.973877
-50.622219 521.26465 63.973877
-44.997505 521.26465 63.973877
-39.372898 521.26465 63.973877
-33.748184 521.26465 63.973877
-27.860468 537.15051 38.126221
-22.288351 537.15051 38.126221
-16.716238 537.15051 38.126221
-11.14423 537.15051 38.126221
-5.6247149 521.26465 63.973877
0 521.26465 63.973877
5.7315598 488.96313 116.53052
11.463337 488.96313 116.53052
17.357956 472.54773 143.23975
23.144089 472.54773 143.23975
28.93 472.54773 143.23975
34.715912 472.54773 143.23975
40.502045 472.54773 143.23975
46.28796 472.54773 143.23975
135.93935 264.97156 480.98218
139.40408 306.2749 413.77832
145.74052 306.2749 413.77832
153.71835 285.62329 447.38037
160.12317 285.62329 447.38037
166.528 285.62329 447.38037
172.93307 285.62329 447.38037
179.33791 285.62329 447.38037
185.74298 285.62329 447.38037
192.14781 285.62329 447.38037
198.55263 285.62329 447.38037
202.76955 306.2749 413.77832
209.106 306.2749 413.77832
217.76762 285.62329 447.38037
224.17244 285.62329 447.38037
230.57726 285.62329 447.38037
236.98235 285.62329 447.38037
240.78873 306.2749 413.77832
247.12543 306.2749 413.77832
-95.619835 516.08716 61.776123
-89.995117 516.08716 61.776123
-84.370399 516.08716 61.776123
-78.745689 516.08716 61.776123
-73.804771 500.15271 87.603027
-67.496368 516.08716 61.776123
-61.871651 516.08716 61.776123
-56.246937 516.08716 61.776123
-50.622219 516.08716 61.776123
-44.997505 516.08716 61.776123
-39.372898 516.08716 61.776123
-33.748184 516.08716 61.776123
-27.860468 532.02148 35.948975
-22.288351 532.02148 35.948975
-16.716238 532.02148 35.948975
-11.14423 532.02148 35.948975
-5.6247149 516.08716 61.776123
0 516.08716 61.776123
5.7315598 483.68726 114.29102
11.463337 483.68726 114.29102
17.357956 467.22168 140.979
23.144089 467.22168 140.979
