ply
format ascii 1.0
comment PCL generated
element vertex 1581
property float x
property float y
property float z
element camera 0
property float view_px
property float view_py
property float view_pz
property float x_axisx
property float x_axisy
property float x_axisz
property float y_axisx
property float y_axisy
property float y_axisz
property float z_axisx
property float z_axisy
property float z_axisz
property float focal
property float scalex
property float scaley
property float centerx
property float centery
property int viewportx
property int viewporty
property float k1
property float k2
end_header
-114.87842 1338.2994 315.18457
-109.408 1338.2994 315.18457
-103.00481 1346.212 288.12549
-96.699806 1354.1248 261.06616
-91.327667 1354.1248 261.06616
-85.955437 1354.1248 261.06616
-80.583206 1354.1248 261.06616
-73.885452 1369.3849 208.88013
-68.015266 1376.7325 183.75366
-62.236362 1384.08 158.6272
-56.567814 1391.1449 134.46704
-50.986935 1398.2098 110.30664
-45.888226 1398.2098 110.30664
-40.789509 1398.2098 110.30664
-35.690891 1398.2098 110.30664
-30.592182 1398.2098 110.30664
-25.274302 1405.2747 86.146484
-20.219421 1405.2747 86.146484
-15.164542 1405.2747 86.146484
-10.109758 1405.2747 86.146484
-5.0548792 1405.2747 86.146484
0 1405.2747 86.146484
5.0547829 1405.2747 86.146484
10.109758 1405.2747 86.146484
15.164542 1405.2747 86.146484
20.219517 1405.2747 86.146484
25.493467 1398.2098 110.30664
30.592083 1398.2098 110.30664
35.690891 1398.2098 110.30664
40.789509 1398.2098 110.30664
45.888317 1398.2098 110.30664
51.42527 1391.1449 134.46704
57.049881 1384.08 158.6272
63.330441 1369.3849 208.88013
68.607895 1369.3849 208.88013
-165.63741 1325.0217 341.05322
-160.11613 1325.0217 341.05322
-154.59486 1325.0217 341.05322
-149.07372 1325.0217 341.05322
-143.55244 1325.0217 341.05322
-138.03117 1325.0217 341.05322
-132.5099 1325.0217 341.05322
-126.98864 1325.0217 341.05322
-121.46747 1325.0217 341.05322
-115.94621 1325.0217 341.05322
-110.42493 1325.0217 341.05322
-103.93758 1333.2639 313.04712
-97.583481 1341.2217 286.00732
-92.162254 1341.2217 286.00732
-86.740929 1341.2217 286.00732
-81.319603 1341.2217 286.00732
-74.54821 1356.8533 232.89233
-68.015266 1371.9165 181.70947
-62.236362 1379.3059 156.60059
-56.567814 1386.4111 132.45752
-50.986935 1393.5165 108.31445
-45.888226 1393.5165 108.31445
-40.789509 1393.5165 108.31445
-35.690891 1393.5165 108.31445
-30.592182 1393.5165 108.31445
-25.274302 1400.6217 84.171387
-20.219421 1400.6217 84.171387
-15.164542 1400.6217 84.171387
-10.109758 1400.6217 84.171387
-5.0548792 1400.6217 84.171387
0 1400.6217 84.171387
5.0547829 1400.6217 84.171387
10.109758 1400.6217 84.171387
15.164542 1400.6217 84.171387
20.219517 1400.6217 84.171387
25.493467 1393.5165 108.31445
30.592083 1393.5165 108.31445
35.690891 1393.5165 108.31445
40.789509 1393.5165 108.31445
46.282822 1386.4111 132.45752
51.863602 1379.3059 156.60059
58.052788 1364.527 206.81812
63.330441 1364.527 206.81812
68.607895 1364.527 206.81812
73.885544 1364.527 206.81812
-165.63741 1319.9393 338.896
-160.11613 1319.9393 338.896
-154.59486 1319.9393 338.896
-149.07372 1319.9393 338.896
-143.55244 1319.9393 338.896
-138.03117 1319.9393 338.896
-132.5099 1319.9393 338.896
-126.98864 1319.9393 338.896
-121.46747 1319.9393 338.896
-115.94621 1319.9393 338.896
-110.42493 1319.9393 338.896
-104.90366 1319.9393 338.896
-98.467163 1328.2284 310.90967
-92.996849 1328.2284 310.90967
-87.526421 1328.2284 310.90967
-81.319603 1336.2314 283.88892
-74.54821 1351.9518 230.81177
-68.607895 1359.6689 204.7561
-62.783401 1367.1005 179.66504
-57.04998 1374.5317 154.57422
-51.42527 1381.6775 130.44824
-45.888226 1388.823 106.32227
-40.789509 1388.823 106.32227
-35.997726 1381.6775 130.44824
-30.592182 1388.823 106.32227
-25.274302 1395.9688 82.196289
-20.219421 1395.9688 82.196289
-15.164542 1395.9688 82.196289
-10.109758 1395.9688 82.196289
-5.0548792 1395.9688 82.196289
0 1395.9688 82.196289
5.0547829 1395.9688 82.196289
10.109758 1395.9688 82.196289
15.164542 1395.9688 82.196289
20.219517 1395.9688 82.196289
25.493467 1388.823 106.32227
30.592083 1388.823 106.32227
35.690891 1388.823 106.32227
41.140175 1381.6775 130.44824
46.282822 1381.6775 130.44824
51.863602 1374.5317 154.57422
57.551338 1367.1005 179.66504
62.783401 1367.1005 179.66504
68.607895 1359.6689 204.7561
73.885544 1359.6689 204.7561
-175.05284 1323.1929 308.77222
-169.58243 1323.1929 308.77222
-165.63741 1314.8571 336.73853
-160.11613 1314.8571 336.73853
-154.59486 1314.8571 336.73853
-149.07372 1314.8571 336.73853
-143.55244 1314.8571 336.73853
-138.03117 1314.8571 336.73853
-132.5099 1314.8571 336.73853
-126.98864 1314.8571 336.73853
-121.46747 1314.8571 336.73853
-115.94621 1314.8571 336.73853
-110.42493 1314.8571 336.73853
-104.90366 1314.8571 336.73853
-99.382401 1314.8571 336.73853
-92.996849 1323.1929 308.77222
-87.526421 1323.1929 308.77222
-81.319603 1331.2411 281.77075
-74.54821 1347.0502 228.7312
-68.607895 1354.811 202.69385
-62.783401 1362.2844 177.62085
-57.04998 1369.7577 152.54785
-51.42527 1376.9437 128.43896
-45.888226 1384.1296 104.33008
-40.789509 1384.1296 104.33008
-35.997726 1376.9437 128.43896
-30.592182 1384.1296 104.33008
-25.493467 1384.1296 104.33008
-20.394754 1384.1296 104.33008
-15.164542 1391.3157 80.221191
-10.109758 1391.3157 80.221191
-5.0548792 1391.3157 80.221191
0 1391.3157 80.221191
5.0986156 1384.1296 104.33008
10.197426 1384.1296 104.33008
15.296041 1384.1296 104.33008
20.394852 1384.1296 104.33008
25.493467 1384.1296 104.33008
30.592083 1384.1296 104.33008
35.690891 1384.1296 104.33008
41.140175 1376.9437 128.43896
46.282822 1376.9437 128.43896
51.863602 1369.7577 152.54785
57.551338 1362.2844 177.62085
62.783401 1362.2844 177.62085
68.607895 1354.811 202.69385
73.885544 1354.811 202.69385
79.8731 1347.0502 228.7312
85.197891 1347.0502 228.7312
-175.05284 1318.1572 306.63477
-169.58243 1318.1572 306.63477
-165.63741 1309.7747 334.5813
-160.11613 1309.7747 334.5813
-154.59486 1309.7747 334.5813
-149.07372 1309.7747 334.5813
-143.55244 1309.7747 334.5813
-138.03117 1309.7747 334.5813
-132.5099 1309.7747 334.5813
-126.98864 1309.7747 334.5813
-121.46747 1309.7747 334.5813
-115.94621 1309.7747 334.5813
-110.42493 1309.7747 334.5813
-104.90366 1309.7747 334.5813
-99.382401 1309.7747 334.5813
-92.996849 1318.1572 306.63477
-87.526421 1318.1572 306.63477
-81.319603 1326.2507 279.65234
-74.54821 1342.1487 226.65063
-68.607895 1349.953 200.63184
-62.783401 1357.4684 175.57666
-57.04998 1364.9836 150.52124
-51.42527 1372.21 126.42944
-46.282722 1372.21 126.42944
-41.140175 1372.21 126.42944
-35.997726 1372.21 126.42944
-30.855181 1372.21 126.42944
-25.493467 1379.4363 102.33789
-20.394754 1379.4363 102.33789
-15.296041 1379.4363 102.33789
-10.197426 1379.4363 102.33789
-5.0987129 1379.4363 102.33789
0 1379.4363 102.33789
5.0986156 1379.4363 102.33789
10.197426 1379.4363 102.33789
15.296041 1379.4363 102.33789
20.394852 1379.4363 102.33789
25.493467 1379.4363 102.33789
30.592083 1379.4363 102.33789
35.997726 1372.21 126.42944
41.140175 1372.21 126.42944
46.677322 1364.9836 150.52124
51.863602 1364.9836 150.52124
57.551338 1357.4684 175.57666
62.783401 1357.4684 175.57666
68.607895 1349.953 200.63184
73.885544 1349.953 200.63184
79.163002 1349.953 200.63184
85.197891 1342.1487 226.65063
-180.52318 1313.1218 304.49731
-175.05284 1313.1218 304.49731
-169.58243 1313.1218 304.49731
-165.63741 1304.6924 332.42383
-160.11613 1304.6924 332.42383
-154.59486 1304.6924 332.42383
-149.07372 1304.6924 332.42383
-143.55244 1304.6924 332.42383
-138.03117 1304.6924 332.42383
-132.5099 1304.6924 332.42383
-126.98864 1304.6924 332.42383
-121.46747 1304.6924 332.42383
-115.94621 1304.6924 332.42383
-111.44187 1296.2631 360.35034
-105.86976 1296.2631 360.35034
-99.382401 1304.6924 332.42383
-93.861237 1304.6924 332.42383
-87.526421 1313.1218 304.49731
-82.056 1313.1218 304.49731
-74.54821 1337.2471 224.57007
-68.607895 1345.095 198.56982
-62.783401 1352.6523 173.53223
-57.04998 1360.2096 148.49487
-51.42527 1367.4763 124.42017
-46.282722 1367.4763 124.42017
-41.140175 1367.4763 124.42017
-35.997726 1367.4763 124.42017
-30.855181 1367.4763 124.42017
-25.493467 1374.7429 100.3457
-20.394754 1374.7429 100.3457
-15.296041 1374.7429 100.3457
-10.197426 1374.7429 100.3457
-5.0987129 1374.7429 100.3457
0 1374.7429 100.3457
5.0986156 1374.7429 100.3457
10.197426 1374.7429 100.3457
15.296041 1374.7429 100.3457
20.394852 1374.7429 100.3457
25.493467 1374.7429 100.3457
30.592083 1374.7429 100.3457
35.997726 1367.4763 124.42017
41.140175 1367.4763 124.42017
46.677322 1360.2096 148.49487
51.863602 1360.2096 148.49487
57.551338 1352.6523 173.53223
62.783401 1352.6523 173.53223
68.607895 1345.095 198.56982
73.885544 1345.095 198.56982
79.163002 1345.095 198.56982
85.197891 1337.2471 224.57007
92.162254 1321.2604 277.53418
-180.52318 1308.0863 302.35986
-175.05284 1308.0863 302.35986
-169.58243 1308.0863 302.35986
-165.63741 1299.6101 330.2666
-160.11613 1299.6101 330.2666
-153.17117 1308.0863 302.35986
-147.70084 1308.0863 302.35986
-142.23042 1308.0863 302.35986
-138.03117 1299.6101 330.2666
-132.5099 1299.6101 330.2666
-126.98864 1299.6101 330.2666
-121.46747 1299.6101 330.2666
-115.94621 1299.6101 330.2666
-110.42493 1299.6101 330.2666
-104.90366 1299.6101 330.2666
-99.382401 1299.6101 330.2666
-92.996849 1308.0863 302.35986
-87.526421 1308.0863 302.35986
-81.319603 1316.27 275.41577
-75.210968 1324.4539 248.47168
-68.607895 1340.2369 196.50757
-63.330441 1340.2369 196.50757
-57.04998 1355.4355 146.46826
-51.42527 1362.7426 122.41089
-46.282722 1362.7426 122.41089
-41.140175 1362.7426 122.41089
-35.997726 1362.7426 122.41089
-30.855181 1362.7426 122.41089
-25.493467 1370.0496 98.353516
-20.394754 1370.0496 98.353516
-15.296041 1370.0496 98.353516
-10.197426 1370.0496 98.353516
-5.0987129 1370.0496 98.353516
0 1370.0496 98.353516
5.0986156 1370.0496 98.353516
10.197426 1370.0496 98.353516
15.296041 1370.0496 98.353516
20.394852 1370.0496 98.353516
25.493467 1370.0496 98.353516
30.592083 1370.0496 98.353516
35.997726 1362.7426 122.41089
41.140175 1362.7426 122.41089
46.677322 1355.4355 146.46826
51.863602 1355.4355 146.46826
57.551338 1347.8363 171.48804
63.330441 1340.2369 196.50757
68.607895 1340.2369 196.50757
73.885544 1340.2369 196.50757
79.163002 1340.2369 196.50757
85.197891 1332.3455 222.4895
90.522888 1332.3455 222.4895
-180.52318 1303.0508 300.22241
-175.05284 1303.0508 300.22241
-169.58243 1303.0508 300.22241
-164.112 1303.0508 300.22241
-158.64159 1303.0508 300.22241
-153.17117 1303.0508 300.22241
-147.70084 1303.0508 300.22241
-142.23042 1303.0508 300.22241
-136.76001 1303.0508 300.22241
-132.5099 1294.5277 328.10938
-125.81916 1303.0508 300.22241
-120.34885 1303.0508 300.22241
-115.94621 1294.5277 328.10938
-110.42493 1294.5277 328.10938
-104.90366 1294.5277 328.10938
-98.467163 1303.0508 300.22241
-92.996849 1303.0508 300.22241
-87.526421 1303.0508 300.22241
-81.319603 1311.2798 273.29761
-74.54821 1327.4438 220.40894
-69.223312 1327.4438 220.40894
-63.330441 1335.379 194.44556
-57.551434 1343.0203 169.4436
-51.863602 1350.6615 144.44189
-46.282722 1358.0088 120.40161
-41.140175 1358.0088 120.40161
-35.997726 1358.0088 120.40161
-30.855181 1358.0088 120.40161
-25.493467 1365.3562 96.361328
-20.394754 1365.3562 96.361328
-15.296041 1365.3562 96.361328
-10.197426 1365.3562 96.361328
-5.0987129 1365.3562 96.361328
0 1365.3562 96.361328
5.0986156 1365.3562 96.361328
10.197426 1365.3562 96.361328
15.296041 1365.3562 96.361328
20.394852 1365.3562 96.361328
25.493467 1365.3562 96.361328
30.592083 1365.3562 96.361328
35.997726 1358.0088 120.40161
41.140175 1358.0088 120.40161
46.677322 1350.6615 144.44189
51.863602 1350.6615 144.44189
57.551338 1343.0203 169.4436
63.330441 1335.379 194.44556
68.607895 1335.379 194.44556
73.885544 1335.379 194.44556
79.163002 1335.379 194.44556
85.197891 1327.4438 220.40894
90.522888 1327.4438 220.40894
97.583481 1311.2798 273.29761
-180.52318 1298.0151 298.08496
-175.05284 1298.0151 298.08496
-169.58243 1298.0151 298.08496
-164.112 1298.0151 298.08496
-158.64159 1298.0151 298.08496
-153.17117 1298.0151 298.08496
-147.70084 1298.0151 298.08496
-142.23042 1298.0151 298.08496
-136.76001 1298.0151 298.08496
-131.28958 1298.0151 298.08496
-125.81916 1298.0151 298.08496
-120.34885 1298.0151 298.08496
-114.87842 1298.0151 298.08496
-110.42493 1289.4453 325.9519
-103.93758 1298.0151 298.08496
-98.467163 1298.0151 298.08496
-92.162254 1306.2894 271.1792
-86.740929 1306.2894 271.1792
-80.583206 1314.5636 244.27344
-74.54821 1322.5424 218.32837
-69.223312 1322.5424 218.32837
-63.330441 1330.521 192.38354
-57.551434 1338.2042 167.39941
-51.863602 1345.8875 142.41528
-46.282722 1353.2751 118.39209
-41.140175 1353.2751 118.39209
-35.997726 1353.2751 118.39209
-30.855181 1353.2751 118.39209
-25.712635 1353.2751 118.39209
-20.394754 1360.6628 94.368896
-15.296041 1360.6628 94.368896
-10.197426 1360.6628 94.368896
-5.0987129 1360.6628 94.368896
0 1360.6628 94.368896
5.0986156 1360.6628 94.368896
10.197426 1360.6628 94.368896
15.296041 1360.6628 94.368896
20.394852 1360.6628 94.368896
25.493467 1360.6628 94.368896
30.592083 1360.6628 94.368896
35.997726 1353.2751 118.39209
41.140175 1353.2751 118.39209
46.677322 1345.8875 142.41528
51.863602 1345.8875 142.41528
57.551338 1338.2042 167.39941
63.330441 1330.521 192.38354
68.607895 1330.521 192.38354
73.885544 1330.521 192.38354
79.8731 1322.5424 218.32837
85.197891 1322.5424 218.32837
91.327667 1314.5636 244.27344
97.583481 1306.2894 271.1792
103.93769 1298.0151 298.08496
-180.52318 1292.9797 295.94751
-175.05284 1292.9797 295.94751
-169.58243 1292.9797 295.94751
-164.112 1292.9797 295.94751
-158.64159 1292.9797 295.94751
-153.17117 1292.9797 295.94751
-146.37532 1301.2991 269.06104
-140.95399 1301.2991 269.06104
-135.53267 1301.2991 269.06104
-130.11134 1301.2991 269.06104
-124.69002 1301.2991 269.06104
-119.26879 1301.2991 269.06104
-114.87842 1292.9797 295.94751
-109.408 1292.9797 295.94751
-103.00481 1301.2991 269.06104
-97.583481 1301.2991 269.06104
-92.162254 1301.2991 269.06104
-86.740929 1301.2991 269.06104
-80.583206 1309.6184 242.17432
-74.54821 1317.6409 216.2478
-69.223312 1317.6409 216.2478
-63.330441 1325.6631 190.32129
-57.551434 1333.3882 165.35522
-51.863602 1341.1133 140.38892
-46.282722 1348.5414 116.38281
-41.140175 1348.5414 116.38281
-35.997726 1348.5414 116.38281
-30.855181 1348.5414 116.38281
-25.712635 1348.5414 116.38281
-20.570087 1348.5414 116.38281
-15.427542 1348.5414 116.38281
-10.285093 1348.5414 116.38281
-5.1425467 1348.5414 116.38281
0 1348.5414 116.38281
5.1424484 1348.5414 116.38281
10.197426 1355.9695 92.376709
15.296041 1355.9695 92.376709
20.394852 1355.9695 92.376709
25.493467 1355.9695 92.376709
30.855083 1348.5414 116.38281
35.997726 1348.5414 116.38281
41.140175 1348.5414 116.38281
46.677322 1341.1133 140.38892
51.863602 1341.1133 140.38892
57.551338 1333.3882 165.35522
63.330441 1325.6631 190.32129
69.223312 1317.6409 216.2478
74.548309 1317.6409 216.2478
79.8731 1317.6409 216.2478
85.955338 1309.6184 242.17432
92.162254 1301.2991 269.06104
98.467163 1292.9797 295.94751
103.93769 1292.9797 295.94751
-180.52318 1287.9442 293.81006
-173.48186 1296.3087 266.94287
-168.06053 1296.3087 266.94287
-162.63921 1296.3087 266.94287
-157.21788 1296.3087 266.94287
-151.79655 1296.3087 266.94287
-146.37532 1296.3087 266.94287
-140.95399 1296.3087 266.94287
-134.30534 1304.6733 240.0752
-128.93311 1304.6733 240.0752
-124.69002 1296.3087 266.94287
-119.26879 1296.3087 266.94287
-112.81651 1304.6733 240.0752
-107.44427 1304.6733 240.0752
-102.07204 1304.6733 240.0752
-96.699806 1304.6733 240.0752
-91.327667 1304.6733 240.0752
-85.955437 1304.6733 240.0752
-79.8731 1312.7393 214.16699
-74.54821 1312.7393 214.16699
-69.223312 1312.7393 214.16699
-63.330441 1320.8051 188.25928
-57.551434 1328.5723 163.31079
-52.319469 1328.5723 163.31079
-46.677223 1336.3392 138.36255
-41.490841 1336.3392 138.36255
-35.997726 1343.8076 114.37354
-30.855181 1343.8076 114.37354
-25.931801 1336.3392 138.36255
-20.570087 1343.8076 114.37354
-15.427542 1343.8076 114.37354
-10.285093 1343.8076 114.37354
-5.1425467 1343.8076 114.37354
0 1343.8076 114.37354
5.1424484 1343.8076 114.37354
10.197426 1351.2761 90.384521
15.296041 1351.2761 90.384521
20.394852 1351.2761 90.384521
25.493467 1351.2761 90.384521
30.855083 1343.8076 114.37354
36.304562 1336.3392 138.36255
41.490841 1336.3392 138.36255
46.677322 1336.3392 138.36255
52.319469 1328.5723 163.31079
57.551338 1328.5723 163.31079
63.898525 1312.7393 214.16699
69.223312 1312.7393 214.16699
74.548309 1312.7393 214.16699
79.8731 1312.7393 214.16699
85.955338 1304.6733 240.0752
92.162254 1296.3087 266.94287
98.467163 1287.9442 293.81006
103.93769 1287.9442 293.81006
110.42493 1279.2808 321.63721
115.9461 1279.2808 321.63721
122.58611 1270.6174 349.46436
-180.52318 1282.9087 291.67261
-173.48186 1291.3184 264.82446
-168.06053 1291.3184 264.82446
-162.63921 1291.3184 264.82446
-155.79417 1299.7281 237.97607
-150.42194 1299.7281 237.97607
-145.04982 1299.7281 237.97607
-138.44673 1307.8376 212.08643
-133.12184 1307.8376 212.08643
-127.79694 1307.8376 212.08643
-122.47205 1307.8376 212.08643
-117.14725 1307.8376 212.08643
-111.82236 1307.8376 212.08643
-106.49747 1307.8376 212.08643
-101.17258 1307.8376 212.08643
-95.847679 1307.8376 212.08643
-90.522888 1307.8376 212.08643
-85.197998 1307.8376 212.08643
-79.8731 1307.8376 212.08643
-74.54821 1307.8376 212.08643
-69.223312 1307.8376 212.08643
-63.898525 1307.8376 212.08643
-58.052891 1315.947 186.19702
-52.319469 1323.7562 161.2666
-47.087502 1323.7562 161.2666
-41.490841 1331.5652 136.33594
-36.304562 1331.5652 136.33594
-31.118181 1331.5652 136.33594
-25.931801 1331.5652 136.33594
-20.570087 1339.074 112.36426
-15.427542 1339.074 112.36426
-10.285093 1339.074 112.36426
-5.1425467 1339.074 112.36426
0 1339.074 112.36426
5.1424484 1339.074 112.36426
10.285093 1339.074 112.36426
15.427542 1339.074 112.36426
20.570187 1339.074 112.36426
25.712635 1339.074 112.36426
30.855083 1339.074 112.36426
36.304562 1331.5652 136.33594
41.490841 1331.5652 136.33594
46.677322 1331.5652 136.33594
52.319469 1323.7562 161.2666
57.551338 1323.7562 161.2666
63.898525 1307.8376 212.08643
69.838737 1299.7281 237.97607
75.211067 1299.7281 237.97607
80.583206 1299.7281 237.97607
86.740829 1291.3184 264.82446
92.162254 1291.3184 264.82446
98.467163 1282.9087 291.67261
104.90378 1274.1984 319.47998
110.42493 1274.1984 319.47998
115.9461 1274.1984 319.47998
122.58611 1265.4883 347.28711
128.15811 1265.4883 347.28711
133.73033 1265.4883 347.28711
-180.52318 1277.873 289.53516
-173.48186 1286.328 262.7063
-166.53865 1294.783 235.87695
-159.7462 1302.936 210.00586
-154.42131 1302.936 210.00586
-149.09642 1302.936 210.00586
-143.77162 1302.936 210.00586
-138.44673 1302.936 210.00586
-133.12184 1302.936 210.00586
-127.79694 1302.936 210.00586
-122.47205 1302.936 210.00586
-117.14725 1302.936 210.00586
-111.82236 1302.936 210.00586
-106.49747 1302.936 210.00586
-101.17258 1302.936 210.00586
-95.847679 1302.936 210.00586
-90.522888 1302.936 210.00586
-85.197998 1302.936 210.00586
-79.8731 1302.936 210.00586
-74.54821 1302.936 210.00586
-69.223312 1302.936 210.00586
-63.898525 1302.936 210.00586
-58.052891 1311.0891 184.13501
-52.775333 1311.0891 184.13501
-47.087502 1318.9402 159.22217
-41.855534 1318.9402 159.22217
-36.304562 1326.7911 134.30957
-31.118181 1326.7911 134.30957
-25.931801 1326.7911 134.30957
-20.570087 1334.3403 110.35474
-15.427542 1334.3403 110.35474
-10.285093 1334.3403 110.35474
-5.1425467 1334.3403 110.35474
0 1334.3403 110.35474
5.1424484 1334.3403 110.35474
10.285093 1334.3403 110.35474
15.427542 1334.3403 110.35474
20.570187 1334.3403 110.35474
25.712635 1334.3403 110.35474
30.855083 1334.3403 110.35474
36.304562 1326.7911 134.30957
41.490841 1326.7911 134.30957
47.087601 1318.9402 159.22217
52.319469 1318.9402 159.22217
58.052788 1311.0891 184.13501
63.898525 1302.936 210.00586
69.838737 1294.783 235.87695
75.211067 1294.783 235.87695
80.583206 1294.783 235.87695
86.740829 1286.328 262.7063
92.162254 1286.328 262.7063
98.467163 1277.873 289.53516
104.90378 1269.1161 317.32275
110.42493 1269.1161 317.32275
117.01388 1260.3591 345.10986
122.58611 1260.3591 345.10986
128.15811 1260.3591 345.10986
133.73033 1260.3591 345.10986
-173.48186 1281.3376 260.58789
-166.53865 1289.8379 233.77783
-159.7462 1298.0345 207.92529
-154.42131 1298.0345 207.92529
-149.09642 1298.0345 207.92529
-142.49345 1306.2311 182.073
-137.21588 1306.2311 182.073
-131.93834 1306.2311 182.073
-126.66079 1306.2311 182.073
-122.47205 1298.0345 207.92529
-116.10578 1306.2311 182.073
-110.82822 1306.2311 182.073
-106.49747 1298.0345 207.92529
-101.17258 1298.0345 207.92529
-95.847679 1298.0345 207.92529
-90.522888 1298.0345 207.92529
-85.197998 1298.0345 207.92529
-79.8731 1298.0345 207.92529
-74.54821 1298.0345 207.92529
-69.223312 1298.0345 207.92529
-63.898525 1298.0345 207.92529
-58.052891 1306.2311 182.073
-52.775333 1306.2311 182.073
-47.49778 1306.2311 182.073
-41.855534 1314.1241 157.17798
-36.304562 1322.0171 132.28296
-31.118181 1322.0171 132.28296
-25.931801 1322.0171 132.28296
-20.570087 1329.6066 108.34546
-15.427542 1329.6066 108.34546
-10.285093 1329.6066 108.34546
-5.1425467 1329.6066 108.34546
0 1329.6066 108.34546
5.1424484 1329.6066 108.34546
10.285093 1329.6066 108.34546
15.427542 1329.6066 108.34546
20.570187 1329.6066 108.34546
25.712635 1329.6066 108.34546
30.855083 1329.6066 108.34546
36.304562 1322.0171 132.28296
41.490841 1322.0171 132.28296
47.087601 1314.1241 157.17798
52.319469 1314.1241 157.17798
58.052788 1306.2311 182.073
63.898525 1298.0345 207.92529
69.838737 1289.8379 233.77783
75.898376 1281.3376 260.58789
81.319603 1281.3376 260.58789
86.740829 1281.3376 260.58789
92.996849 1272.8375 287.39771
98.467163 1272.8375 287.39771
104.90378 1264.0337 315.16528
110.42493 1264.0337 315.16528
115.9461 1264.0337 315.16528
121.46747 1264.0337 315.16528
126.98864 1264.0337 315.16528
132.51001 1264.0337 315.16528
138.03117 1264.0337 315.16528
-153.04846 1301.373 180.01074
-147.7709 1301.373 180.01074
-142.49345 1301.373 180.01074
-137.21588 1301.373 180.01074
-131.93834 1301.373 180.01074
-126.66079 1301.373 180.01074
-121.38322 1301.373 180.01074
-116.10578 1301.373 180.01074
-110.82822 1301.373 180.01074
-105.55067 1301.373 180.01074
-100.27312 1301.373 180.01074
-94.99556 1301.373 180.01074
-89.718109 1301.373 180.01074
-84.440552 1301.373 180.01074
-79.163002 1301.373 180.01074
-74.54821 1293.1329 205.84473
-69.223312 1293.1329 205.84473
-63.898525 1293.1329 205.84473
-58.052891 1301.373 180.01074
-52.775333 1301.373 180.01074
-47.49778 1301.373 180.01074
-41.855534 1309.3081 155.13379
-36.623669 1309.3081 155.13379
-31.391701 1309.3081 155.13379
-26.159735 1309.3081 155.13379
-20.74542 1317.243 130.25659
-15.559041 1317.243 130.25659
-10.285093 1324.8728 106.33618
-5.1425467 1324.8728 106.33618
0 1324.8728 106.33618
5.1424484 1324.8728 106.33618
10.285093 1324.8728 106.33618
15.427542 1324.8728 106.33618
20.570187 1324.8728 106.33618
25.712635 1324.8728 106.33618
30.855083 1324.8728 106.33618
36.304562 1317.243 130.25659
41.490841 1317.243 130.25659
47.087601 1309.3081 155.13379
52.319469 1309.3081 155.13379
58.052788 1301.373 180.01074
64.466599 1284.8927 231.67896
70.476952 1276.3474 258.46973
75.898376 1276.3474 258.46973
81.319603 1276.3474 258.46973
86.740829 1276.3474 258.46973
92.996849 1267.802 285.26025
98.467163 1267.802 285.26025
103.93769 1267.802 285.26025
110.42493 1258.9514 313.00806
115.9461 1258.9514 313.00806
121.46747 1258.9514 313.00806
126.98864 1258.9514 313.00806
132.51001 1258.9514 313.00806
138.03117 1258.9514 313.00806
143.55234 1258.9514 313.00806
-153.04846 1296.515 177.94873
-147.7709 1296.515 177.94873
-142.49345 1296.515 177.94873
-137.21588 1296.515 177.94873
-131.93834 1296.515 177.94873
-126.66079 1296.515 177.94873
-121.38322 1296.515 177.94873
-116.10578 1296.515 177.94873
-110.82822 1296.515 177.94873
-105.55067 1296.515 177.94873
-100.27312 1296.515 177.94873
-94.99556 1296.515 177.94873
-89.718109 1296.515 177.94873
-84.440552 1296.515 177.94873
-79.163002 1296.515 177.94873
-73.885452 1296.515 177.94873
-69.223312 1288.2313 203.76416
-63.898525 1288.2313 203.76416
-58.573627 1288.2313 203.76416
-52.775333 1296.515 177.94873
-47.49778 1296.515 177.94873
-42.22023 1296.515 177.94873
-36.623669 1304.4919 153.08936
-31.391701 1304.4919 153.08936
-26.159735 1304.4919 153.08936
-20.74542 1312.4689 128.22998
-15.559041 1312.4689 128.22998
-10.37276 1312.4689 128.22998
-5.1863799 1312.4689 128.22998
0 1312.4689 128.22998
5.1862807 1312.4689 128.22998
10.37276 1312.4689 128.22998
15.559041 1312.4689 128.22998
20.74552 1312.4689 128.22998
25.931801 1312.4689 128.22998
31.118082 1312.4689 128.22998
36.623669 1304.4919 153.08936
41.855534 1304.4919 153.08936
47.087601 1304.4919 153.08936
52.775333 1296.515 177.94873
58.052788 1296.515 177.94873
64.466599 1279.9475 229.57959
70.476952 1271.3569 256.35132
75.898376 1271.3569 256.35132
81.319603 1271.3569 256.35132
87.526314 1262.7665 283.1228
92.996849 1262.7665 283.1228
98.467163 1262.7665 283.1228
103.93769 1262.7665 283.1228
110.42493 1253.869 310.85059
115.9461 1253.869 310.85059
121.46747 1253.869 310.85059
126.98864 1253.869 310.85059
132.51001 1253.869 310.85059
138.03117 1253.869 310.85059
142.23032 1262.7665 283.1228
147.70084 1262.7665 283.1228
153.17117 1262.7665 283.1228
158.64169 1262.7665 283.1228
-153.04846 1291.657 175.88672
-147.7709 1291.657 175.88672
-142.49345 1291.657 175.88672
-137.21588 1291.657 175.88672
-131.93834 1291.657 175.88672
-126.66079 1291.657 175.88672
-121.38322 1291.657 175.88672
-116.10578 1291.657 175.88672
-110.82822 1291.657 175.88672
-105.55067 1291.657 175.88672
-100.27312 1291.657 175.88672
-94.99556 1291.657 175.88672
-89.718109 1291.657 175.88672
-84.440552 1291.657 175.88672
-79.163002 1291.657 175.88672
-73.885452 1291.657 175.88672
-68.607895 1291.657 175.88672
-63.898525 1283.3297 201.68359
-58.573627 1283.3297 201.68359
-53.248734 1283.3297 201.68359
-47.92384 1283.3297 201.68359
-42.22023 1291.657 175.88672
-36.942772 1291.657 175.88672
-31.66522 1291.657 175.88672
-26.159735 1299.676 151.04517
-20.927767 1299.676 151.04517
-15.559041 1307.6948 126.20361
-10.37276 1307.6948 126.20361
-5.1863799 1307.6948 126.20361
0 1307.6948 126.20361
5.1862807 1307.6948 126.20361
10.37276 1307.6948 126.20361
15.559041 1307.6948 126.20361
20.74552 1307.6948 126.20361
25.931801 1307.6948 126.20361
31.118082 1307.6948 126.20361
36.623669 1299.676 151.04517
41.855534 1299.676 151.04517
47.497883 1291.657 175.88672
53.248734 1283.3297 201.68359
58.573528 1283.3297 201.68359
64.466599 1275.0023 227.48071
70.476952 1266.3667 254.23315
75.898376 1266.3667 254.23315
81.319603 1266.3667 254.23315
87.526314 1257.731 280.98535
92.996849 1257.731 280.98535
98.467163 1257.731 280.98535
103.93769 1257.731 280.98535
110.42493 1248.7866 308.69336
114.87832 1257.731 280.98535
120.34885 1257.731 280.98535
126.98864 1248.7866 308.69336
131.28969 1257.731 280.98535
136.76001 1257.731 280.98535
142.23032 1257.731 280.98535
147.70084 1257.731 280.98535
153.17117 1257.731 280.98535
158.64169 1257.731 280.98535
164.112 1257.731 280.98535
-153.04846 1286.7991 173.82446
-146.49446 1294.86 149.00073
-141.2626 1294.86 149.00073
-137.21588 1286.7991 173.82446
-131.93834 1286.7991 173.82446
-126.66079 1286.7991 173.82446
-122.47205 1278.4282 199.60303
-116.10578 1286.7991 173.82446
-110.82822 1286.7991 173.82446
-105.55067 1286.7991 173.82446
-100.27312 1286.7991 173.82446
-94.99556 1286.7991 173.82446
-89.718109 1286.7991 173.82446
-84.440552 1286.7991 173.82446
-79.163002 1286.7991 173.82446
-73.885452 1286.7991 173.82446
-68.607895 1286.7991 173.82446
-63.330441 1286.7991 173.82446
-58.573627 1278.4282 199.60303
-53.248734 1278.4282 199.60303
-47.92384 1278.4282 199.60303
-42.598946 1278.4282 199.60303
-36.942772 1286.7991 173.82446
-31.66522 1286.7991 173.82446
-26.159735 1294.86 149.00073
-20.927767 1294.86 149.00073
-15.559041 1302.9207 124.177
-10.37276 1302.9207 124.177
-5.1863799 1302.9207 124.177
0 1302.9207 124.177
5.1862807 1302.9207 124.177
10.37276 1302.9207 124.177
15.559041 1302.9207 124.177
20.74552 1302.9207 124.177
25.931801 1302.9207 124.177
31.118082 1302.9207 124.177
36.623669 1294.86 149.00073
42.22023 1286.7991 173.82446
47.497883 1286.7991 173.82446
53.248734 1278.4282 199.60303
59.094265 1270.0571 225.38159
64.466599 1270.0571 225.38159
70.476952 1261.3763 252.11475
75.898376 1261.3763 252.11475
81.319603 1261.3763 252.11475
86.740829 1261.3763 252.11475
92.996849 1252.6954 278.8479
98.467163 1252.6954 278.8479
103.93769 1252.6954 278.8479
109.408 1252.6954 278.8479
114.87832 1252.6954 278.8479
120.34885 1252.6954 278.8479
125.81916 1252.6954 278.8479
131.28969 1252.6954 278.8479
136.76001 1252.6954 278.8479
142.23032 1252.6954 278.8479
147.70084 1252.6954 278.8479
153.17117 1252.6954 278.8479
158.64169 1252.6954 278.8479
164.112 1252.6954 278.8479
-146.49446 1290.0439 146.95654
-141.2626 1290.0439 146.95654
-137.21588 1281.941 171.76245
-131.93834 1281.941 171.76245
-126.66079 1281.941 171.76245
-122.47205 1273.5266 197.52246
-116.10578 1281.941 171.76245
-110.82822 1281.941 171.76245
-105.55067 1281.941 171.76245
-100.27312 1281.941 171.76245
-94.99556 1281.941 171.76245
-89.718109 1281.941 171.76245
-84.440552 1281.941 171.76245
-79.163002 1281.941 171.76245
-73.885452 1281.941 171.76245
-68.607895 1281.941 171.76245
-63.330441 1281.941 171.76245
-58.573627 1273.5266 197.52246
-53.248734 1273.5266 197.52246
-47.92384 1273.5266 197.52246
-42.598946 1273.5266 197.52246
-36.942772 1281.941 171.76245
-31.66522 1281.941 171.76245
-26.159735 1290.0439 146.95654
-20.927767 1290.0439 146.95654
-15.695801 1290.0439 146.95654
-10.37276 1298.1467 122.15063
-5.1863799 1298.1467 122.15063
0 1298.1467 122.15063
5.1862807 1298.1467 122.15063
10.37276 1298.1467 122.15063
15.559041 1298.1467 122.15063
20.74552 1298.1467 122.15063
25.931801 1298.1467 122.15063
31.391602 1290.0439 146.95654
36.623669 1290.0439 146.95654
42.22023 1281.941 171.76245
47.923943 1273.5266 197.52246
53.722134 1265.1121 223.28247
59.634293 1256.386 249.99658
65.055725 1256.386 249.99658
70.476952 1256.386 249.99658
75.898376 1256.386 249.99658
81.319603 1256.386 249.99658
86.740829 1256.386 249.99658
92.996849 1247.6599 276.71045
98.467163 1247.6599 276.71045
103.93769 1247.6599 276.71045
109.408 1247.6599 276.71045
114.87832 1247.6599 276.71045
120.34885 1247.6599 276.71045
125.81916 1247.6599 276.71045
131.28969 1247.6599 276.71045
136.76001 1247.6599 276.71045
142.23032 1247.6599 276.71045
147.70084 1247.6599 276.71045
153.17117 1247.6599 276.71045
158.64169 1247.6599 276.71045
165.63741 1238.6221 304.37866
171.15857 1238.6221 304.37866
176.67995 1238.6221 304.37866
-153.04846 1277.083 169.70044
-147.7709 1277.083 169.70044
-142.49345 1277.083 169.70044
-137.21588 1277.083 169.70044
-133.12184 1268.625 195.44165
-127.79694 1268.625 195.44165
-122.47205 1268.625 195.44165
-117.14725 1268.625 195.44165
-111.82236 1268.625 195.44165
-105.55067 1277.083 169.70044
-100.27312 1277.083 169.70044
-94.99556 1277.083 169.70044
-89.718109 1277.083 169.70044
-84.440552 1277.083 169.70044
-79.163002 1277.083 169.70044
-73.885452 1277.083 169.70044
-68.607895 1277.083 169.70044
-63.330441 1277.083 169.70044
-58.573627 1268.625 195.44165
-53.248734 1268.625 195.44165
-47.92384 1268.625 195.44165
-42.598946 1268.625 195.44165
-36.942772 1277.083 169.70044
-31.66522 1277.083 169.70044
-26.159735 1285.2279 144.91235
-20.927767 1285.2279 144.91235
-15.695801 1285.2279 144.91235
-10.37276 1293.3726 120.12427
-5.1863799 1293.3726 120.12427
0 1293.3726 120.12427
5.1862807 1293.3726 120.12427
10.37276 1293.3726 120.12427
15.559041 1293.3726 120.12427
20.74552 1293.3726 120.12427
25.931801 1293.3726 120.12427
31.391602 1285.2279 144.91235
36.623669 1285.2279 144.91235
43.370415 1251.3956 247.87817
48.791843 1251.3956 247.87817
54.21307 1251.3956 247.87817
59.634293 1251.3956 247.87817
65.055725 1251.3956 247.87817
70.476952 1251.3956 247.87817
75.898376 1251.3956 247.87817
81.319603 1251.3956 247.87817
87.526314 1242.6243 274.573
92.996849 1242.6243 274.573
97.583481 1251.3956 247.87817
103.00491 1251.3956 247.87817
108.42614 1251.3956 247.87817
114.87832 1242.6243 274.573
120.34885 1242.6243 274.573
125.81916 1242.6243 274.573
131.28969 1242.6243 274.573
136.76001 1242.6243 274.573
142.23032 1242.6243 274.573
147.70084 1242.6243 274.573
153.17117 1242.6243 274.573
158.64169 1242.6243 274.573
165.63741 1233.5397 302.22144
171.15857 1233.5397 302.22144
176.67995 1233.5397 302.22144
182.2011 1233.5397 302.22144
-163.60356 1272.2251 167.63818
-158.326 1272.2251 167.63818
-153.04846 1272.2251 167.63818
-147.7709 1272.2251 167.63818
-142.49345 1272.2251 167.63818
-137.21588 1272.2251 167.63818
-133.12184 1263.7234 193.36108
-127.79694 1263.7234 193.36108
-122.47205 1263.7234 193.36108
-117.14725 1263.7234 193.36108
-111.82236 1263.7234 193.36108
-106.49747 1263.7234 193.36108
-100.27312 1272.2251 167.63818
-94.99556 1272.2251 167.63818
-89.718109 1272.2251 167.63818
-84.440552 1272.2251 167.63818
-79.163002 1272.2251 167.63818
-73.885452 1272.2251 167.63818
-68.607895 1272.2251 167.63818
-63.898525 1263.7234 193.36108
-58.573627 1263.7234 193.36108
-53.248734 1263.7234 193.36108
-47.92384 1263.7234 193.36108
-42.598946 1263.7234 193.36108
-37.274155 1263.7234 193.36108
-31.66522 1272.2251 167.63818
-26.159735 1280.4119 142.86792
-20.927767 1280.4119 142.86792
-15.695801 1280.4119 142.86792
-10.463933 1280.4119 142.86792
-5.2319665 1280.4119 142.86792
0 1280.4119 142.86792
5.2318668 1280.4119 142.86792
10.463933 1280.4119 142.86792
15.695801 1280.4119 142.86792
20.927866 1280.4119 142.86792
26.159735 1280.4119 142.86792
31.391602 1280.4119 142.86792
36.942772 1272.2251 167.63818
42.977669 1255.2218 219.08423
48.350006 1255.2218 219.08423
54.21307 1246.4053 245.76001
59.634293 1246.4053 245.76001
65.055725 1246.4053 245.76001
70.476952 1246.4053 245.76001
75.898376 1246.4053 245.76001
81.319603 1246.4053 245.76001
87.526314 1237.5889 272.43555
92.996849 1237.5889 272.43555
97.583481 1246.4053 245.76001
103.00491 1246.4053 245.76001
108.42614 1246.4053 245.76001
114.87832 1237.5889 272.43555
120.34885 1237.5889 272.43555
125.81916 1237.5889 272.43555
131.28969 1237.5889 272.43555
136.76001 1237.5889 272.43555
142.23032 1237.5889 272.43555
147.70084 1237.5889 272.43555
153.17117 1237.5889 272.43555
158.64169 1237.5889 272.43555
165.63741 1228.4574 300.06421
171.15857 1228.4574 300.06421
176.67995 1228.4574 300.06421
182.2011 1228.4574 300.06421
187.72247 1228.4574 300.06421
-174.15857 1267.3671 165.57617
-167.42235 1275.5958 140.82373
-162.19038 1275.5958 140.82373
-158.326 1267.3671 165.57617
-153.04846 1267.3671 165.57617
-147.7709 1267.3671 165.57617
-142.49345 1267.3671 165.57617
-137.21588 1267.3671 165.57617
-133.12184 1258.8219 191.28052
-127.79694 1258.8219 191.28052
-122.47205 1258.8219 191.28052
-117.14725 1258.8219 191.28052
-111.82236 1258.8219 191.28052
-106.49747 1258.8219 191.28052
-100.27312 1267.3671 165.57617
-94.99556 1267.3671 165.57617
-90.522888 1258.8219 191.28052
-85.197998 1258.8219 191.28052
-79.8731 1258.8219 191.28052
-73.885452 1267.3671 165.57617
-68.607895 1267.3671 165.57617
-63.898525 1258.8219 191.28052
-58.573627 1258.8219 191.28052
-53.248734 1258.8219 191.28052
-47.92384 1258.8219 191.28052
-42.598946 1258.8219 191.28052
-37.274155 1258.8219 191.28052
-31.949263 1258.8219 191.28052
-26.387667 1267.3671 165.57617
-21.110115 1267.3671 165.57617
-15.695801 1275.5958 140.82373
-10.463933 1275.5958 140.82373
-5.2319665 1275.5958 140.82373
0 1275.5958 140.82373
5.2318668 1275.5958 140.82373
10.463933 1275.5958 140.82373
15.695801 1275.5958 140.82373
20.927866 1275.5958 140.82373
26.387667 1267.3671 165.57617
31.665119 1267.3671 165.57617
37.605534 1250.2766 216.98511
42.977669 1250.2766 216.98511
48.350006 1250.2766 216.98511
54.21307 1241.415 243.64185
59.634293 1241.415 243.64185
65.055725 1241.415 243.64185
70.476952 1241.415 243.64185
75.898376 1241.415 243.64185
81.319603 1241.415 243.64185
86.740829 1241.415 243.64185
92.996849 1232.5533 270.2981
97.583481 1241.415 243.64185
103.00491 1241.415 243.64185
108.42614 1241.415 243.64185
114.87832 1232.5533 270.2981
120.34885 1232.5533 270.2981
125.81916 1232.5533 270.2981
131.28969 1232.5533 270.2981
136.76001 1232.5533 270.2981
142.23032 1232.5533 270.2981
147.70084 1232.5533 270.2981
153.17117 1232.5533 270.2981
158.64169 1232.5533 270.2981
165.63741 1223.375 297.90674
171.15857 1223.375 297.90674
176.67995 1223.375 297.90674
182.2011 1223.375 297.90674
187.72247 1223.375 297.90674
195.02327 1214.1968 325.51514
200.59528 1214.1968 325.51514
-184.71367 1262.509 163.51416
-179.43613 1262.509 163.51416
-174.15857 1262.509 163.51416
-167.42235 1270.7798 138.7793
-162.19038 1270.7798 138.7793
-158.326 1262.509 163.51416
-153.04846 1262.509 163.51416
-147.7709 1262.509 163.51416
-142.49345 1262.509 163.51416
-138.44673 1253.9204 189.19995
-133.12184 1253.9204 189.19995
-127.79694 1253.9204 189.19995
-122.47205 1253.9204 189.19995
-117.14725 1253.9204 189.19995
-111.82236 1253.9204 189.19995
-106.49747 1253.9204 189.19995
-101.17258 1253.9204 189.19995
-95.847679 1253.9204 189.19995
-90.522888 1253.9204 189.19995
-85.197998 1253.9204 189.19995
-79.8731 1253.9204 189.19995
-74.54821 1253.9204 189.19995
-69.223312 1253.9204 189.19995
-63.898525 1253.9204 189.19995
-58.573627 1253.9204 189.19995
-53.248734 1253.9204 189.19995
-47.49778 1262.509 163.51416
-42.22023 1262.509 163.51416
-37.274155 1253.9204 189.19995
-31.949263 1253.9204 189.19995
-26.387667 1262.509 163.51416
-21.110115 1262.509 163.51416
-15.695801 1270.7798 138.7793
-10.463933 1270.7798 138.7793
-5.277554 1262.509 163.51416
0 1262.509 163.51416
5.2774534 1262.509 163.51416
10.555108 1262.509 163.51416
15.83256 1262.509 163.51416
21.110216 1262.509 163.51416
26.387667 1262.509 163.51416
32.233196 1245.3315 214.88599
37.605534 1245.3315 214.88599
42.977669 1245.3315 214.88599
48.350006 1245.3315 214.88599
53.722134 1245.3315 214.88599
59.634293 1236.4246 241.52344
65.055725 1236.4246 241.52344
70.476952 1236.4246 241.52344
75.898376 1236.4246 241.52344
81.319603 1236.4246 241.52344
86.740829 1236.4246 241.52344
92.996849 1227.5178 268.16064
97.583481 1236.4246 241.52344
103.00491 1236.4246 241.52344
108.42614 1236.4246 241.52344
114.87832 1227.5178 268.16064
120.34885 1227.5178 268.16064
125.81916 1227.5178 268.16064
131.28969 1227.5178 268.16064
136.76001 1227.5178 268.16064
142.23032 1227.5178 268.16064
147.70084 1227.5178 268.16064
154.59486 1218.2927 295.74951
160.11624 1218.2927 295.74951
165.63741 1218.2927 295.74951
171.15857 1218.2927 295.74951
176.67995 1218.2927 295.74951
182.2011 1218.2927 295.74951
189.45126 1209.0677 323.33813
195.02327 1209.0677 323.33813
200.59528 1209.0677 323.33813
-189.99123 1257.6511 161.4519
-184.71367 1257.6511 161.4519
-179.43613 1257.6511 161.4519
-174.15857 1257.6511 161.4519
-168.8811 1257.6511 161.4519
-163.60356 1257.6511 161.4519
-158.326 1257.6511 161.4519
-153.04846 1257.6511 161.4519
-147.7709 1257.6511 161.4519
-142.49345 1257.6511 161.4519
-137.21588 1257.6511 161.4519
-131.93834 1257.6511 161.4519
-127.79694 1249.0188 187.11938
-121.38322 1257.6511 161.4519
-116.10578 1257.6511 161.4519
-111.82236 1249.0188 187.11938
-106.49747 1249.0188 187.11938
-101.17258 1249.0188 187.11938
-95.847679 1249.0188 187.11938
-90.522888 1249.0188 187.11938
-85.197998 1249.0188 187.11938
-79.8731 1249.0188 187.11938
-74.54821 1249.0188 187.11938
-69.223312 1249.0188 187.11938
-63.898525 1249.0188 187.11938
-58.573627 1249.0188 187.11938
-53.248734 1249.0188 187.11938
-47.49778 1257.6511 161.4519
-42.22023 1257.6511 161.4519
-36.942772 1257.6511 161.4519
-31.949263 1249.0188 187.11938
-26.387667 1257.6511 161.4519
-21.110115 1257.6511 161.4519
-15.83256 1257.6511 161.4519
-10.555108 1257.6511 161.4519
-5.277554 1257.6511 161.4519
0 1257.6511 161.4519
5.2774534 1257.6511 161.4519
10.555108 1257.6511 161.4519
15.97458 1249.0188 187.11938
21.299576 1249.0188 187.11938
26.861067 1240.3864 212.78711
32.233196 1240.3864 212.78711
37.605534 1240.3864 212.78711
42.977669 1240.3864 212.78711
48.350006 1240.3864 212.78711
53.722134 1240.3864 212.78711
59.634293 1231.4343 239.40527
65.055725 1231.4343 239.40527
70.476952 1231.4343 239.40527
75.898376 1231.4343 239.40527
81.319603 1231.4343 239.40527
86.740829 1231.4343 239.40527
92.996849 1222.4822 266.02319
97.583481 1231.4343 239.40527
103.00491 1231.4343 239.40527
108.42614 1231.4343 239.40527
114.87832 1222.4822 266.02319
120.34885 1222.4822 266.02319
125.81916 1222.4822 266.02319
131.28969 1222.4822 266.02319
136.76001 1222.4822 266.02319
142.23032 1222.4822 266.02319
147.70084 1222.4822 266.02319
154.59486 1213.2103 293.59204
160.11624 1213.2103 293.59204
165.63741 1213.2103 293.59204
171.15857 1213.2103 293.59204
178.30704 1203.9386 321.16089
183.87904 1203.9386 321.16089
189.45126 1203.9386 321.16089
196.86427 1194.347 349.68042
202.48888 1194.347 349.68042
-195.26877 1252.7931 159.38989
-189.99123 1252.7931 159.38989
-184.71367 1252.7931 159.38989
-179.43613 1252.7931 159.38989
-174.15857 1252.7931 159.38989
-168.8811 1252.7931 159.38989
-163.60356 1252.7931 159.38989
-158.326 1252.7931 159.38989
-153.04846 1252.7931 159.38989
-147.7709 1252.7931 159.38989
-142.49345 1252.7931 159.38989
-137.21588 1252.7931 159.38989
-131.93834 1252.7931 159.38989
-126.66079 1252.7931 159.38989
-121.38322 1252.7931 159.38989
-116.10578 1252.7931 159.38989
-110.82822 1252.7931 159.38989
-105.55067 1252.7931 159.38989
-101.17258 1244.1172 185.03882
-95.847679 1244.1172 185.03882
-90.522888 1244.1172 185.03882
-85.197998 1244.1172 185.03882
-79.8731 1244.1172 185.03882
-74.54821 1244.1172 185.03882
-69.223312 1244.1172 185.03882
-63.898525 1244.1172 185.03882
-58.573627 1244.1172 185.03882
-53.248734 1244.1172 185.03882
-47.49778 1252.7931 159.38989
-42.22023 1252.7931 159.38989
-36.942772 1252.7931 159.38989
-31.949263 1244.1172 185.03882
-26.387667 1252.7931 159.38989
-21.110115 1252.7931 159.38989
-15.83256 1252.7931 159.38989
-10.555108 1252.7931 159.38989
-5.277554 1252.7931 159.38989
0 1252.7931 159.38989
5.2774534 1252.7931 159.38989
10.649788 1244.1172 185.03882
15.97458 1244.1172 185.03882
21.488937 1235.4412 210.68799
26.861067 1235.4412 210.68799
32.233196 1235.4412 210.68799
37.605534 1235.4412 210.68799
42.977669 1235.4412 210.68799
48.350006 1235.4412 210.68799
53.722134 1235.4412 210.68799
59.634293 1226.444 237.28687
65.055725 1226.444 237.28687
70.476952 1226.444 237.28687
75.898376 1226.444 237.28687
81.319603 1226.444 237.28687
86.740829 1226.444 237.28687
92.162254 1226.444 237.28687
97.583481 1226.444 237.28687
103.00491 1226.444 237.28687
108.42614 1226.444 237.28687
114.87832 1217.4468 263.88574
120.34885 1217.4468 263.88574
125.81916 1217.4468 263.88574
131.28969 1217.4468 263.88574
136.76001 1217.4468 263.88574
142.23032 1217.4468 263.88574
147.70084 1217.4468 263.88574
154.59486 1208.1281 291.43481
160.11624 1208.1281 291.43481
165.63741 1208.1281 291.43481
171.15857 1208.1281 291.43481
176.67995 1208.1281 291.43481
182.2011 1208.1281 291.43481
187.72247 1208.1281 291.43481
195.02327 1198.8094 318.98364
202.48888 1189.1696 347.48267
-195.26877 1247.9351 157.32788
-189.99123 1247.9351 157.32788
-184.71367 1247.9351 157.32788
-179.43613 1247.9351 157.32788
-174.15857 1247.9351 157.32788
-168.8811 1247.9351 157.32788
-163.60356 1247.9351 157.32788
-158.326 1247.9351 157.32788
-153.04846 1247.9351 157.32788
-147.7709 1247.9351 157.32788
-142.49345 1247.9351 157.32788
-137.21588 1247.9351 157.32788
-131.93834 1247.9351 157.32788
-126.66079 1247.9351 157.32788
-121.38322 1247.9351 157.32788
-116.10578 1247.9351 157.32788
-110.82822 1247.9351 157.32788
-105.55067 1247.9351 157.32788
-100.27312 1247.9351 157.32788
-94.99556 1247.9351 157.32788
-90.522888 1239.2156 182.95825
-85.197998 1239.2156 182.95825
-79.8731 1239.2156 182.95825
-74.54821 1239.2156 182.95825
-69.223312 1239.2156 182.95825
-63.898525 1239.2156 182.95825
-58.573627 1239.2156 182.95825
-53.248734 1239.2156 182.95825
-47.49778 1247.9351 157.32788
-42.22023 1247.9351 157.32788
-36.942772 1247.9351 157.32788
-31.949263 1239.2156 182.95825
-26.387667 1247.9351 157.32788
-21.110115 1247.9351 157.32788
-15.83256 1247.9351 157.32788
-10.555108 1247.9351 157.32788
-5.277554 1247.9351 157.32788
0 1239.2156 182.95825
5.3247924 1239.2156 182.95825
10.649788 1239.2156 182.95825
15.97458 1239.2156 182.95825
21.488937 1230.4961 208.58887
26.861067 1230.4961 208.58887
32.233196 1230.4961 208.58887
37.605534 1230.4961 208.58887
42.977669 1230.4961 208.58887
48.350006 1230.4961 208.58887
53.722134 1230.4961 208.58887
59.634293 1221.4536 235.1687
65.055725 1221.4536 235.1687
70.476952 1221.4536 235.1687
75.898376 1221.4536 235.1687
81.319603 1221.4536 235.1687
86.740829 1221.4536 235.1687
92.162254 1221.4536 235.1687
97.583481 1221.4536 235.1687
103.00491 1221.4536 235.1687
108.42614 1221.4536 235.1687
114.87832 1212.4113 261.74829
120.34885 1212.4113 261.74829
125.81916 1212.4113 261.74829
131.28969 1212.4113 261.74829
136.76001 1212.4113 261.74829
142.23032 1212.4113 261.74829
147.70084 1212.4113 261.74829
154.59486 1203.0457 289.27759
160.11624 1203.0457 289.27759
165.63741 1203.0457 289.27759
171.15857 1203.0457 289.27759
176.67995 1203.0457 289.27759
182.2011 1203.0457 289.27759
187.72247 1203.0457 289.27759
193.24364 1203.0457 289.27759
198.7648 1203.0457 289.27759
-205.82379 1243.0771 155.26562
-200.54623 1243.0771 155.26562
-195.26877 1243.0771 155.26562
-189.99123 1243.0771 155.26562
-184.71367 1243.0771 155.26562
-179.43613 1243.0771 155.26562
-174.15857 1243.0771 155.26562
-168.8811 1243.0771 155.26562
-163.60356 1243.0771 155.26562
-158.326 1243.0771 155.26562
-153.04846 1243.0771 155.26562
-147.7709 1243.0771 155.26562
-142.49345 1243.0771 155.26562
-137.21588 1243.0771 155.26562
-131.93834 1243.0771 155.26562
-126.66079 1243.0771 155.26562
-121.38322 1243.0771 155.26562
-116.10578 1243.0771 155.26562
-110.82822 1243.0771 155.26562
-105.55067 1243.0771 155.26562
-100.27312 1243.0771 155.26562
-94.99556 1243.0771 155.26562
-90.522888 1234.3141 180.87769
-85.197998 1234.3141 180.87769
-79.8731 1234.3141 180.87769
-74.54821 1234.3141 180.87769
-69.223312 1234.3141 180.87769
-63.898525 1234.3141 180.87769
-58.573627 1234.3141 180.87769
-53.248734 1234.3141 180.87769
-47.92384 1234.3141 180.87769
-42.598946 1234.3141 180.87769
-37.274155 1234.3141 180.87769
-31.949263 1234.3141 180.87769
-26.387667 1243.0771 155.26562
-21.110115 1243.0771 155.26562
-15.83256 1243.0771 155.26562
-10.555108 1243.0771 155.26562
-5.324894 1234.3141 180.87769
0 1234.3141 180.87769
5.3247924 1234.3141 180.87769
10.649788 1234.3141 180.87769
15.97458 1234.3141 180.87769
21.488937 1225.5509 206.48975
26.861067 1225.5509 206.48975
32.233196 1225.5509 206.48975
37.605534 1225.5509 206.48975
42.977669 1225.5509 206.48975
48.350006 1225.5509 206.48975
54.21307 1216.4634 233.05029
59.634293 1216.4634 233.05029
65.055725 1216.4634 233.05029
70.476952 1216.4634 233.05029
75.898376 1216.4634 233.05029
81.319603 1216.4634 233.05029
86.740829 1216.4634 233.05029
92.162254 1216.4634 233.05029
97.583481 1216.4634 233.05029
103.00491 1216.4634 233.05029
108.42614 1216.4634 233.05029
113.84736 1216.4634 233.05029
120.34885 1207.3757 259.61084
125.81916 1207.3757 259.61084
131.28969 1207.3757 259.61084
136.76001 1207.3757 259.61084
142.23032 1207.3757 259.61084
147.70084 1207.3757 259.61084
154.59486 1197.9634 287.12012
160.11624 1197.9634 287.12012
165.63741 1197.9634 287.12012
171.15857 1197.9634 287.12012
176.67995 1197.9634 287.12012
182.2011 1197.9634 287.12012
187.72247 1197.9634 287.12012
193.24364 1197.9634 287.12012
200.59528 1188.5511 314.62939
206.16751 1188.5511 314.62939
-205.82379 1238.2191 153.20361
-200.54623 1238.2191 153.20361
-195.26877 1238.2191 153.20361
