ply
format ascii 1.0
comment PCL generated
element vertex 1553
property float x
property float y
property float z
element camera 0
property float view_px
property float view_py
property float view_pz
property float x_axisx
property float x_axisy
property float x_axisz
property float y_axisx
property float y_axisy
property float y_axisz
property float z_axisx
property float z_axisy
property float z_axisz
property float focal
property float scalex
property float scaley
property float centerx
property float centery
property int viewportx
property int viewporty
property float k1
property float k2
end_header
-96.699806 696.42004 -18.113037
-91.327667 696.42004 -18.113037
-85.955437 696.42004 -18.113037
-79.8731 709.84595 -41.74585
-74.54821 709.84595 -41.74585
-69.838737 696.42004 -18.113037
-64.466599 696.42004 -18.113037
-59.094368 696.42004 -18.113037
-53.722134 696.42004 -18.113037
-48.349903 696.42004 -18.113037
-42.977669 696.42004 -18.113037
-37.605534 696.42004 -18.113037
-32.233299 696.42004 -18.113037
-26.861067 696.42004 -18.113037
-21.488834 696.42004 -18.113037
-16.116598 696.42004 -18.113037
-10.744469 696.42004 -18.113037
-5.3722343 696.42004 -18.113037
0 696.42004 -18.113037
5.3721313 696.42004 -18.113037
10.744469 696.42004 -18.113037
16.26388 682.49707 6.3950195
21.68531 682.49707 6.3950195
26.861067 696.42004 -18.113037
32.233196 696.42004 -18.113037
37.949188 682.49707 6.3950195
42.977669 696.42004 -18.113037
48.350006 696.42004 -18.113037
53.722134 696.42004 -18.113037
59.094265 696.42004 -18.113037
64.466599 696.42004 -18.113037
69.838737 696.42004 -18.113037
75.211067 696.42004 -18.113037
80.583206 696.42004 -18.113037
85.955338 696.42004 -18.113037
91.327667 696.42004 -18.113037
96.699806 696.42004 -18.113037
102.07214 696.42004 -18.113037
107.44427 696.42004 -18.113037
112.81641 696.42004 -18.113037
118.18874 696.42004 -18.113037
123.56087 696.42004 -18.113037
130.11145 682.49707 6.3950195
135.53267 682.49707 6.3950195
140.9539 682.49707 6.3950195
146.37532 682.49707 6.3950195
151.79655 682.49707 6.3950195
157.21799 682.49707 6.3950195
162.63921 682.49707 6.3950195
168.06042 682.49707 6.3950195
173.48186 682.49707 6.3950195
178.90309 682.49707 6.3950195
184.32451 682.49707 6.3950195
189.74574 682.49707 6.3950195
196.93433 668.57397 30.903076
202.40485 668.57397 30.903076
207.87517 668.57397 30.903076
213.34569 668.57397 30.903076
218.81601 668.57397 30.903076
-150.42194 691.47485 -20.212158
-145.04982 691.47485 -20.212158
-139.67758 691.47485 -20.212158
-135.53267 677.50659 4.2768555
-131.28958 663.53833 28.765625
-125.81916 663.53833 28.765625
-119.26879 677.50659 4.2768555
-113.84747 677.50659 4.2768555
-108.42614 677.50659 4.2768555
-102.07204 691.47485 -20.212158
-96.699806 691.47485 -20.212158
-91.327667 691.47485 -20.212158
-85.955437 691.47485 -20.212158
-79.8731 704.94421 -43.82666
-74.54821 704.94421 -43.82666
-69.838737 691.47485 -20.212158
-64.466599 691.47485 -20.212158
-59.094368 691.47485 -20.212158
-53.722134 691.47485 -20.212158
-48.349903 691.47485 -20.212158
-43.370415 677.50659 4.2768555
-37.949188 677.50659 4.2768555
-32.527863 677.50659 4.2768555
-27.106535 677.50659 4.2768555
-21.685207 677.50659 4.2768555
-16.116598 691.47485 -20.212158
-10.744469 691.47485 -20.212158
-5.4213276 677.50659 4.2768555
0 677.50659 4.2768555
5.4212241 677.50659 4.2768555
10.842655 677.50659 4.2768555
16.26388 677.50659 4.2768555
21.68531 677.50659 4.2768555
27.106535 677.50659 4.2768555
32.52776 677.50659 4.2768555
38.292843 663.53833 28.765625
43.370415 677.50659 4.2768555
48.791843 677.50659 4.2768555
54.21307 677.50659 4.2768555
59.634293 677.50659 4.2768555
65.055725 677.50659 4.2768555
70.476952 677.50659 4.2768555
75.898376 677.50659 4.2768555
80.583206 691.47485 -20.212158
85.955338 691.47485 -20.212158
91.327667 691.47485 -20.212158
96.699806 691.47485 -20.212158
102.07214 691.47485 -20.212158
107.44427 691.47485 -20.212158
112.81641 691.47485 -20.212158
118.18874 691.47485 -20.212158
124.69002 677.50659 4.2768555
130.11145 677.50659 4.2768555
135.53267 677.50659 4.2768555
140.9539 677.50659 4.2768555
146.37532 677.50659 4.2768555
151.79655 677.50659 4.2768555
157.21799 677.50659 4.2768555
162.63921 677.50659 4.2768555
168.06042 677.50659 4.2768555
173.48186 677.50659 4.2768555
178.90309 677.50659 4.2768555
184.32451 677.50659 4.2768555
189.74574 677.50659 4.2768555
195.16696 677.50659 4.2768555
202.40485 663.53833 28.765625
207.87517 663.53833 28.765625
213.34569 663.53833 28.765625
218.81601 663.53833 28.765625
-150.42194 686.52979 -22.311035
-145.04982 686.52979 -22.311035
-140.95399 672.51636 2.1586914
-136.76001 658.50293 26.628174
-130.11134 672.51636 2.1586914
-124.69002 672.51636 2.1586914
-119.26879 672.51636 2.1586914
-113.84747 672.51636 2.1586914
-108.42614 672.51636 2.1586914
-102.07204 686.52979 -22.311035
-96.699806 686.52979 -22.311035
-91.327667 686.52979 -22.311035
-85.955437 686.52979 -22.311035
-80.583206 686.52979 -22.311035
-75.210968 686.52979 -22.311035
-69.838737 686.52979 -22.311035
-64.466599 686.52979 -22.311035
-59.094368 686.52979 -22.311035
-53.722134 686.52979 -22.311035
-48.79174 672.51636 2.1586914
-43.370415 672.51636 2.1586914
-37.949188 672.51636 2.1586914
-32.527863 672.51636 2.1586914
-27.106535 672.51636 2.1586914
-21.685207 672.51636 2.1586914
-16.116598 686.52979 -22.311035
-10.744469 686.52979 -22.311035
-5.4213276 672.51636 2.1586914
0 672.51636 2.1586914
5.4212241 672.51636 2.1586914
10.940842 658.50293 26.628174
16.41116 658.50293 26.628174
21.881683 658.50293 26.628174
37.949188 672.51636 2.1586914
43.370415 672.51636 2.1586914
48.791843 672.51636 2.1586914
54.21307 672.51636 2.1586914
59.634293 672.51636 2.1586914
65.055725 672.51636 2.1586914
70.476952 672.51636 2.1586914
75.898376 672.51636 2.1586914
80.583206 686.52979 -22.311035
85.955338 686.52979 -22.311035
91.327667 686.52979 -22.311035
96.699806 686.52979 -22.311035
102.07214 686.52979 -22.311035
107.44427 686.52979 -22.311035
112.81641 686.52979 -22.311035
118.18874 686.52979 -22.311035
124.69002 672.51636 2.1586914
130.11145 672.51636 2.1586914
135.53267 672.51636 2.1586914
140.9539 672.51636 2.1586914
146.37532 672.51636 2.1586914
151.79655 672.51636 2.1586914
157.21799 672.51636 2.1586914
162.63921 672.51636 2.1586914
168.06042 672.51636 2.1586914
173.48186 672.51636 2.1586914
178.90309 672.51636 2.1586914
184.32451 672.51636 2.1586914
189.74574 672.51636 2.1586914
195.16696 672.51636 2.1586914
202.40485 658.50293 26.628174
207.87517 658.50293 26.628174
213.34569 658.50293 26.628174
218.81601 658.50293 26.628174
-151.79655 667.52588 0.040283203
-146.37532 667.52588 0.040283203
-140.95399 667.52588 0.040283203
-135.53267 667.52588 0.040283203
-130.11134 667.52588 0.040283203
-124.69002 667.52588 0.040283203
-120.34885 653.46741 24.490723
-113.84747 667.52588 0.040283203
-108.42614 667.52588 0.040283203
-102.07204 681.58447 -24.4104
-96.699806 681.58447 -24.4104
-91.327667 681.58447 -24.4104
-85.955437 681.58447 -24.4104
-80.583206 681.58447 -24.4104
-75.210968 681.58447 -24.4104
-69.838737 681.58447 -24.4104
-64.466599 681.58447 -24.4104
-59.094368 681.58447 -24.4104
-53.722134 681.58447 -24.4104
-48.349903 681.58447 -24.4104
-43.370415 667.52588 0.040283203
-37.949188 667.52588 0.040283203
-32.527863 667.52588 0.040283203
-27.106535 667.52588 0.040283203
-21.685207 667.52588 0.040283203
-16.26388 667.52588 0.040283203
-10.842655 667.52588 0.040283203
-5.4213276 667.52588 0.040283203
0 667.52588 0.040283203
5.4212241 667.52588 0.040283203
10.940842 653.46741 24.490723
16.41116 653.46741 24.490723
43.370415 667.52588 0.040283203
48.791843 667.52588 0.040283203
54.21307 667.52588 0.040283203
59.634293 667.52588 0.040283203
65.055725 667.52588 0.040283203
70.476952 667.52588 0.040283203
75.898376 667.52588 0.040283203
81.319603 667.52588 0.040283203
86.740829 667.52588 0.040283203
91.327667 681.58447 -24.4104
96.699806 681.58447 -24.4104
102.07214 681.58447 -24.4104
107.44427 681.58447 -24.4104
112.81641 681.58447 -24.4104
118.18874 681.58447 -24.4104
124.69002 667.52588 0.040283203
130.11145 667.52588 0.040283203
135.53267 667.52588 0.040283203
140.9539 667.52588 0.040283203
146.37532 667.52588 0.040283203
151.79655 667.52588 0.040283203
157.21799 667.52588 0.040283203
162.63921 667.52588 0.040283203
168.06042 667.52588 0.040283203
173.48186 667.52588 0.040283203
178.90309 667.52588 0.040283203
184.32451 667.52588 0.040283203
189.74574 667.52588 0.040283203
195.16696 667.52588 0.040283203
202.40485 653.46741 24.490723
207.87517 653.46741 24.490723
213.34569 653.46741 24.490723
218.81601 653.46741 24.490723
-151.79655 662.53564 -2.0778809
-146.37532 662.53564 -2.0778809
-140.95399 662.53564 -2.0778809
-135.53267 662.53564 -2.0778809
-130.11134 662.53564 -2.0778809
-124.69002 662.53564 -2.0778809
-120.34885 648.43188 22.353271
-113.84747 662.53564 -2.0778809
-108.42614 662.53564 -2.0778809
-103.00481 662.53564 -2.0778809
-97.583481 662.53564 -2.0778809
-92.162254 662.53564 -2.0778809
-85.955437 676.6394 -26.509277
-80.583206 676.6394 -26.509277
-75.210968 676.6394 -26.509277
-69.838737 676.6394 -26.509277
-64.466599 676.6394 -26.509277
-59.094368 676.6394 -26.509277
-53.722134 676.6394 -26.509277
-48.349903 676.6394 -26.509277
-42.977669 676.6394 -26.509277
-37.605534 676.6394 -26.509277
-32.527863 662.53564 -2.0778809
-27.106535 662.53564 -2.0778809
-21.685207 662.53564 -2.0778809
-16.26388 662.53564 -2.0778809
-10.842655 662.53564 -2.0778809
-5.4213276 662.53564 -2.0778809
0 662.53564 -2.0778809
5.4212241 662.53564 -2.0778809
10.940842 648.43188 22.353271
16.41116 648.43188 22.353271
48.791843 662.53564 -2.0778809
54.21307 662.53564 -2.0778809
59.634293 662.53564 -2.0778809
65.055725 662.53564 -2.0778809
70.476952 662.53564 -2.0778809
75.898376 662.53564 -2.0778809
81.319603 662.53564 -2.0778809
86.740829 662.53564 -2.0778809
91.327667 676.6394 -26.509277
96.699806 676.6394 -26.509277
102.07214 676.6394 -26.509277
107.44427 676.6394 -26.509277
112.81641 676.6394 -26.509277
119.26879 662.53564 -2.0778809
124.69002 662.53564 -2.0778809
128.9332 676.6394 -26.509277
134.30534 676.6394 -26.509277
140.9539 662.53564 -2.0778809
146.37532 662.53564 -2.0778809
151.79655 662.53564 -2.0778809
157.21799 662.53564 -2.0778809
162.63921 662.53564 -2.0778809
168.06042 662.53564 -2.0778809
173.48186 662.53564 -2.0778809
178.90309 662.53564 -2.0778809
184.32451 662.53564 -2.0778809
189.74574 662.53564 -2.0778809
195.16696 662.53564 -2.0778809
202.40485 648.43188 22.353271
207.87517 648.43188 22.353271
213.34569 648.43188 22.353271
218.81601 648.43188 22.353271
-151.79655 657.54529 -4.1962891
-146.37532 657.54529 -4.1962891
-140.95399 657.54529 -4.1962891
-135.53267 657.54529 -4.1962891
-130.11134 657.54529 -4.1962891
-125.81916 643.39624 20.21582
-120.34885 643.39624 20.21582
-114.87842 643.39624 20.21582
-109.408 643.39624 20.21582
-103.93758 643.39624 20.21582
-97.583481 657.54529 -4.1962891
-92.162254 657.54529 -4.1962891
-86.740929 657.54529 -4.1962891
-81.319603 657.54529 -4.1962891
-75.210968 671.69421 -28.608398
-69.838737 671.69421 -28.608398
-64.466599 671.69421 -28.608398
-59.094368 671.69421 -28.608398
-53.722134 671.69421 -28.608398
-48.349903 671.69421 -28.608398
-42.977669 671.69421 -28.608398
-37.605534 671.69421 -28.608398
-32.527863 657.54529 -4.1962891
-27.106535 657.54529 -4.1962891
-21.685207 657.54529 -4.1962891
-16.26388 657.54529 -4.1962891
-10.842655 657.54529 -4.1962891
-5.4213276 657.54529 -4.1962891
0 657.54529 -4.1962891
5.4703169 643.39624 20.21582
10.940842 643.39624 20.21582
16.41116 643.39624 20.21582
48.791843 657.54529 -4.1962891
54.21307 657.54529 -4.1962891
59.634293 657.54529 -4.1962891
65.644844 643.39624 20.21582
70.476952 657.54529 -4.1962891
75.898376 657.54529 -4.1962891
81.319603 657.54529 -4.1962891
86.740829 657.54529 -4.1962891
92.162254 657.54529 -4.1962891
97.583481 657.54529 -4.1962891
103.00491 657.54529 -4.1962891
107.44427 671.69421 -28.608398
112.81641 671.69421 -28.608398
119.26879 657.54529 -4.1962891
124.69002 657.54529 -4.1962891
128.9332 671.69421 -28.608398
134.30534 671.69421 -28.608398
140.9539 657.54529 -4.1962891
146.37532 657.54529 -4.1962891
151.79655 657.54529 -4.1962891
157.21799 657.54529 -4.1962891
162.63921 657.54529 -4.1962891
168.06042 657.54529 -4.1962891
173.48186 657.54529 -4.1962891
178.90309 657.54529 -4.1962891
184.32451 657.54529 -4.1962891
189.74574 657.54529 -4.1962891
195.16696 657.54529 -4.1962891
202.40485 643.39624 20.21582
206.00961 657.54529 -4.1962891
211.43105 657.54529 -4.1962891
216.85228 657.54529 -4.1962891
222.2735 657.54529 -4.1962891
-153.17117 638.36084 18.078369
-147.70084 638.36084 18.078369
-142.23042 638.36084 18.078369
-135.53267 652.55505 -6.3144531
-130.11134 652.55505 -6.3144531
-125.81916 638.36084 18.078369
-120.34885 638.36084 18.078369
-114.87842 638.36084 18.078369
-109.408 638.36084 18.078369
-103.93758 638.36084 18.078369
-97.583481 652.55505 -6.3144531
-92.162254 652.55505 -6.3144531
-86.740929 652.55505 -6.3144531
-81.319603 652.55505 -6.3144531
-75.898277 652.55505 -6.3144531
-70.476952 652.55505 -6.3144531
-64.466599 666.74915 -30.70752
-59.094368 666.74915 -30.70752
-53.722134 666.74915 -30.70752
-48.349903 666.74915 -30.70752
-42.977669 666.74915 -30.70752
-37.605534 666.74915 -30.70752
-32.527863 652.55505 -6.3144531
-27.106535 652.55505 -6.3144531
-21.685207 652.55505 -6.3144531
-16.26388 652.55505 -6.3144531
-10.842655 652.55505 -6.3144531
-5.4213276 652.55505 -6.3144531
0 638.36084 18.078369
5.4703169 638.36084 18.078369
11.042537 623.65967 43.342773
16.563698 623.65967 43.342773
48.791843 652.55505 -6.3144531
54.21307 652.55505 -6.3144531
60.174316 638.36084 18.078369
65.644844 638.36084 18.078369
71.115158 638.36084 18.078369
76.585686 638.36084 18.078369
82.056 638.36084 18.078369
86.740829 652.55505 -6.3144531
92.162254 652.55505 -6.3144531
97.583481 652.55505 -6.3144531
103.00491 652.55505 -6.3144531
108.42614 652.55505 -6.3144531
113.84736 652.55505 -6.3144531
119.26879 652.55505 -6.3144531
124.69002 652.55505 -6.3144531
128.9332 666.74915 -30.70752
134.30534 666.74915 -30.70752
140.9539 652.55505 -6.3144531
146.37532 652.55505 -6.3144531
151.79655 652.55505 -6.3144531
157.21799 652.55505 -6.3144531
162.63921 652.55505 -6.3144531
168.06042 652.55505 -6.3144531
173.48186 652.55505 -6.3144531
178.90309 652.55505 -6.3144531
184.32451 652.55505 -6.3144531
189.74574 652.55505 -6.3144531
195.16696 652.55505 -6.3144531
202.40485 638.36084 18.078369
206.00961 652.55505 -6.3144531
211.43105 652.55505 -6.3144531
216.85228 652.55505 -6.3144531
222.2735 652.55505 -6.3144531
-153.17117 633.3252 15.940918
-147.70084 633.3252 15.940918
-142.23042 633.3252 15.940918
-136.76001 633.3252 15.940918
-131.28958 633.3252 15.940918
-125.81916 633.3252 15.940918
-120.34885 633.3252 15.940918
-114.87842 633.3252 15.940918
-109.408 633.3252 15.940918
-103.93758 633.3252 15.940918
-98.467163 633.3252 15.940918
-92.162254 647.56458 -8.4328613
-86.740929 647.56458 -8.4328613
-81.319603 647.56458 -8.4328613
-75.898277 647.56458 -8.4328613
-70.476952 647.56458 -8.4328613
-64.466599 661.80396 -32.806641
-59.094368 661.80396 -32.806641
-54.21307 647.56458 -8.4328613
-48.79174 647.56458 -8.4328613
-43.370415 647.56458 -8.4328613
-37.949188 647.56458 -8.4328613
-32.527863 647.56458 -8.4328613
-27.106535 647.56458 -8.4328613
-21.881578 633.3252 15.940918
-16.26388 647.56458 -8.4328613
-10.842655 647.56458 -8.4328613
-5.4213276 647.56458 -8.4328613
0 633.3252 15.940918
5.521163 618.57715 41.185303
11.042537 618.57715 41.185303
16.716238 603.82935 66.429688
54.704002 633.3252 15.940918
60.174316 633.3252 15.940918
65.644844 633.3252 15.940918
71.115158 633.3252 15.940918
76.585686 633.3252 15.940918
82.056 633.3252 15.940918
86.740829 647.56458 -8.4328613
92.162254 647.56458 -8.4328613
97.583481 647.56458 -8.4328613
103.00491 647.56458 -8.4328613
108.42614 647.56458 -8.4328613
113.84736 647.56458 -8.4328613
119.26879 647.56458 -8.4328613
123.56087 661.80396 -32.806641
128.9332 661.80396 -32.806641
134.30534 661.80396 -32.806641
140.9539 647.56458 -8.4328613
146.37532 647.56458 -8.4328613
151.79655 647.56458 -8.4328613
157.21799 647.56458 -8.4328613
162.63921 647.56458 -8.4328613
168.06042 647.56458 -8.4328613
173.48186 647.56458 -8.4328613
178.90309 647.56458 -8.4328613
184.32451 647.56458 -8.4328613
189.74574 647.56458 -8.4328613
195.16696 647.56458 -8.4328613
202.40485 633.3252 15.940918
207.87517 633.3252 15.940918
211.43105 647.56458 -8.4328613
216.85228 647.56458 -8.4328613
-160.11613 613.495 39.028076
-154.59486 613.495 39.028076
-147.70084 628.28979 13.803467
-142.23042 628.28979 13.803467
-136.76001 628.28979 13.803467
-131.28958 628.28979 13.803467
-125.81916 628.28979 13.803467
-120.34885 628.28979 13.803467
-114.87842 628.28979 13.803467
-109.408 628.28979 13.803467
-103.93758 628.28979 13.803467
-98.467163 628.28979 13.803467
-92.996849 628.28979 13.803467
-87.526421 628.28979 13.803467
-82.056 628.28979 13.803467
-75.898277 642.57434 -10.551025
-70.476952 642.57434 -10.551025
-65.055725 642.57434 -10.551025
-59.634396 642.57434 -10.551025
-54.21307 642.57434 -10.551025
-48.79174 642.57434 -10.551025
-43.370415 642.57434 -10.551025
-37.949188 642.57434 -10.551025
-32.527863 642.57434 -10.551025
-27.352001 628.28979 13.803467
-21.881578 628.28979 13.803467
-16.26388 642.57434 -10.551025
-10.842655 642.57434 -10.551025
-5.4704208 628.28979 13.803467
0 613.495 39.028076
5.521163 613.495 39.028076
11.042537 613.495 39.028076
16.716238 598.7002 64.252441
54.704002 628.28979 13.803467
60.174316 628.28979 13.803467
65.644844 628.28979 13.803467
71.115158 628.28979 13.803467
76.585686 628.28979 13.803467
82.056 628.28979 13.803467
87.526314 628.28979 13.803467
92.162254 642.57434 -10.551025
97.583481 642.57434 -10.551025
103.00491 642.57434 -10.551025
108.42614 642.57434 -10.551025
113.84736 642.57434 -10.551025
119.26879 642.57434 -10.551025
123.56087 656.85889 -34.905762
128.9332 656.85889 -34.905762
134.30534 656.85889 -34.905762
140.9539 642.57434 -10.551025
146.37532 642.57434 -10.551025
151.79655 642.57434 -10.551025
157.21799 642.57434 -10.551025
162.63921 642.57434 -10.551025
168.06042 642.57434 -10.551025
173.48186 642.57434 -10.551025
178.90309 642.57434 -10.551025
184.32451 642.57434 -10.551025
189.74574 642.57434 -10.551025
195.16696 642.57434 -10.551025
202.40485 628.28979 13.803467
207.87517 628.28979 13.803467
211.43105 642.57434 -10.551025
216.85228 642.57434 -10.551025
-160.11613 608.4126 36.870605
-154.59486 608.4126 36.870605
-149.07372 608.4126 36.870605
-142.23042 623.25415 11.666016
-136.76001 623.25415 11.666016
-131.28958 623.25415 11.666016
-125.81916 623.25415 11.666016
-120.34885 623.25415 11.666016
-114.87842 623.25415 11.666016
-109.408 623.25415 11.666016
-103.93758 623.25415 11.666016
-98.467163 623.25415 11.666016
-92.996849 623.25415 11.666016
-87.526421 623.25415 11.666016
-82.056 623.25415 11.666016
-75.898277 637.58398 -12.669434
-70.476952 637.58398 -12.669434
-65.055725 637.58398 -12.669434
-59.634396 637.58398 -12.669434
-54.21307 637.58398 -12.669434
-48.79174 637.58398 -12.669434
-43.370415 637.58398 -12.669434
-37.949188 637.58398 -12.669434
-32.822422 623.25415 11.666016
-27.352001 623.25415 11.666016
-21.881578 623.25415 11.666016
-16.41116 623.25415 11.666016
-10.940842 623.25415 11.666016
-5.4704208 623.25415 11.666016
0 608.4126 36.870605
5.521163 608.4126 36.870605
11.14423 593.57104 62.075195
54.704002 623.25415 11.666016
60.174316 623.25415 11.666016
66.255005 608.4126 36.870605
71.776169 608.4126 36.870605
77.297546 608.4126 36.870605
82.056 623.25415 11.666016
87.526314 623.25415 11.666016
92.996849 623.25415 11.666016
98.467163 623.25415 11.666016
103.00491 637.58398 -12.669434
108.42614 637.58398 -12.669434
113.84736 637.58398 -12.669434
119.26879 637.58398 -12.669434
123.56087 651.9137 -37.004883
128.9332 651.9137 -37.004883
134.30534 651.9137 -37.004883
140.9539 637.58398 -12.669434
146.37532 637.58398 -12.669434
151.79655 637.58398 -12.669434
157.21799 637.58398 -12.669434
162.63921 637.58398 -12.669434
168.06042 637.58398 -12.669434
173.48186 637.58398 -12.669434
178.90309 637.58398 -12.669434
184.32451 637.58398 -12.669434
191.464 623.25415 11.666016
196.93433 623.25415 11.666016
202.40485 623.25415 11.666016
207.87517 623.25415 11.666016
213.34569 623.25415 11.666016
-160.11613 603.33008 34.713379
-154.59486 603.33008 34.713379
-149.07372 603.33008 34.713379
-142.23042 618.21863 9.5283203
-136.76001 618.21863 9.5283203
-131.28958 618.21863 9.5283203
-125.81916 618.21863 9.5283203
-120.34885 618.21863 9.5283203
-114.87842 618.21863 9.5283203
-109.408 618.21863 9.5283203
-103.93758 618.21863 9.5283203
-98.467163 618.21863 9.5283203
-92.996849 618.21863 9.5283203
-87.526421 618.21863 9.5283203
-82.056 618.21863 9.5283203
-75.898277 632.59351 -14.787598
-70.476952 632.59351 -14.787598
-65.055725 632.59351 -14.787598
-59.634396 632.59351 -14.787598
-54.21307 632.59351 -14.787598
-48.79174 632.59351 -14.787598
-43.370415 632.59351 -14.787598
-37.949188 632.59351 -14.787598
-32.822422 618.21863 9.5283203
-27.352001 618.21863 9.5283203
-21.881578 618.21863 9.5283203
-16.41116 618.21863 9.5283203
-10.940842 618.21863 9.5283203
-5.5212684 603.33008 34.713379
0 603.33008 34.713379
5.5720086 588.44189 59.897949
60.733631 603.33008 34.713379
66.255005 603.33008 34.713379
71.776169 603.33008 34.713379
77.297546 603.33008 34.713379
82.056 618.21863 9.5283203
87.526314 618.21863 9.5283203
92.996849 618.21863 9.5283203
98.467163 618.21863 9.5283203
103.00491 632.59351 -14.787598
108.42614 632.59351 -14.787598
113.84736 632.59351 -14.787598
119.26879 632.59351 -14.787598
123.56087 646.96851 -39.104004
128.9332 646.96851 -39.104004
134.30534 646.96851 -39.104004
139.67747 646.96851 -39.104004
146.37532 632.59351 -14.787598
151.79655 632.59351 -14.787598
157.21799 632.59351 -14.787598
162.63921 632.59351 -14.787598
168.06042 632.59351 -14.787598
173.48186 632.59351 -14.787598
180.52318 618.21863 9.5283203
185.9937 618.21863 9.5283203
191.464 618.21863 9.5283203
196.93433 618.21863 9.5283203
202.40485 618.21863 9.5283203
207.87517 618.21863 9.5283203
213.34569 618.21863 9.5283203
-160.11613 598.24792 32.556152
-154.59486 598.24792 32.556152
-149.07372 598.24792 32.556152
-143.55244 598.24792 32.556152
-138.03117 598.24792 32.556152
-131.28958 613.18311 7.3911133
-125.81916 613.18311 7.3911133
-120.34885 613.18311 7.3911133
-114.87842 613.18311 7.3911133
-109.408 613.18311 7.3911133
-103.93758 613.18311 7.3911133
-98.467163 613.18311 7.3911133
-92.996849 613.18311 7.3911133
-87.526421 613.18311 7.3911133
-82.056 613.18311 7.3911133
-76.585587 613.18311 7.3911133
-71.115158 613.18311 7.3911133
-65.055725 627.60327 -16.905762
-59.634396 627.60327 -16.905762
-54.704002 613.18311 7.3911133
-49.233582 613.18311 7.3911133
-43.763157 613.18311 7.3911133
-38.292843 613.18311 7.3911133
-32.822422 613.18311 7.3911133
-27.606234 598.24792 32.556152
-21.881578 613.18311 7.3911133
-16.41116 613.18311 7.3911133
-10.940842 613.18311 7.3911133
-5.5212684 598.24792 32.556152
0 598.24792 32.556152
5.5720086 583.31274 57.720947
55.720936 583.31274 57.720947
61.292946 583.31274 57.720947
66.865166 583.31274 57.720947
71.776169 598.24792 32.556152
77.297546 598.24792 32.556152
82.818703 598.24792 32.556152
87.526314 613.18311 7.3911133
92.996849 613.18311 7.3911133
98.467163 613.18311 7.3911133
103.00491 627.60327 -16.905762
108.42614 627.60327 -16.905762
113.84736 627.60327 -16.905762
119.26879 627.60327 -16.905762
123.56087 642.02344 -41.203125
128.9332 642.02344 -41.203125
134.30534 642.02344 -41.203125
139.67747 642.02344 -41.203125
146.37532 627.60327 -16.905762
151.79655 627.60327 -16.905762
157.21799 627.60327 -16.905762
162.63921 627.60327 -16.905762
168.06042 627.60327 -16.905762
175.05284 613.18311 7.3911133
180.52318 613.18311 7.3911133
185.9937 613.18311 7.3911133
191.464 613.18311 7.3911133
196.93433 613.18311 7.3911133
202.40485 613.18311 7.3911133
209.80733 598.24792 32.556152
215.3287 598.24792 32.556152
-161.5907 578.18359 55.543701
-156.01857 578.18359 55.543701
-149.07372 593.16553 30.398682
-143.55244 593.16553 30.398682
-138.03117 593.16553 30.398682
-132.5099 593.16553 30.398682
-126.98864 593.16553 30.398682
-120.34885 608.14758 5.253418
-114.87842 608.14758 5.253418
-109.408 608.14758 5.253418
-103.93758 608.14758 5.253418
-98.467163 608.14758 5.253418
-92.996849 608.14758 5.253418
-87.526421 608.14758 5.253418
-82.056 608.14758 5.253418
-76.585587 608.14758 5.253418
-71.115158 608.14758 5.253418
-65.644844 608.14758 5.253418
-60.174423 608.14758 5.253418
-54.704002 608.14758 5.253418
-49.233582 608.14758 5.253418
-43.763157 608.14758 5.253418
-38.292843 608.14758 5.253418
-32.822422 608.14758 5.253418
-27.606234 593.16553 30.398682
-22.084965 593.16553 30.398682
-16.41116 608.14758 5.253418
-10.940842 608.14758 5.253418
-5.5212684 593.16553 30.398682
0 593.16553 30.398682
5.5720086 578.18359 55.543701
55.720936 578.18359 55.543701
61.292946 578.18359 55.543701
66.865166 578.18359 55.543701
72.437172 578.18359 55.543701
77.297546 593.16553 30.398682
82.818703 593.16553 30.398682
87.526314 608.14758 5.253418
92.996849 608.14758 5.253418
98.467163 608.14758 5.253418
103.00491 622.61292 -19.02417
108.42614 622.61292 -19.02417
113.84736 622.61292 -19.02417
119.26879 622.61292 -19.02417
124.69002 622.61292 -19.02417
130.11145 622.61292 -19.02417
135.53267 622.61292 -19.02417
140.9539 622.61292 -19.02417
146.37532 622.61292 -19.02417
151.79655 622.61292 -19.02417
157.21799 622.61292 -19.02417
162.63921 622.61292 -19.02417
168.06042 622.61292 -19.02417
175.05284 608.14758 5.253418
180.52318 608.14758 5.253418
185.9937 608.14758 5.253418
191.464 608.14758 5.253418
198.7648 593.16553 30.398682
204.28618 593.16553 30.398682
209.80733 593.16553 30.398682
217.31174 578.18359 55.543701
-161.5907 573.05444 53.366455
-156.01857 573.05444 53.366455
-150.44656 573.05444 53.366455
-143.55244 588.08325 28.241455
-138.03117 588.08325 28.241455
-132.5099 588.08325 28.241455
-126.98864 588.08325 28.241455
-120.34885 603.11206 3.1162109
-114.87842 603.11206 3.1162109
-109.408 603.11206 3.1162109
-103.93758 603.11206 3.1162109
-98.467163 603.11206 3.1162109
-92.996849 603.11206 3.1162109
-87.526421 603.11206 3.1162109
-82.056 603.11206 3.1162109
-76.585587 603.11206 3.1162109
-71.115158 603.11206 3.1162109
-65.644844 603.11206 3.1162109
-60.174423 603.11206 3.1162109
-54.704002 603.11206 3.1162109
-49.233582 603.11206 3.1162109
-43.763157 603.11206 3.1162109
-38.292843 603.11206 3.1162109
-33.127502 588.08325 28.241455
-27.606234 588.08325 28.241455
-22.084965 588.08325 28.241455
-16.41116 603.11206 3.1162109
-10.940842 603.11206 3.1162109
-5.5212684 588.08325 28.241455
0 588.08325 28.241455
55.720936 573.05444 53.366455
61.292946 573.05444 53.366455
66.865166 573.05444 53.366455
72.437172 573.05444 53.366455
77.297546 588.08325 28.241455
82.818703 588.08325 28.241455
87.526314 603.11206 3.1162109
92.996849 603.11206 3.1162109
98.467163 603.11206 3.1162109
103.93769 603.11206 3.1162109
108.42614 617.62256 -21.142334
113.84736 617.62256 -21.142334
119.26879 617.62256 -21.142334
124.69002 617.62256 -21.142334
130.11145 617.62256 -21.142334
135.53267 617.62256 -21.142334
140.9539 617.62256 -21.142334
146.37532 617.62256 -21.142334
151.79655 617.62256 -21.142334
157.21799 617.62256 -21.142334
162.63921 617.62256 -21.142334
169.58232 603.11206 3.1162109
175.05284 603.11206 3.1162109
180.52318 603.11206 3.1162109
185.9937 603.11206 3.1162109
193.24364 588.08325 28.241455
198.7648 588.08325 28.241455
204.28618 588.08325 28.241455
211.73952 573.05444 53.366455
-161.5907 567.92529 51.189209
-156.01857 567.92529 51.189209
-150.44656 567.92529 51.189209
-144.87445 567.92529 51.189209
-139.30234 567.92529 51.189209
-132.5099 583.00085 26.083984
-126.98864 583.00085 26.083984
-121.46747 583.00085 26.083984
-114.87842 598.07654 0.97851562
-109.408 598.07654 0.97851562
-103.93758 598.07654 0.97851562
-98.467163 598.07654 0.97851562
-92.996849 598.07654 0.97851562
-87.526421 598.07654 0.97851562
-82.056 598.07654 0.97851562
-76.585587 598.07654 0.97851562
-71.115158 598.07654 0.97851562
-65.644844 598.07654 0.97851562
-60.174423 598.07654 0.97851562
-54.704002 598.07654 0.97851562
-49.233582 598.07654 0.97851562
-44.16993 583.00085 26.083984
-38.648773 583.00085 26.083984
-33.127502 583.00085 26.083984
-27.606234 583.00085 26.083984
-22.084965 583.00085 26.083984
-16.41116 598.07654 0.97851562
-10.940842 598.07654 0.97851562
-5.5212684 583.00085 26.083984
0 583.00085 26.083984
55.720936 567.92529 51.189209
61.292946 567.92529 51.189209
66.865166 567.92529 51.189209
72.437172 567.92529 51.189209
77.297546 583.00085 26.083984
82.818703 583.00085 26.083984
88.339859 583.00085 26.083984
92.996849 598.07654 0.97851562
98.467163 598.07654 0.97851562
103.93769 598.07654 0.97851562
109.408 598.07654 0.97851562
113.84736 612.6322 -23.260742
119.26879 612.6322 -23.260742
124.69002 612.6322 -23.260742
130.11145 612.6322 -23.260742
135.53267 612.6322 -23.260742
140.9539 612.6322 -23.260742
146.37532 612.6322 -23.260742
151.79655 612.6322 -23.260742
158.64169 598.07654 0.97851562
164.112 598.07654 0.97851562
169.58232 598.07654 0.97851562
175.05284 598.07654 0.97851562
180.52318 598.07654 0.97851562
185.9937 598.07654 0.97851562
193.24364 583.00085 26.083984
198.7648 583.00085 26.083984
204.28618 583.00085 26.083984
211.73952 567.92529 51.189209
-161.5907 562.79626 49.012207
-156.01857 562.79626 49.012207
-150.44656 562.79626 49.012207
-144.87445 562.79626 49.012207
-139.30234 562.79626 49.012207
-132.5099 577.91858 23.926758
-126.98864 577.91858 23.926758
-121.46747 577.91858 23.926758
-114.87842 593.04102 -1.1586914
-109.408 593.04102 -1.1586914
-103.93758 593.04102 -1.1586914
-98.467163 593.04102 -1.1586914
-92.996849 593.04102 -1.1586914
-87.526421 593.04102 -1.1586914
-82.056 593.04102 -1.1586914
-77.297432 577.91858 23.926758
-71.776169 577.91858 23.926758
-66.255005 577.91858 23.926758
-60.733734 577.91858 23.926758
-55.212467 577.91858 23.926758
-49.6912 577.91858 23.926758
-44.16993 577.91858 23.926758
-38.648773 577.91858 23.926758
-33.127502 577.91858 23.926758
-27.606234 577.91858 23.926758
-22.084965 577.91858 23.926758
-16.41116 593.04102 -1.1586914
-10.940842 593.04102 -1.1586914
-5.4704208 593.04102 -1.1586914
0 577.91858 23.926758
60.733631 577.91858 23.926758
66.255005 577.91858 23.926758
71.776169 577.91858 23.926758
77.297546 577.91858 23.926758
82.818703 577.91858 23.926758
88.339859 577.91858 23.926758
93.861237 577.91858 23.926758
98.467163 593.04102 -1.1586914
103.93769 593.04102 -1.1586914
109.408 593.04102 -1.1586914
114.87832 593.04102 -1.1586914
119.26879 607.64185 -25.378906
124.69002 607.64185 -25.378906
130.11145 607.64185 -25.378906
135.53267 607.64185 -25.378906
140.9539 607.64185 -25.378906
146.37532 607.64185 -25.378906
153.17117 593.04102 -1.1586914
158.64169 593.04102 -1.1586914
164.112 593.04102 -1.1586914
169.58232 593.04102 -1.1586914
175.05284 593.04102 -1.1586914
180.52318 593.04102 -1.1586914
185.9937 593.04102 -1.1586914
193.24364 577.91858 23.926758
198.7648 577.91858 23.926758
204.28618 577.91858 23.926758
211.73952 562.79626 49.012207
-161.5907 557.66699 46.834961
-156.01857 557.66699 46.834961
-150.44656 557.66699 46.834961
-144.87445 557.66699 46.834961
-139.30234 557.66699 46.834961
-132.5099 572.83618 21.769531
-126.98864 572.83618 21.769531
-121.46747 572.83618 21.769531
-114.87842 588.00549 -3.2963867
-109.408 588.00549 -3.2963867
-103.93758 588.00549 -3.2963867
-98.467163 588.00549 -3.2963867
-92.996849 588.00549 -3.2963867
-87.526421 588.00549 -3.2963867
-82.818703 572.83618 21.769531
-77.297432 572.83618 21.769531
-71.776169 572.83618 21.769531
-66.255005 572.83618 21.769531
-60.733734 572.83618 21.769531
-55.212467 572.83618 21.769531
-49.6912 572.83618 21.769531
-44.16993 572.83618 21.769531
-38.648773 572.83618 21.769531
-33.127502 572.83618 21.769531
-27.606234 572.83618 21.769531
-22.084965 572.83618 21.769531
-16.41116 588.00549 -3.2963867
-10.940842 588.00549 -3.2963867
-5.4704208 588.00549 -3.2963867
0 572.83618 21.769531
60.733631 572.83618 21.769531
66.255005 572.83618 21.769531
71.776169 572.83618 21.769531
77.297546 572.83618 21.769531
82.818703 572.83618 21.769531
88.339859 572.83618 21.769531
93.861237 572.83618 21.769531
98.467163 588.00549 -3.2963867
103.93769 588.00549 -3.2963867
109.408 588.00549 -3.2963867
114.87832 588.00549 -3.2963867
120.34885 588.00549 -3.2963867
125.81916 588.00549 -3.2963867
131.28969 588.00549 -3.2963867
136.76001 588.00549 -3.2963867
142.23032 588.00549 -3.2963867
147.70084 588.00549 -3.2963867
153.17117 588.00549 -3.2963867
158.64169 588.00549 -3.2963867
164.112 588.00549 -3.2963867
169.58232 588.00549 -3.2963867
175.05284 588.00549 -3.2963867
180.52318 588.00549 -3.2963867
185.9937 588.00549 -3.2963867
193.24364 572.83618 21.769531
198.7648 572.83618 21.769531
204.28618 572.83618 21.769531
211.73952 557.66699 46.834961
-156.01857 552.53796 44.657715
-150.44656 552.53796 44.657715
-144.87445 552.53796 44.657715
-139.30234 552.53796 44.657715
-132.5099 567.75391 19.612061
-126.98864 567.75391 19.612061
-121.46747 567.75391 19.612061
-114.87842 582.96997 -5.4335938
-109.408 582.96997 -5.4335938
-103.93758 582.96997 -5.4335938
-99.382401 567.75391 19.612061
-93.861237 567.75391 19.612061
-88.339973 567.75391 19.612061
-82.818703 567.75391 19.612061
-77.297432 567.75391 19.612061
-71.776169 567.75391 19.612061
-66.255005 567.75391 19.612061
-60.733734 567.75391 19.612061
-55.212467 567.75391 19.612061
-49.6912 567.75391 19.612061
-44.16993 567.75391 19.612061
-38.648773 567.75391 19.612061
-33.127502 567.75391 19.612061
-27.606234 567.75391 19.612061
-22.084965 567.75391 19.612061
-16.41116 582.96997 -5.4335938
-10.940842 582.96997 -5.4335938
-5.4704208 582.96997 -5.4335938
61.292946 552.53796 44.657715
66.865166 552.53796 44.657715
72.437172 552.53796 44.657715
77.297546 567.75391 19.612061
82.818703 567.75391 19.612061
88.339859 567.75391 19.612061
93.861237 567.75391 19.612061
99.382401 567.75391 19.612061
103.93769 582.96997 -5.4335938
109.408 582.96997 -5.4335938
114.87832 582.96997 -5.4335938
120.34885 582.96997 -5.4335938
125.81916 582.96997 -5.4335938
131.28969 582.96997 -5.4335938
136.76001 582.96997 -5.4335938
142.23032 582.96997 -5.4335938
147.70084 582.96997 -5.4335938
153.17117 582.96997 -5.4335938
158.64169 582.96997 -5.4335938
164.112 582.96997 -5.4335938
169.58232 582.96997 -5.4335938
175.05284 582.96997 -5.4335938
180.52318 582.96997 -5.4335938
185.9937 582.96997 -5.4335938
193.24364 567.75391 19.612061
198.7648 567.75391 19.612061
204.28618 567.75391 19.612061
211.73952 552.53796 44.657715
-163.1161 531.61963 68.369385
-157.49138 531.61963 68.369385
-150.44656 547.40881 42.480469
-144.87445 547.40881 42.480469
-139.30234 547.40881 42.480469
-132.5099 562.67151 17.454834
-126.98864 562.67151 17.454834
-121.46747 562.67151 17.454834
-115.94621 562.67151 17.454834
-110.42493 562.67151 17.454834
-104.90366 562.67151 17.454834
-99.382401 562.67151 17.454834
-93.861237 562.67151 17.454834
-88.339973 562.67151 17.454834
-82.818703 562.67151 17.454834
-77.297432 562.67151 17.454834
-71.776169 562.67151 17.454834
-66.255005 562.67151 17.454834
-60.733734 562.67151 17.454834
-55.212467 562.67151 17.454834
-49.6912 562.67151 17.454834
-44.16993 562.67151 17.454834
-39.0047 547.40881 42.480469
-33.127502 562.67151 17.454834
-27.606234 562.67151 17.454834
-22.288351 547.40881 42.480469
-16.563698 562.67151 17.454834
-10.940842 577.93433 -7.5712891
-5.4704208 577.93433 -7.5712891
61.292946 547.40881 42.480469
66.865166 547.40881 42.480469
72.437172 547.40881 42.480469
78.009399 547.40881 42.480469
83.581406 547.40881 42.480469
89.153404 547.40881 42.480469
93.861237 562.67151 17.454834
99.382401 562.67151 17.454834
104.90378 562.67151 17.454834
109.408 577.93433 -7.5712891
114.87832 577.93433 -7.5712891
120.34885 577.93433 -7.5712891
125.81916 577.93433 -7.5712891
131.28969 577.93433 -7.5712891
136.76001 577.93433 -7.5712891
142.23032 577.93433 -7.5712891
147.70084 577.93433 -7.5712891
153.17117 577.93433 -7.5712891
158.64169 577.93433 -7.5712891
164.112 577.93433 -7.5712891
169.58232 577.93433 -7.5712891
175.05284 577.93433 -7.5712891
180.52318 577.93433 -7.5712891
185.9937 577.93433 -7.5712891
193.24364 562.67151 17.454834
198.7648 562.67151 17.454834
204.28618 562.67151 17.454834
211.73952 547.40881 42.480469
-163.1161 526.44214 66.171631
-157.49138 526.44214 66.171631
-150.44656 542.27979 40.303223
-144.87445 542.27979 40.303223
-139.30234 542.27979 40.303223
-132.5099 557.58923 15.297363
-126.98864 557.58923 15.297363
-121.46747 557.58923 15.297363
-115.94621 557.58923 15.297363
-110.42493 557.58923 15.297363
-104.90366 557.58923 15.297363
-99.382401 557.58923 15.297363
-93.861237 557.58923 15.297363
-88.339973 557.58923 15.297363
-82.818703 557.58923 15.297363
-77.297432 557.58923 15.297363
-71.776169 557.58923 15.297363
-66.255005 557.58923 15.297363
-60.733734 557.58923 15.297363
-55.212467 557.58923 15.297363
-49.6912 557.58923 15.297363
-44.16993 557.58923 15.297363
-39.0047 542.27979 40.303223
-33.432583 542.27979 40.303223
-27.860468 542.27979 40.303223
-22.498753 526.44214 66.171631
-16.874039 526.44214 66.171631
-11.24943 526.44214 66.171631
61.292946 542.27979 40.303223
66.865166 542.27979 40.303223
72.437172 542.27979 40.303223
78.009399 542.27979 40.303223
83.581406 542.27979 40.303223
89.153404 542.27979 40.303223
94.725632 542.27979 40.303223
100.29764 542.27979 40.303223
104.90378 557.58923 15.297363
110.42493 557.58923 15.297363
114.87832 572.89893 -9.7084961
120.34885 572.89893 -9.7084961
125.81916 572.89893 -9.7084961
131.28969 572.89893 -9.7084961
136.76001 572.89893 -9.7084961
142.23032 572.89893 -9.7084961
147.70084 572.89893 -9.7084961
153.17117 572.89893 -9.7084961
158.64169 572.89893 -9.7084961
164.112 572.89893 -9.7084961
169.58232 572.89893 -9.7084961
175.05284 572.89893 -9.7084961
180.52318 572.89893 -9.7084961
187.72247 557.58923 15.297363
193.24364 557.58923 15.297363
200.59528 542.27979 40.303223
206.16751 542.27979 40.303223
211.73952 542.27979 40.303223
-163.1161 521.26465 63.973877
-157.49138 521.26465 63.973877
-149.07372 552.50684 13.140137
-143.55244 552.50684 13.140137
-138.03117 552.50684 13.140137
-132.5099 552.50684 13.140137
-126.98864 552.50684 13.140137
-121.46747 552.50684 13.140137
-115.94621 552.50684 13.140137
-110.42493 552.50684 13.140137
-104.90366 552.50684 13.140137
-99.382401 552.50684 13.140137
-93.861237 552.50684 13.140137
-88.339973 552.50684 13.140137
-82.818703 552.50684 13.140137
-77.297432 552.50684 13.140137
-71.776169 552.50684 13.140137
-66.255005 552.50684 13.140137
-60.733734 552.50684 13.140137
-55.720936 537.15051 38.126221
-50.148819 537.15051 38.126221
-44.576702 537.15051 38.126221
-39.0047 537.15051 38.126221
-33.748184 521.26465 63.973877
-28.123468 521.26465 63.973877
-22.498753 521.26465 63.973877
-16.874039 521.26465 63.973877
66.865166 537.15051 38.126221
72.437172 537.15051 38.126221
78.009399 537.15051 38.126221
83.581406 537.15051 38.126221
89.153404 537.15051 38.126221
94.725632 537.15051 38.126221
100.29764 537.15051 38.126221
104.90378 552.50684 13.140137
110.42493 552.50684 13.140137
115.9461 552.50684 13.140137
121.46747 552.50684 13.140137
126.98864 552.50684 13.140137
131.28969 567.8634 -11.846191
136.76001 567.8634 -11.846191
142.23032 567.8634 -11.846191
147.70084 567.8634 -11.846191
153.17117 567.8634 -11.846191
158.64169 567.8634 -11.846191
164.112 567.8634 -11.846191
169.58232 567.8634 -11.846191
175.05284 567.8634 -11.846191
182.2011 552.50684 13.140137
187.72247 552.50684 13.140137
193.24364 552.50684 13.140137
200.59528 537.15051 38.126221
206.16751 537.15051 38.126221
211.73952 537.15051 38.126221
-157.49138 516.08716 61.776123
-149.07372 547.42456 10.98291
-143.55244 547.42456 10.98291
-138.03117 547.42456 10.98291
-132.5099 547.42456 10.98291
-126.98864 547.42456 10.98291
-121.46747 547.42456 10.98291
-115.94621 547.42456 10.98291
-110.42493 547.42456 10.98291
-104.90366 547.42456 10.98291
-99.382401 547.42456 10.98291
-93.861237 547.42456 10.98291
-88.339973 547.42456 10.98291
-82.818703 547.42456 10.98291
-77.297432 547.42456 10.98291
-71.776169 547.42456 10.98291
-66.255005 547.42456 10.98291
-61.293053 532.02148 35.948975
-55.720936 532.02148 35.948975
-50.148819 532.02148 35.948975
-44.576702 532.02148 35.948975
-39.372898 516.08716 61.776123
-33.748184 516.08716 61.776123
-28.123468 516.08716 61.776123
-22.498753 516.08716 61.776123
-17.031837 500.15271 87.603027
66.865166 532.02148 35.948975
72.437172 532.02148 35.948975
78.009399 532.02148 35.948975
83.581406 532.02148 35.948975
89.153404 532.02148 35.948975
94.725632 532.02148 35.948975
100.29764 532.02148 35.948975
104.90378 547.42456 10.98291
110.42493 547.42456 10.98291
115.9461 547.42456 10.98291
121.46747 547.42456 10.98291
126.98864 547.42456 10.98291
132.51001 547.42456 10.98291
138.03117 547.42456 10.98291
143.55234 547.42456 10.98291
149.07372 547.42456 10.98291
154.59486 547.42456 10.98291
160.11624 547.42456 10.98291
165.63741 547.42456 10.98291
171.15857 547.42456 10.98291
176.67995 547.42456 10.98291
182.2011 547.42456 10.98291
187.72247 547.42456 10.98291
193.24364 547.42456 10.98291
200.59528 532.02148 35.948975
206.16751 532.02148 35.948975
211.73952 532.02148 35.948975
-157.49138 510.90942 59.578369
-149.07372 542.34229 8.8254395
-143.55244 542.34229 8.8254395
-138.03117 542.34229 8.8254395
-132.5099 542.34229 8.8254395
-126.98864 542.34229 8.8254395
-121.46747 542.34229 8.8254395
-115.94621 542.34229 8.8254395
-110.42493 542.34229 8.8254395
-104.90366 542.34229 8.8254395
-99.382401 542.34229 8.8254395
-93.861237 542.34229 8.8254395
-88.339973 542.34229 8.8254395
-82.818703 542.34229 8.8254395
-77.297432 542.34229 8.8254395
-71.776169 542.34229 8.8254395
-66.865166 526.89221 33.771729
-61.293053 526.89221 33.771729
-56.246937 510.90942 59.578369
-50.622219 510.90942 59.578369
-44.997505 510.90942 59.578369
-39.7411 494.92676 85.384766
-34.063782 494.92676 85.384766
-28.386467 494.92676 85.384766
-22.709152 494.92676 85.384766
-17.194897 478.41113 112.05151
67.496368 510.90942 59.578369
73.120972 510.90942 59.578369
78.745796 510.90942 59.578369
84.370399 510.90942 59.578369
89.153404 526.89221 33.771729
94.725632 526.89221 33.771729
100.29764 526.89221 33.771729
105.86987 526.89221 33.771729
111.44187 526.89221 33.771729
115.9461 542.34229 8.8254395
121.46747 542.34229 8.8254395
126.98864 542.34229 8.8254395
132.51001 542.34229 8.8254395
138.03117 542.34229 8.8254395
143.55234 542.34229 8.8254395
149.07372 542.34229 8.8254395
154.59486 542.34229 8.8254395
160.11624 542.34229 8.8254395
165.63741 542.34229 8.8254395
171.15857 542.34229 8.8254395
176.67995 542.34229 8.8254395
182.2011 542.34229 8.8254395
187.72247 542.34229 8.8254395
195.02327 526.89221 33.771729
200.59528 526.89221 33.771729
208.11371 510.90942 59.578369
-149.07372 537.25989 6.6682129
-143.55244 537.25989 6.6682129
-138.03117 537.25989 6.6682129
-132.5099 537.25989 6.6682129
-126.98864 537.25989 6.6682129
-121.46747 537.25989 6.6682129
-115.94621 537.25989 6.6682129
-110.42493 537.25989 6.6682129
-104.90366 537.25989 6.6682129
-99.382401 537.25989 6.6682129
-93.861237 537.25989 6.6682129
-88.339973 537.25989 6.6682129
-82.818703 537.25989 6.6682129
-77.297432 537.25989 6.6682129
-71.776169 537.25989 6.6682129
-66.865166 521.76318 31.594482
-61.293053 521.76318 31.594482
-56.246937 505.73193 57.380615
-50.622219 505.73193 57.380615
-45.418304 489.70081 83.166504
-39.7411 489.70081 83.166504
-34.063782 489.70081 83.166504
-28.386467 489.70081 83.166504
-22.709152 489.70081 83.166504
-17.031837 489.70081 83.166504
-11.35463 489.70081 83.166504
67.496368 505.73193 57.380615
73.120972 505.73193 57.380615
78.745796 505.73193 57.380615
84.370399 505.73193 57.380615
89.99501 505.73193 57.380615
95.619835 505.73193 57.380615
101.24444 505.73193 57.380615
105.86987 521.76318 31.594482
111.44187 521.76318 31.594482
117.01388 521.76318 31.594482
122.58611 521.76318 31.594482
126.98864 537.25989 6.6682129
132.51001 537.25989 6.6682129
138.03117 537.25989 6.6682129
143.55234 537.25989 6.6682129
149.07372 537.25989 6.6682129
154.59486 537.25989 6.6682129
160.11624 537.25989 6.6682129
165.63741 537.25989 6.6682129
171.15857 537.25989 6.6682129
176.67995 537.25989 6.6682129
182.2011 537.25989 6.6682129
189.45126 521.76318 31.594482
195.02327 521.76318 31.594482
200.59528 521.76318 31.594482
208.11371 505.73193 57.380615
-144.87445 516.63391 29.41748
-139.30234 516.63391 29.41748
-133.73022 516.63391 29.41748
-128.15811 516.63391 29.41748
-121.46747 532.17749 4.5107422
-115.94621 532.17749 4.5107422
-110.42493 532.17749 4.5107422
-104.90366 532.17749 4.5107422
-99.382401 532.17749 4.5107422
-93.861237 532.17749 4.5107422
-88.339973 532.17749 4.5107422
-82.818703 532.17749 4.5107422
-77.297432 532.17749 4.5107422
-72.437172 516.63391 29.41748
-66.865166 516.63391 29.41748
-61.293053 516.63391 29.41748
-56.246937 500.55432 55.182861
-50.622219 500.55432 55.182861
-45.418304 484.47485 80.948242
-39.7411 484.47485 80.948242
-34.389904 467.85913 107.57251
-28.658234 467.85913 107.57251
-22.926565 467.85913 107.57251
-17.031837 484.47485 80.948242
-11.35463 484.47485 80.948242
67.496368 500.55432 55.182861
73.120972 500.55432 55.182861
78.745796 500.55432 55.182861
84.370399 500.55432 55.182861
89.99501 500.55432 55.182861
94.725632 516.63391 29.41748
100.29764 516.63391 29.41748
105.86987 516.63391 29.41748
111.44187 516.63391 29.41748
117.01388 516.63391 29.41748
122.58611 516.63391 29.41748
128.15811 516.63391 29.41748
132.51001 532.17749 4.5107422
138.03117 532.17749 4.5107422
143.55234 532.17749 4.5107422
149.07372 532.17749 4.5107422
154.59486 532.17749 4.5107422
160.11624 532.17749 4.5107422
165.63741 532.17749 4.5107422
172.73482 516.63391 29.41748
178.30704 516.63391 29.41748
183.87904 516.63391 29.41748
189.45126 516.63391 29.41748
196.86427 500.55432 55.182861
202.48888 500.55432 55.182861
-139.30234 511.50476 27.240234
-133.73022 511.50476 27.240234
-128.15811 511.50476 27.240234
-122.58611 511.50476 27.240234
-117.01398 511.50476 27.240234
-111.44187 511.50476 27.240234
-104.90366 527.09521 2.3535156
-99.382401 527.09521 2.3535156
-94.725632 511.50476 27.240234
-88.339973 527.09521 2.3535156
-82.818703 527.09521 2.3535156
-77.297432 527.09521 2.3535156
-72.437172 511.50476 27.240234
-66.865166 511.50476 27.240234
-61.871651 495.37671 52.985107
-56.246937 495.37671 52.985107
-50.622219 495.37671 52.985107
-45.418304 479.24878 78.729736
-40.121571 462.58313 105.33276
-34.389904 462.58313 105.33276
-28.658234 462.58313 105.33276
-22.926565 462.58313 105.33276
-17.194897 462.58313 105.33276
67.496368 495.37671 52.985107
73.120972 495.37671 52.985107
78.745796 495.37671 52.985107
84.370399 495.37671 52.985107
89.99501 495.37671 52.985107
94.725632 511.50476 27.240234
100.29764 511.50476 27.240234
105.86987 511.50476 27.240234
111.44187 511.50476 27.240234
117.01388 511.50476 27.240234
122.58611 511.50476 27.240234
128.15811 511.50476 27.240234
132.51001 527.09521 2.3535156
138.03117 527.09521 2.3535156
143.55234 527.09521 2.3535156
149.07372 527.09521 2.3535156
154.59486 527.09521 2.3535156
160.11624 527.09521 2.3535156
165.63741 527.09521 2.3535156
172.73482 511.50476 27.240234
178.30704 511.50476 27.240234
183.87904 511.50476 27.240234
191.23967 495.37671 52.985107
196.86427 495.37671 52.985107
202.48888 495.37671 52.985107
-139.30234 506.37573 25.062988
-133.73022 506.37573 25.062988
-128.15811 506.37573 25.062988
-122.58611 506.37573 25.062988
-117.01398 506.37573 25.062988
-111.44187 506.37573 25.062988
-105.86976 506.37573 25.062988
-100.29764 506.37573 25.062988
-94.725632 506.37573 25.062988
-89.153519 506.37573 25.062988
-83.581406 506.37573 25.062988
-78.009285 506.37573 25.062988
-72.437172 506.37573 25.062988
-66.865166 506.37573 25.062988
-61.871651 490.19922 50.787354
-56.772934 474.02283 76.511475
