ply
format ascii 1.0
comment PCL generated
element vertex 1589
property float x
property float y
property float z
element camera 0
property float view_px
property float view_py
property float view_pz
property float x_axisx
property float x_axisy
property float x_axisz
property float y_axisx
property float y_axisy
property float y_axisz
property float z_axisx
property float z_axisy
property float z_axisz
property float focal
property float scalex
property float scaley
property float centerx
property float centery
property int viewportx
property int viewporty
property float k1
property float k2
end_header
250.30241 798.646 389.20996
256.2619 798.646 389.20996
262.22162 798.646 389.20996
268.18112 798.646 389.20996
276.88281 784.4281 420.11108
282.90213 784.4281 420.11108
288.92123 784.4281 420.11108
297.94754 769.79236 451.92114
-147.86209 999.27319 -59.031738
-142.76338 999.27319 -59.031738
-137.66476 999.27319 -59.031738
-132.56606 999.27319 -59.031738
-127.46734 999.27319 -59.031738
-122.36862 999.27319 -59.031738
-117.26991 999.27319 -59.031738
-112.1713 999.27319 -59.031738
-107.07259 999.27319 -59.031738
-101.97387 999.27319 -59.031738
-97.707985 988.77856 -36.327393
-92.162254 922.0332 108.07227
-86.740929 922.0332 108.07227
-81.319603 922.0332 108.07227
-75.898277 922.0332 108.07227
-70.476952 922.0332 108.07227
-65.055725 922.0332 108.07227
-59.634396 922.0332 108.07227
-54.21307 922.0332 108.07227
-48.79174 922.0332 108.07227
-43.370415 922.0332 108.07227
-37.949188 922.0332 108.07227
-32.527863 922.0332 108.07227
-27.106535 922.0332 108.07227
-21.685207 922.0332 108.07227
-16.26388 922.0332 108.07227
-10.940842 910.2793 133.50098
-5.4704208 910.2793 133.50098
0 910.2793 133.50098
5.4703169 910.2793 133.50098
10.940842 910.2793 133.50098
16.563698 898.10559 159.83813
22.085073 898.10559 159.83813
27.606234 898.10559 159.83813
33.127396 898.10559 159.83813
38.648773 898.10559 159.83813
44.16993 898.10559 159.83813
49.691303 898.10559 159.83813
55.720936 885.93188 186.17505
61.292946 885.93188 186.17505
66.865166 885.93188 186.17505
72.437172 885.93188 186.17505
78.009399 885.93188 186.17505
82.818703 898.10559 159.83813
88.339859 898.10559 159.83813
94.725632 885.93188 186.17505
100.29764 885.93188 186.17505
105.86987 885.93188 186.17505
111.44187 885.93188 186.17505
117.01388 885.93188 186.17505
122.58611 885.93188 186.17505
129.3679 873.3385 213.42041
134.99274 873.3385 213.42041
140.61734 873.3385 213.42041
147.60954 860.745 240.66528
153.28697 860.745 240.66528
158.96417 860.745 240.66528
164.6416 860.745 240.66528
170.3188 860.745 240.66528
177.68095 847.73169 268.81885
183.41275 847.73169 268.81885
189.1443 847.73169 268.81885
194.87608 847.73169 268.81885
204.53511 820.8656 326.94189
210.37888 820.8656 326.94189
218.29883 807.43274 356.00342
224.19868 807.43274 356.00342
230.0988 807.43274 356.00342
238.38321 793.16003 386.88135
244.3427 793.16003 386.88135
250.30241 793.16003 386.88135
256.2619 793.16003 386.88135
262.22162 793.16003 386.88135
270.86371 778.88745 417.75928
276.88281 778.88745 417.75928
285.78638 764.19507 449.54517
294.81244 749.50269 481.3313
300.9545 749.50269 481.3313
-137.66476 994.57983 -61.023926
-132.56606 994.57983 -61.023926
-127.46734 994.57983 -61.023926
-122.36862 994.57983 -61.023926
-117.26991 994.57983 -61.023926
-113.13563 984.04492 -38.33667
-112.81651 928.84204 80.544189
-108.42614 917.04297 105.9541
-103.00481 917.04297 105.9541
-97.583481 917.04297 105.9541
-92.996849 905.2439 131.36353
-87.526421 905.2439 131.36353
-82.056 905.2439 131.36353
-75.898277 917.04297 105.9541
-70.476952 917.04297 105.9541
-65.055725 917.04297 105.9541
-59.634396 917.04297 105.9541
-54.21307 917.04297 105.9541
-48.79174 917.04297 105.9541
-43.370415 917.04297 105.9541
-37.949188 917.04297 105.9541
-32.822422 905.2439 131.36353
-27.352001 905.2439 131.36353
-21.881578 905.2439 131.36353
-16.41116 905.2439 131.36353
-11.042537 893.02332 157.68091
-5.5212684 893.02332 157.68091
0 893.02332 157.68091
5.521163 893.02332 157.68091
11.042537 893.02332 157.68091
16.563698 893.02332 157.68091
22.085073 893.02332 157.68091
27.606234 893.02332 157.68091
33.127396 893.02332 157.68091
38.648773 893.02332 157.68091
44.16993 893.02332 157.68091
49.691303 893.02332 157.68091
55.212467 893.02332 157.68091
60.733631 893.02332 157.68091
66.865166 880.80286 183.9978
72.437172 880.80286 183.9978
78.009399 880.80286 183.9978
83.581406 880.80286 183.9978
89.153404 880.80286 183.9978
94.725632 880.80286 183.9978
100.29764 880.80286 183.9978
105.86987 880.80286 183.9978
111.44187 880.80286 183.9978
117.01388 880.80286 183.9978
122.58611 880.80286 183.9978
128.15811 880.80286 183.9978
133.73033 880.80286 183.9978
140.61734 868.16101 211.22266
146.24194 868.16101 211.22266
153.28697 855.51904 238.44702
158.96417 855.51904 238.44702
164.6416 855.51904 238.44702
170.3188 855.51904 238.44702
177.68095 842.45581 266.57935
183.41275 842.45581 266.57935
189.1443 842.45581 266.57935
194.87608 842.45581 266.57935
202.51001 829.39258 294.71143
210.37888 815.48645 324.65845
218.29883 802.00183 353.698
224.19868 802.00183 353.698
230.0988 802.00183 353.698
238.38321 787.67432 384.55298
244.3427 787.67432 384.55298
250.30241 787.67432 384.55298
256.2619 787.67432 384.55298
262.22162 787.67432 384.55298
270.86371 773.3468 415.40747
276.88281 773.3468 415.40747
285.78638 758.5979 447.16943
294.81244 743.84912 478.93164
-128.56317 979.31116 -40.346191
-123.42062 979.31116 -40.346191
-117.14725 935.31812 53.961426
-112.81651 923.89673 78.445068
-108.42614 912.05249 103.83569
-103.00481 912.05249 103.83569
-98.467163 900.20825 129.22607
-92.996849 900.20825 129.22607
-87.526421 900.20825 129.22607
-82.056 900.20825 129.22607
-76.585587 900.20825 129.22607
-70.476952 912.05249 103.83569
-65.055725 912.05249 103.83569
-59.634396 912.05249 103.83569
-54.21307 912.05249 103.83569
-49.233582 900.20825 129.22607
-43.763157 900.20825 129.22607
-38.292843 900.20825 129.22607
-32.822422 900.20825 129.22607
-27.352001 900.20825 129.22607
-21.881578 900.20825 129.22607
-16.41116 900.20825 129.22607
-11.042537 887.94092 155.52344
-5.5212684 887.94092 155.52344
0 887.94092 155.52344
5.521163 887.94092 155.52344
11.042537 887.94092 155.52344
16.563698 887.94092 155.52344
22.085073 887.94092 155.52344
27.606234 887.94092 155.52344
33.127396 887.94092 155.52344
38.648773 887.94092 155.52344
44.16993 887.94092 155.52344
49.691303 887.94092 155.52344
55.212467 887.94092 155.52344
60.733631 887.94092 155.52344
66.865166 875.67358 181.82056
72.437172 875.67358 181.82056
78.009399 875.67358 181.82056
83.581406 875.67358 181.82056
89.153404 875.67358 181.82056
95.619835 862.9834 209.0249
101.24444 862.9834 209.0249
106.86926 862.9834 209.0249
111.44187 875.67358 181.82056
117.01388 875.67358 181.82056
122.58611 875.67358 181.82056
128.15811 875.67358 181.82056
133.73033 875.67358 181.82056
140.61734 862.9834 209.0249
146.24194 862.9834 209.0249
153.28697 850.29309 236.22876
158.96417 850.29309 236.22876
164.6416 850.29309 236.22876
170.3188 850.29309 236.22876
177.68095 837.17969 264.3396
183.41275 837.17969 264.3396
189.1443 837.17969 264.3396
194.87608 837.17969 264.3396
202.51001 824.06641 292.45068
210.37888 810.10706 322.37524
218.29883 796.5708 351.39282
224.19868 796.5708 351.39282
230.0988 796.5708 351.39282
238.38321 782.18848 382.22437
244.3427 782.18848 382.22437
250.30241 782.18848 382.22437
256.2619 782.18848 382.22437
262.22162 782.18848 382.22437
270.86371 767.80603 413.05542
276.88281 767.80603 413.05542
285.78638 753.00073 444.79346
294.81244 738.19543 476.53174
-136.76001 895.17285 127.08862
-131.28958 895.17285 127.08862
-123.56087 918.95166 76.346191
-118.18874 918.95166 76.346191
-113.84747 907.06226 101.71753
-108.42614 907.06226 101.71753
-103.93758 895.17285 127.08862
-98.467163 895.17285 127.08862
-92.996849 895.17285 127.08862
-87.526421 895.17285 127.08862
-82.056 895.17285 127.08862
-76.585587 895.17285 127.08862
-70.476952 907.06226 101.71753
-65.055725 907.06226 101.71753
-59.634396 907.06226 101.71753
-54.704002 895.17285 127.08862
-49.233582 895.17285 127.08862
-43.763157 895.17285 127.08862
-38.292843 895.17285 127.08862
-32.822422 895.17285 127.08862
-27.352001 895.17285 127.08862
-21.881578 895.17285 127.08862
-16.41116 895.17285 127.08862
-11.042537 882.85864 153.36621
-5.5212684 882.85864 153.36621
0 882.85864 153.36621
5.521163 882.85864 153.36621
11.042537 882.85864 153.36621
16.563698 882.85864 153.36621
22.085073 882.85864 153.36621
27.606234 882.85864 153.36621
33.127396 882.85864 153.36621
38.648773 882.85864 153.36621
44.16993 882.85864 153.36621
49.691303 882.85864 153.36621
55.212467 882.85864 153.36621
60.733631 882.85864 153.36621
66.255005 882.85864 153.36621
72.437172 870.54456 179.64355
78.009399 870.54456 179.64355
83.581406 870.54456 179.64355
89.153404 870.54456 179.64355
95.619835 857.80591 206.82715
101.24444 857.80591 206.82715
106.86926 857.80591 206.82715
111.44187 870.54456 179.64355
117.01388 870.54456 179.64355
122.58611 870.54456 179.64355
129.3679 857.80591 206.82715
134.99274 857.80591 206.82715
140.61734 857.80591 206.82715
147.60954 845.06714 234.0105
153.28697 845.06714 234.0105
158.96417 845.06714 234.0105
164.6416 845.06714 234.0105
171.9494 831.90381 262.1001
177.68095 831.90381 262.1001
183.41275 831.90381 262.1001
189.1443 831.90381 262.1001
194.87608 831.90381 262.1001
202.51001 818.74048 290.18994
210.37888 804.72778 320.0918
218.29883 791.13989 349.0874
224.19868 791.13989 349.0874
230.0988 791.13989 349.0874
238.38321 776.70264 379.89575
244.3427 776.70264 379.89575
250.30241 776.70264 379.89575
256.2619 776.70264 379.89575
262.22162 776.70264 379.89575
268.18112 776.70264 379.89575
274.14059 776.70264 379.89575
282.90213 762.26538 410.70361
294.81244 732.54187 474.13184
-136.76001 890.13721 124.95117
-131.28958 890.13721 124.95117
-125.81916 890.13721 124.95117
-120.34885 890.13721 124.95117
-114.87842 890.13721 124.95117
-109.408 890.13721 124.95117
-103.93758 890.13721 124.95117
-98.467163 890.13721 124.95117
-93.861237 877.77625 151.20874
-88.339973 877.77625 151.20874
-82.056 890.13721 124.95117
-76.585587 890.13721 124.95117
-70.476952 902.0719 99.599121
-65.055725 902.0719 99.599121
-59.634396 902.0719 99.599121
-54.21307 902.0719 99.599121
-48.79174 902.0719 99.599121
-43.763157 890.13721 124.95117
-38.292843 890.13721 124.95117
-32.822422 890.13721 124.95117
-27.352001 890.13721 124.95117
-21.881578 890.13721 124.95117
-16.41116 890.13721 124.95117
-11.042537 877.77625 151.20874
-5.5212684 877.77625 151.20874
0 877.77625 151.20874
5.521163 877.77625 151.20874
11.042537 877.77625 151.20874
16.563698 877.77625 151.20874
22.085073 877.77625 151.20874
27.606234 877.77625 151.20874
33.127396 877.77625 151.20874
38.648773 877.77625 151.20874
44.16993 877.77625 151.20874
49.691303 877.77625 151.20874
55.212467 877.77625 151.20874
60.733631 877.77625 151.20874
66.255005 877.77625 151.20874
72.437172 865.41541 177.46631
78.009399 865.41541 177.46631
83.581406 865.41541 177.46631
89.153404 865.41541 177.46631
95.619835 852.62817 204.62939
101.24444 852.62817 204.62939
106.86926 852.62817 204.62939
112.49387 852.62817 204.62939
118.11848 852.62817 204.62939
123.7433 852.62817 204.62939
129.3679 852.62817 204.62939
134.99274 852.62817 204.62939
141.93234 839.84106 231.79224
147.60954 839.84106 231.79224
153.28697 839.84106 231.79224
158.96417 839.84106 231.79224
164.6416 839.84106 231.79224
170.3188 839.84106 231.79224
177.68095 826.62769 259.8606
183.41275 826.62769 259.8606
189.1443 826.62769 259.8606
194.87608 826.62769 259.8606
200.60764 826.62769 259.8606
210.37888 799.34839 317.80835
216.22287 799.34839 317.80835
224.19868 785.70886 346.78223
230.0988 785.70886 346.78223
238.38321 771.2168 377.56714
244.3427 771.2168 377.56714
250.30241 771.2168 377.56714
256.2619 771.2168 377.56714
262.22162 771.2168 377.56714
268.18112 771.2168 377.56714
274.14059 771.2168 377.56714
282.90213 756.72461 408.35181
294.81244 726.88806 471.73193
-139.30234 860.28638 175.28906
-132.5099 872.69397 149.05151
-126.98864 872.69397 149.05151
-121.46747 872.69397 149.05151
-114.87842 885.10181 122.81372
-109.408 885.10181 122.81372
-103.93758 885.10181 122.81372
-98.467163 885.10181 122.81372
-93.861237 872.69397 149.05151
-88.339973 872.69397 149.05151
-82.056 885.10181 122.81372
-76.585587 885.10181 122.81372
-71.115158 885.10181 122.81372
-65.644844 885.10181 122.81372
-60.174423 885.10181 122.81372
-54.21307 897.08167 97.480957
-48.79174 897.08167 97.480957
-43.763157 885.10181 122.81372
-38.292843 885.10181 122.81372
-32.822422 885.10181 122.81372
-27.352001 885.10181 122.81372
-21.881578 885.10181 122.81372
-16.41116 885.10181 122.81372
-11.042537 872.69397 149.05151
-5.5212684 872.69397 149.05151
0 872.69397 149.05151
5.521163 872.69397 149.05151
11.042537 872.69397 149.05151
16.563698 872.69397 149.05151
22.085073 872.69397 149.05151
27.606234 872.69397 149.05151
33.127396 872.69397 149.05151
38.648773 872.69397 149.05151
44.16993 872.69397 149.05151
49.691303 872.69397 149.05151
55.720936 860.28638 175.28906
60.733631 872.69397 149.05151
66.255005 872.69397 149.05151
72.437172 860.28638 175.28906
78.745796 847.45081 202.43164
84.370399 847.45081 202.43164
89.99501 847.45081 202.43164
95.619835 847.45081 202.43164
101.24444 847.45081 202.43164
106.86926 847.45081 202.43164
112.49387 847.45081 202.43164
118.11848 847.45081 202.43164
123.7433 847.45081 202.43164
129.3679 847.45081 202.43164
134.99274 847.45081 202.43164
141.93234 834.61523 229.57397
147.60954 834.61523 229.57397
153.28697 834.61523 229.57397
158.96417 834.61523 229.57397
164.6416 834.61523 229.57397
170.3188 834.61523 229.57397
177.68095 821.35181 257.62109
183.41275 821.35181 257.62109
189.1443 821.35181 257.62109
194.87608 821.35181 257.62109
200.60764 821.35181 257.62109
210.37888 793.96924 315.52515
216.22287 793.96924 315.52515
224.19868 780.27808 344.47681
230.0988 780.27808 344.47681
238.38321 765.73108 375.23853
244.3427 765.73108 375.23853
250.30241 765.73108 375.23853
256.2619 765.73108 375.23853
262.22162 765.73108 375.23853
270.86371 751.18396 406
276.88281 751.18396 406
285.78638 736.20923 437.66602
294.81244 721.2345 469.33228
-146.24205 842.27319 200.23389
-139.30234 855.1571 173.11182
-132.5099 867.61157 146.89404
-126.98864 867.61157 146.89404
-121.46747 867.61157 146.89404
-114.87842 880.06616 120.67627
-109.408 880.06616 120.67627
-103.93758 880.06616 120.67627
-99.382401 867.61157 146.89404
-93.861237 867.61157 146.89404
-88.339973 867.61157 146.89404
-82.056 880.06616 120.67627
-76.585587 880.06616 120.67627
-71.115158 880.06616 120.67627
-65.644844 880.06616 120.67627
-60.174423 880.06616 120.67627
-54.704002 880.06616 120.67627
-49.233582 880.06616 120.67627
-43.763157 880.06616 120.67627
-38.292843 880.06616 120.67627
-32.822422 880.06616 120.67627
-27.352001 880.06616 120.67627
-21.881578 880.06616 120.67627
-16.41116 880.06616 120.67627
-11.042537 867.61157 146.89404
-5.5212684 867.61157 146.89404
0 867.61157 146.89404
5.521163 867.61157 146.89404
11.042537 867.61157 146.89404
16.563698 867.61157 146.89404
22.085073 867.61157 146.89404
27.606234 867.61157 146.89404
33.127396 867.61157 146.89404
38.648773 867.61157 146.89404
44.16993 867.61157 146.89404
49.691303 867.61157 146.89404
55.720936 855.1571 173.11182
61.292946 855.1571 173.11182
66.865166 855.1571 173.11182
72.437172 855.1571 173.11182
78.745796 842.27319 200.23389
84.370399 842.27319 200.23389
89.99501 842.27319 200.23389
95.619835 842.27319 200.23389
101.24444 842.27319 200.23389
106.86926 842.27319 200.23389
112.49387 842.27319 200.23389
118.11848 842.27319 200.23389
123.7433 842.27319 200.23389
129.3679 842.27319 200.23389
134.99274 842.27319 200.23389
141.93234 829.38916 227.35571
147.60954 829.38916 227.35571
153.28697 829.38916 227.35571
158.96417 829.38916 227.35571
164.6416 829.38916 227.35571
170.3188 829.38916 227.35571
177.68095 816.07568 255.38159
183.41275 816.07568 255.38159
189.1443 816.07568 255.38159
194.87608 816.07568 255.38159
200.60764 816.07568 255.38159
208.29593 802.76221 283.40747
218.29883 774.84705 342.17163
224.19868 774.84705 342.17163
230.0988 774.84705 342.17163
238.38321 760.24512 372.90991
244.3427 760.24512 372.90991
250.30241 760.24512 372.90991
256.2619 760.24512 372.90991
262.22162 760.24512 372.90991
268.18112 760.24512 372.90991
274.14059 760.24512 372.90991
285.78638 730.61194 435.29004
-146.24205 837.0957 198.03613
-139.30234 850.02808 170.93481
-133.73022 850.02808 170.93481
-128.15811 850.02808 170.93481
-122.58611 850.02808 170.93481
-114.87842 875.03076 118.53882
-109.408 875.03076 118.53882
-104.90366 862.5293 144.73682
-99.382401 862.5293 144.73682
-93.861237 862.5293 144.73682
-88.339973 862.5293 144.73682
-82.818703 862.5293 144.73682
-76.585587 875.03076 118.53882
-71.115158 875.03076 118.53882
-65.644844 875.03076 118.53882
-60.174423 875.03076 118.53882
-54.704002 875.03076 118.53882
-49.233582 875.03076 118.53882
-43.763157 875.03076 118.53882
-38.292843 875.03076 118.53882
-32.822422 875.03076 118.53882
-27.352001 875.03076 118.53882
-21.881578 875.03076 118.53882
-16.41116 875.03076 118.53882
-11.042537 862.5293 144.73682
-5.5212684 862.5293 144.73682
0 862.5293 144.73682
5.521163 862.5293 144.73682
11.042537 862.5293 144.73682
16.563698 862.5293 144.73682
22.085073 862.5293 144.73682
27.606234 862.5293 144.73682
33.127396 862.5293 144.73682
38.648773 862.5293 144.73682
44.16993 862.5293 144.73682
49.691303 862.5293 144.73682
55.212467 862.5293 144.73682
60.733631 862.5293 144.73682
66.255005 862.5293 144.73682
72.437172 850.02808 170.93481
78.009399 850.02808 170.93481
83.581406 850.02808 170.93481
89.99501 837.0957 198.03613
95.619835 837.0957 198.03613
101.24444 837.0957 198.03613
106.86926 837.0957 198.03613
112.49387 837.0957 198.03613
119.22308 824.16333 225.13745
124.90051 824.16333 225.13745
130.57771 824.16333 225.13745
136.25513 824.16333 225.13745
141.93234 824.16333 225.13745
147.60954 824.16333 225.13745
153.28697 824.16333 225.13745
158.96417 824.16333 225.13745
164.6416 824.16333 225.13745
170.3188 824.16333 225.13745
177.68095 810.7998 253.14209
183.41275 810.7998 253.14209
189.1443 810.7998 253.14209
194.87608 810.7998 253.14209
200.60764 810.7998 253.14209
208.29593 797.43628 281.14673
218.29883 769.41614 339.86621
224.19868 769.41614 339.86621
232.42372 754.7594 370.5813
238.38321 754.7594 370.5813
244.3427 754.7594 370.5813
250.30241 754.7594 370.5813
258.82529 740.10266 401.29614
264.8446 740.10266 401.29614
268.18112 754.7594 370.5813
274.14059 754.7594 370.5813
288.67062 709.92712 464.53247
-147.60965 818.93726 222.91895
-139.30234 844.8988 168.75757
-133.73022 844.8988 168.75757
-128.15811 844.8988 168.75757
-122.58611 844.8988 168.75757
-115.94621 857.4469 142.57959
-110.42493 857.4469 142.57959
-103.93758 869.99512 116.40137
-98.467163 869.99512 116.40137
-92.996849 869.99512 116.40137
-88.339973 857.4469 142.57959
-82.818703 857.4469 142.57959
-77.297432 857.4469 142.57959
-71.115158 869.99512 116.40137
-65.644844 869.99512 116.40137
-60.174423 869.99512 116.40137
-54.704002 869.99512 116.40137
-49.233582 869.99512 116.40137
-43.763157 869.99512 116.40137
-38.292843 869.99512 116.40137
-32.822422 869.99512 116.40137
-27.352001 869.99512 116.40137
-21.881578 869.99512 116.40137
-16.41116 869.99512 116.40137
-11.042537 857.4469 142.57959
-5.5212684 857.4469 142.57959
0 857.4469 142.57959
5.521163 857.4469 142.57959
11.042537 857.4469 142.57959
16.563698 857.4469 142.57959
22.085073 857.4469 142.57959
27.606234 857.4469 142.57959
33.127396 857.4469 142.57959
38.648773 857.4469 142.57959
44.16993 857.4469 142.57959
49.691303 857.4469 142.57959
55.212467 857.4469 142.57959
60.733631 857.4469 142.57959
66.255005 857.4469 142.57959
72.437172 844.8988 168.75757
78.009399 844.8988 168.75757
83.581406 844.8988 168.75757
89.99501 831.91797 195.83838
95.619835 831.91797 195.83838
101.24444 831.91797 195.83838
107.86867 818.93726 222.91895
113.54587 818.93726 222.91895
119.22308 818.93726 222.91895
124.90051 818.93726 222.91895
130.57771 818.93726 222.91895
136.25513 818.93726 222.91895
141.93234 818.93726 222.91895
147.60954 818.93726 222.91895
153.28697 818.93726 222.91895
158.96417 818.93726 222.91895
164.6416 818.93726 222.91895
170.3188 818.93726 222.91895
177.68095 805.52368 250.90259
183.41275 805.52368 250.90259
189.1443 805.52368 250.90259
194.87608 805.52368 250.90259
202.51001 792.11023 278.88599
208.29593 792.11023 278.88599
218.29883 763.98511 337.56104
224.19868 763.98511 337.56104
232.42372 749.27344 368.25269
238.38321 749.27344 368.25269
244.3427 749.27344 368.25269
250.30241 749.27344 368.25269
258.82529 734.56189 398.94409
264.8446 734.56189 398.94409
273.62521 719.4176 430.53833
279.70569 719.4176 430.53833
288.67062 704.27344 462.13257
-146.24205 826.7406 193.64062
-139.30234 839.76978 166.58032
-133.73022 839.76978 166.58032
-128.15811 839.76978 166.58032
-122.58611 839.76978 166.58032
-117.01398 839.76978 166.58032
-110.42493 852.36462 140.42212
-103.93758 864.95972 114.26392
-98.467163 864.95972 114.26392
-92.996849 864.95972 114.26392
-88.339973 852.36462 140.42212
-82.818703 852.36462 140.42212
-77.297432 852.36462 140.42212
-71.776169 852.36462 140.42212
-66.255005 852.36462 140.42212
-60.174423 864.95972 114.26392
-54.704002 864.95972 114.26392
-49.233582 864.95972 114.26392
-43.763157 864.95972 114.26392
-38.292843 864.95972 114.26392
-32.822422 864.95972 114.26392
-27.352001 864.95972 114.26392
-21.881578 864.95972 114.26392
-16.41116 864.95972 114.26392
-11.042537 852.36462 140.42212
-5.5212684 852.36462 140.42212
0 852.36462 140.42212
5.521163 852.36462 140.42212
11.042537 852.36462 140.42212
16.563698 852.36462 140.42212
22.085073 852.36462 140.42212
27.606234 852.36462 140.42212
33.127396 852.36462 140.42212
38.648773 852.36462 140.42212
44.16993 852.36462 140.42212
49.691303 852.36462 140.42212
55.720936 839.76978 166.58032
61.292946 839.76978 166.58032
66.865166 839.76978 166.58032
72.437172 839.76978 166.58032
78.009399 839.76978 166.58032
83.581406 839.76978 166.58032
89.99501 826.7406 193.64062
95.619835 826.7406 193.64062
101.24444 826.7406 193.64062
107.86867 813.7113 220.70068
113.54587 813.7113 220.70068
119.22308 813.7113 220.70068
124.90051 813.7113 220.70068
130.57771 813.7113 220.70068
136.25513 813.7113 220.70068
141.93234 813.7113 220.70068
147.60954 813.7113 220.70068
153.28697 813.7113 220.70068
158.96417 813.7113 220.70068
164.6416 813.7113 220.70068
170.3188 813.7113 220.70068
177.68095 800.2478 248.66309
183.41275 800.2478 248.66309
189.1443 800.2478 248.66309
196.72409 786.78418 276.62524
202.51001 786.78418 276.62524
210.37888 772.45203 306.3916
218.29883 758.55432 335.25562
224.19868 758.55432 335.25562
232.42372 743.78772 365.92407
238.38321 743.78772 365.92407
244.3427 743.78772 365.92407
250.30241 743.78772 365.92407
256.2619 743.78772 365.92407
262.22162 743.78772 365.92407
270.86371 729.02124 396.59229
279.70569 713.82056 428.1626
285.78638 713.82056 428.1626
-146.24205 821.56299 191.44287
-140.61734 821.56299 191.44287
-133.73022 834.64062 164.40308
-128.15811 834.64062 164.40308
-122.58611 834.64062 164.40308
-117.01398 834.64062 164.40308
-110.42493 847.28223 138.26489
-104.90366 847.28223 138.26489
-98.467163 859.92407 112.12622
-92.996849 859.92407 112.12622
-88.339973 847.28223 138.26489
-82.818703 847.28223 138.26489
-77.297432 847.28223 138.26489
-71.776169 847.28223 138.26489
-66.255005 847.28223 138.26489
-60.174423 859.92407 112.12622
-54.704002 859.92407 112.12622
-49.233582 859.92407 112.12622
-43.763157 859.92407 112.12622
-38.292843 859.92407 112.12622
-32.822422 859.92407 112.12622
-27.352001 859.92407 112.12622
-21.881578 859.92407 112.12622
-16.41116 859.92407 112.12622
-11.042537 847.28223 138.26489
-5.5212684 847.28223 138.26489
0 847.28223 138.26489
5.521163 847.28223 138.26489
11.042537 847.28223 138.26489
16.563698 847.28223 138.26489
22.085073 847.28223 138.26489
27.606234 847.28223 138.26489
33.127396 847.28223 138.26489
38.648773 847.28223 138.26489
44.16993 847.28223 138.26489
49.691303 847.28223 138.26489
55.720936 834.64062 164.40308
61.292946 834.64062 164.40308
66.865166 834.64062 164.40308
72.437172 834.64062 164.40308
78.009399 834.64062 164.40308
83.581406 834.64062 164.40308
89.153404 834.64062 164.40308
95.619835 821.56299 191.44287
101.24444 821.56299 191.44287
107.86867 808.48535 218.48242
113.54587 808.48535 218.48242
119.22308 808.48535 218.48242
124.90051 808.48535 218.48242
130.57771 808.48535 218.48242
136.25513 808.48535 218.48242
141.93234 808.48535 218.48242
147.60954 808.48535 218.48242
153.28697 808.48535 218.48242
158.96417 808.48535 218.48242
164.6416 808.48535 218.48242
170.3188 808.48535 218.48242
177.68095 794.97168 246.42334
183.41275 794.97168 246.42334
189.1443 794.97168 246.42334
196.72409 781.45813 274.3645
202.51001 781.45813 274.3645
210.37888 767.07263 304.10815
218.29883 753.12329 332.95044
224.19868 753.12329 332.95044
232.42372 738.30188 363.59546
238.38321 738.30188 363.59546
244.3427 738.30188 363.59546
250.30241 738.30188 363.59546
256.2619 738.30188 363.59546
262.22162 738.30188 363.59546
270.86371 723.48047 394.24048
279.70569 708.22327 425.78662
285.78638 708.22327 425.78662
-147.60965 803.2594 216.26416
-140.61734 816.3855 189.24512
-134.99263 816.3855 189.24512
-129.3679 816.3855 189.24512
-122.58611 829.51147 162.22607
-117.01398 829.51147 162.22607
-111.44187 829.51147 162.22607
-104.90366 842.19995 136.10767
-98.467163 854.88867 109.98901
-92.996849 854.88867 109.98901
-88.339973 842.19995 136.10767
-82.818703 842.19995 136.10767
-77.297432 842.19995 136.10767
-71.776169 842.19995 136.10767
-66.255005 842.19995 136.10767
-60.174423 854.88867 109.98901
-54.704002 854.88867 109.98901
-49.233582 854.88867 109.98901
-43.763157 854.88867 109.98901
-38.292843 854.88867 109.98901
-32.822422 854.88867 109.98901
-27.352001 854.88867 109.98901
-21.881578 854.88867 109.98901
-16.41116 854.88867 109.98901
-11.042537 842.19995 136.10767
-5.5212684 842.19995 136.10767
0 842.19995 136.10767
5.521163 842.19995 136.10767
11.042537 842.19995 136.10767
16.563698 842.19995 136.10767
22.085073 842.19995 136.10767
27.606234 842.19995 136.10767
33.127396 842.19995 136.10767
38.648773 842.19995 136.10767
44.16993 842.19995 136.10767
49.691303 842.19995 136.10767
55.720936 829.51147 162.22607
61.292946 829.51147 162.22607
66.255005 842.19995 136.10767
71.776169 842.19995 136.10767
77.297546 842.19995 136.10767
83.581406 829.51147 162.22607
89.153404 829.51147 162.22607
95.619835 816.3855 189.24512
101.24444 816.3855 189.24512
107.86867 803.2594 216.26416
113.54587 803.2594 216.26416
119.22308 803.2594 216.26416
124.90051 803.2594 216.26416
130.57771 803.2594 216.26416
136.25513 803.2594 216.26416
141.93234 803.2594 216.26416
147.60954 803.2594 216.26416
153.28697 803.2594 216.26416
158.96417 803.2594 216.26416
166.21785 789.6958 244.18384
171.9494 789.6958 244.18384
177.68095 789.6958 244.18384
185.15205 776.1322 272.10376
190.93796 776.1322 272.10376
198.69133 761.69348 301.82471
204.53511 761.69348 301.82471
212.39873 747.69238 330.64502
218.29883 747.69238 330.64502
226.464 732.81616 361.26685
232.42372 732.81616 361.26685
238.38321 732.81616 361.26685
244.3427 732.81616 361.26685
250.30241 732.81616 361.26685
256.2619 732.81616 361.26685
264.8446 717.93982 391.88867
270.86371 717.93982 391.88867
279.70569 702.62622 423.41064
288.67062 687.3125 454.93311
-140.61734 811.20776 187.04736
-134.99263 811.20776 187.04736
-129.3679 811.20776 187.04736
-123.7433 811.20776 187.04736
-117.01398 824.38232 160.04883
-111.44187 824.38232 160.04883
-104.90366 837.11768 133.9502
-99.382401 837.11768 133.9502
-93.861237 837.11768 133.9502
-88.339973 837.11768 133.9502
-82.818703 837.11768 133.9502
-77.297432 837.11768 133.9502
-71.776169 837.11768 133.9502
-66.255005 837.11768 133.9502
-60.174423 849.85303 107.85132
-54.704002 849.85303 107.85132
-49.233582 849.85303 107.85132
-43.763157 849.85303 107.85132
-38.292843 849.85303 107.85132
-32.822422 849.85303 107.85132
-27.352001 849.85303 107.85132
-21.881578 849.85303 107.85132
-16.41116 849.85303 107.85132
-11.042537 837.11768 133.9502
-5.5212684 837.11768 133.9502
0 837.11768 133.9502
5.521163 837.11768 133.9502
11.042537 837.11768 133.9502
16.563698 837.11768 133.9502
22.085073 837.11768 133.9502
27.606234 837.11768 133.9502
33.127396 837.11768 133.9502
38.648773 837.11768 133.9502
44.16993 837.11768 133.9502
49.691303 837.11768 133.9502
55.720936 824.38232 160.04883
61.292946 824.38232 160.04883
66.255005 837.11768 133.9502
71.776169 837.11768 133.9502
77.297546 837.11768 133.9502
83.581406 824.38232 160.04883
89.153404 824.38232 160.04883
95.619835 811.20776 187.04736
102.19124 798.03333 214.0459
107.86867 798.03333 214.0459
113.54587 798.03333 214.0459
119.22308 798.03333 214.0459
124.90051 798.03333 214.0459
130.57771 798.03333 214.0459
136.25513 798.03333 214.0459
141.93234 798.03333 214.0459
147.60954 798.03333 214.0459
153.28697 798.03333 214.0459
160.48607 784.41968 241.94434
166.21785 784.41968 241.94434
171.9494 784.41968 241.94434
177.68095 784.41968 241.94434
185.15205 770.80603 269.84302
190.93796 770.80603 269.84302
198.69133 756.31409 299.5415
204.53511 756.31409 299.5415
212.39873 742.26135 328.33984
218.29883 742.26135 328.33984
226.464 727.3302 358.93823
232.42372 727.3302 358.93823
238.38321 727.3302 358.93823
244.3427 727.3302 358.93823
250.30241 727.3302 358.93823
256.2619 727.3302 358.93823
264.8446 712.39905 389.53662
270.86371 712.39905 389.53662
279.70569 697.02893 421.03491
-141.93234 792.80725 211.82764
-134.99263 806.03015 184.84961
-129.3679 806.03015 184.84961
-123.7433 806.03015 184.84961
-117.01398 819.25305 157.87158
-111.44187 819.25305 157.87158
-105.86976 819.25305 157.87158
-99.382401 832.03516 131.79297
-93.861237 832.03516 131.79297
-88.339973 832.03516 131.79297
-82.818703 832.03516 131.79297
-77.297432 832.03516 131.79297
-71.776169 832.03516 131.79297
-66.255005 832.03516 131.79297
-60.174423 844.8175 105.71387
-54.704002 844.8175 105.71387
-49.233582 844.8175 105.71387
-43.763157 844.8175 105.71387
-38.292843 844.8175 105.71387
-32.822422 844.8175 105.71387
-27.352001 844.8175 105.71387
-21.881578 844.8175 105.71387
-16.41116 844.8175 105.71387
-11.042537 832.03516 131.79297
-5.5212684 832.03516 131.79297
0 832.03516 131.79297
5.521163 832.03516 131.79297
11.042537 832.03516 131.79297
16.563698 832.03516 131.79297
22.085073 832.03516 131.79297
27.860468 819.25305 157.87158
33.127396 832.03516 131.79297
38.648773 832.03516 131.79297
44.576702 819.25305 157.87158
50.148926 819.25305 157.87158
55.720936 819.25305 157.87158
61.292946 819.25305 157.87158
66.865166 819.25305 157.87158
72.437172 819.25305 157.87158
78.009399 819.25305 157.87158
83.581406 819.25305 157.87158
89.99501 806.03015 184.84961
96.514038 792.80725 211.82764
102.19124 792.80725 211.82764
107.86867 792.80725 211.82764
113.54587 792.80725 211.82764
119.22308 792.80725 211.82764
124.90051 792.80725 211.82764
130.57771 792.80725 211.82764
136.25513 792.80725 211.82764
141.93234 792.80725 211.82764
147.60954 792.80725 211.82764
153.28697 792.80725 211.82764
160.48607 779.14355 239.70483
166.21785 779.14355 239.70483
171.9494 779.14355 239.70483
177.68095 779.14355 239.70483
185.15205 765.47998 267.58203
192.84734 750.93469 297.25806
198.69133 750.93469 297.25806
204.53511 750.93469 297.25806
212.39873 736.83032 326.03442
218.29883 736.83032 326.03442
226.464 721.84436 356.60962
232.42372 721.84436 356.60962
238.38321 721.84436 356.60962
244.3427 721.84436 356.60962
250.30241 721.84436 356.60962
256.2619 721.84436 356.60962
264.8446 706.85828 387.18481
270.86371 706.85828 387.18481
279.70569 691.43164 418.65894
-141.93234 787.58142 209.60938
-134.99263 800.85278 182.65186
-129.3679 800.85278 182.65186
-123.7433 800.85278 182.65186
-118.11858 800.85278 182.65186
-111.44187 814.12402 155.69434
-105.86976 814.12402 155.69434
-99.382401 826.953 129.6355
-93.861237 826.953 129.6355
-88.339973 826.953 129.6355
-82.818703 826.953 129.6355
-77.297432 826.953 129.6355
-71.115158 839.78198 103.57642
-65.644844 839.78198 103.57642
-60.174423 839.78198 103.57642
-54.704002 839.78198 103.57642
-49.233582 839.78198 103.57642
-43.763157 839.78198 103.57642
-38.292843 839.78198 103.57642
-32.822422 839.78198 103.57642
-27.352001 839.78198 103.57642
-21.881578 839.78198 103.57642
-16.41116 839.78198 103.57642
-11.14423 814.12402 155.69434
-5.5721149 814.12402 155.69434
0 814.12402 155.69434
5.5720086 814.12402 155.69434
11.042537 826.953 129.6355
16.563698 826.953 129.6355
22.28846 814.12402 155.69434
27.860468 814.12402 155.69434
33.432476 814.12402 155.69434
39.0047 814.12402 155.69434
44.576702 814.12402 155.69434
50.148926 814.12402 155.69434
55.720936 814.12402 155.69434
61.871544 800.85278 182.65186
66.865166 814.12402 155.69434
72.437172 814.12402 155.69434
78.009399 814.12402 155.69434
84.370399 800.85278 182.65186
90.836609 787.58142 209.60938
96.514038 787.58142 209.60938
101.24444 800.85278 182.65186
106.86926 800.85278 182.65186
113.54587 787.58142 209.60938
119.22308 787.58142 209.60938
124.90051 787.58142 209.60938
130.57771 787.58142 209.60938
136.25513 787.58142 209.60938
141.93234 787.58142 209.60938
147.60954 787.58142 209.60938
154.75452 773.86768 237.46533
160.48607 773.86768 237.46533
166.21785 773.86768 237.46533
173.58 760.15393 265.32129
179.36592 760.15393 265.32129
185.15205 760.15393 265.32129
192.84734 745.55542 294.97461
198.69133 745.55542 294.97461
206.49884 731.39954 323.72925
212.39873 731.39954 323.72925
220.50452 716.35864 354.28125
226.464 716.35864 354.28125
232.42372 716.35864 354.28125
238.38321 716.35864 354.28125
244.3427 716.35864 354.28125
250.30241 716.35864 354.28125
258.82529 701.31775 384.83301
264.8446 701.31775 384.83301
270.86371 701.31775 384.83301
279.70569 685.83459 416.2832
285.78638 685.83459 416.2832
-136.25502 782.35535 207.39087
-129.3679 795.67505 180.4541
-123.7433 795.67505 180.4541
-117.01398 808.99487 153.51709
-111.44187 808.99487 153.51709
-105.86976 808.99487 153.51709
-99.382401 821.87061 127.47827
-93.861237 821.87061 127.47827
-88.339973 821.87061 127.47827
-82.818703 821.87061 127.47827
-77.297432 821.87061 127.47827
-71.115158 834.74634 101.43896
-65.644844 834.74634 101.43896
-60.174423 834.74634 101.43896
-54.704002 834.74634 101.43896
-49.233582 834.74634 101.43896
-43.763157 834.74634 101.43896
-38.648773 821.87061 127.47827
-33.127502 821.87061 127.47827
-27.606234 821.87061 127.47827
-22.084965 821.87061 127.47827
-16.563698 821.87061 127.47827
-11.14423 808.99487 153.51709
-5.5721149 808.99487 153.51709
0 808.99487 153.51709
5.5720086 808.99487 153.51709
11.042537 821.87061 127.47827
16.563698 821.87061 127.47827
22.28846 808.99487 153.51709
27.860468 808.99487 153.51709
33.432476 808.99487 153.51709
39.0047 808.99487 153.51709
44.576702 808.99487 153.51709
50.148926 808.99487 153.51709
56.246937 795.67505 180.4541
61.871544 795.67505 180.4541
67.496368 795.67505 180.4541
73.120972 795.67505 180.4541
78.745796 795.67505 180.4541
84.370399 795.67505 180.4541
89.99501 795.67505 180.4541
96.514038 782.35535 207.39087
101.24444 795.67505 180.4541
106.86926 795.67505 180.4541
113.54587 782.35535 207.39087
119.22308 782.35535 207.39087
124.90051 782.35535 207.39087
130.57771 782.35535 207.39087
136.25513 782.35535 207.39087
141.93234 782.35535 207.39087
149.02272 768.59155 235.22583
154.75452 768.59155 235.22583
160.48607 768.59155 235.22583
167.7941 754.82788 263.06055
173.58 754.82788 263.06055
179.36592 754.82788 263.06055
185.15205 754.82788 263.06055
192.84734 740.17615 292.69116
200.59895 725.96851 321.42383
206.49884 725.96851 321.42383
214.54478 710.87268 351.95264
220.50452 710.87268 351.95264
226.464 710.87268 351.95264
232.42372 710.87268 351.95264
238.38321 710.87268 351.95264
244.3427 710.87268 351.95264
250.30241 710.87268 351.95264
258.82529 695.77698 382.48096
264.8446 695.77698 382.48096
270.86371 695.77698 382.48096
279.70569 680.2373 413.90723
285.78638 680.2373 413.90723
294.81244 664.69763 445.33374
-129.3679 790.49756 178.25659
-123.7433 790.49756 178.25659
-117.01398 803.86572 151.34009
-111.44187 803.86572 151.34009
-105.86976 803.86572 151.34009
-99.382401 816.78833 125.32104
-93.861237 816.78833 125.32104
-88.339973 816.78833 125.32104
-82.818703 816.78833 125.32104
-77.297432 816.78833 125.32104
-71.776169 816.78833 125.32104
-65.644844 829.71094 99.301514
-60.174423 829.71094 99.301514
-55.212467 816.78833 125.32104
-49.6912 816.78833 125.32104
-44.16993 816.78833 125.32104
-38.648773 816.78833 125.32104
-33.127502 816.78833 125.32104
-27.606234 816.78833 125.32104
-22.084965 816.78833 125.32104
-16.563698 816.78833 125.32104
-11.14423 803.86572 151.34009
-5.5721149 803.86572 151.34009
0 803.86572 151.34009
5.5720086 803.86572 151.34009
11.042537 816.78833 125.32104
16.563698 816.78833 125.32104
22.28846 803.86572 151.34009
27.860468 803.86572 151.34009
33.432476 803.86572 151.34009
39.0047 803.86572 151.34009
44.576702 803.86572 151.34009
50.148926 803.86572 151.34009
56.246937 790.49756 178.25659
61.871544 790.49756 178.25659
67.496368 790.49756 178.25659
73.120972 790.49756 178.25659
78.745796 790.49756 178.25659
84.370399 790.49756 178.25659
89.99501 790.49756 178.25659
96.514038 777.12939 205.17261
102.19124 777.12939 205.17261
107.86867 777.12939 205.17261
113.54587 777.12939 205.17261
119.22308 777.12939 205.17261
124.90051 777.12939 205.17261
130.57771 777.12939 205.17261
137.55962 763.31567 232.98633
143.29117 763.31567 232.98633
149.02272 763.31567 232.98633
154.75452 763.31567 232.98633
162.00795 749.50195 260.7998
167.7941 749.50195 260.7998
175.31581 734.79688 290.40796
181.15958 734.79688 290.40796
187.00357 734.79688 290.40796
192.84734 734.79688 290.40796
200.59895 720.5376 319.11865
206.49884 720.5376 319.11865
214.54478 705.38696 349.62402
220.50452 705.38696 349.62402
226.464 705.38696 349.62402
232.42372 705.38696 349.62402
238.38321 705.38696 349.62402
244.3427 705.38696 349.62402
250.30241 705.38696 349.62402
256.2619 705.38696 349.62402
262.22162 705.38696 349.62402
270.86371 690.23633 380.12915
279.70569 674.64014 411.53149
285.78638 674.64014 411.53149
294.81244 659.04407 442.93384
-129.3679 785.31995 176.05859
-123.7433 785.31995 176.05859
-118.11858 785.31995 176.05859
-111.44187 798.73657 149.16284
-105.86976 798.73657 149.16284
-100.29764 798.73657 149.16284
-94.725632 798.73657 149.16284
-89.153519 798.73657 149.16284
-83.581406 798.73657 149.16284
-78.009285 798.73657 149.16284
-71.776169 811.70593 123.16357
-66.255005 811.70593 123.16357
-60.733734 811.70593 123.16357
-55.212467 811.70593 123.16357
-49.6912 811.70593 123.16357
-44.16993 811.70593 123.16357
-38.648773 811.70593 123.16357
-33.127502 811.70593 123.16357
-27.606234 811.70593 123.16357
-22.084965 811.70593 123.16357
-16.563698 811.70593 123.16357
-11.14423 798.73657 149.16284
-5.5721149 798.73657 149.16284
0 798.73657 149.16284
5.5720086 798.73657 149.16284
11.14423 798.73657 149.16284
16.716238 798.73657 149.16284
22.28846 798.73657 149.16284
28.123468 785.31995 176.05859
33.748077 785.31995 176.05859
39.372898 785.31995 176.05859
44.576702 798.73657 149.16284
50.148926 798.73657 149.16284
56.246937 785.31995 176.05859
61.871544 785.31995 176.05859
67.496368 785.31995 176.05859
73.120972 785.31995 176.05859
78.745796 785.31995 176.05859
84.370399 785.31995 176.05859
89.99501 785.31995 176.05859
96.514038 771.90344 202.95435
102.19124 771.90344 202.95435
107.86867 771.90344 202.95435
113.54587 771.90344 202.95435
119.22308 771.90344 202.95435
124.90051 771.90344 202.95435
131.82784 758.03955 230.74658
137.55962 758.03955 230.74658
143.29117 758.03955 230.74658
150.43591 744.17578 258.53906
156.22206 744.17578 258.53906
162.00795 744.17578 258.53906
167.7941 744.17578 258.53906
175.31581 729.41748 288.12451
181.15958 729.41748 288.12451
187.00357 729.41748 288.12451
194.69885 715.10657 316.81323
200.59895 715.10657 316.81323
206.49884 715.10657 316.81323
214.54478 699.90112 347.29541
220.50452 699.90112 347.29541
226.464 699.90112 347.29541
232.42372 699.90112 347.29541
238.38321 699.90112 347.29541
244.3427 699.90112 347.29541
250.30241 699.90112 347.29541
256.2619 699.90112 347.29541
262.22162 699.90112 347.29541
270.86371 684.69556 377.77734
279.70569 669.04297 409.15552
285.78638 669.04297 409.15552
-129.3679 780.14246 173.86108
-123.7433 780.14246 173.86108
-117.01398 793.60754 146.9856
-111.44187 793.60754 146.9856
-105.86976 793.60754 146.9856
-100.29764 793.60754 146.9856
-94.725632 793.60754 146.9856
-89.153519 793.60754 146.9856
-83.581406 793.60754 146.9856
-78.009285 793.60754 146.9856
-71.776169 806.62366 121.00635
-66.255005 806.62366 121.00635
-60.733734 806.62366 121.00635
-55.212467 806.62366 121.00635
-49.6912 806.62366 121.00635
-44.16993 806.62366 121.00635
-38.648773 806.62366 121.00635
-33.127502 806.62366 121.00635
-27.860468 793.60754 146.9856
-22.288351 793.60754 146.9856
-16.716238 793.60754 146.9856
-11.14423 793.60754 146.9856
-5.5721149 793.60754 146.9856
0 793.60754 146.9856
5.6246076 780.14246 173.86108
11.14423 793.60754 146.9856
16.716238 793.60754 146.9856
22.498859 780.14246 173.86108
28.123468 780.14246 173.86108
33.748077 780.14246 173.86108
39.372898 780.14246 173.86108
44.997505 780.14246 173.86108
50.622326 780.14246 173.86108
56.246937 780.14246 173.86108
61.871544 780.14246 173.86108
67.496368 780.14246 173.86108
73.120972 780.14246 173.86108
78.745796 780.14246 173.86108
84.370399 780.14246 173.86108
90.836609 766.67749 200.73608
96.514038 766.67749 200.73608
102.19124 766.67749 200.73608
107.86867 766.67749 200.73608
113.54587 766.67749 200.73608
120.36449 752.76367 228.50732
126.09628 752.76367 228.50732
131.82784 752.76367 228.50732
137.55962 752.76367 228.50732
143.29117 752.76367 228.50732
150.43591 738.84985 256.27832
156.22206 738.84985 256.27832
162.00795 738.84985 256.27832
169.47203 724.03833 285.84106
175.31581 724.03833 285.84106
181.15958 724.03833 285.84106
187.00357 724.03833 285.84106
194.69885 709.67578 314.50806
200.59895 709.67578 314.50806
206.49884 709.67578 314.50806
214.54478 694.41528 344.9668
220.50452 694.41528 344.9668
226.464 694.41528 344.9668
232.42372 694.41528 344.9668
238.38321 694.41528 344.9668
244.3427 694.41528 344.9668
250.30241 694.41528 344.9668
258.82529 679.15491 375.42529
264.8446 679.15491 375.42529
270.86371 679.15491 375.42529
279.70569 663.4458 406.77979
285.78638 663.4458 406.77979
-129.3679 774.96484 171.66333
-123.7433 774.96484 171.66333
-117.01398 788.47827 144.80835
-111.44187 788.47827 144.80835
-105.86976 788.47827 144.80835
-100.29764 788.47827 144.80835
-94.725632 788.47827 144.80835
-89.153519 788.47827 144.80835
-83.581406 788.47827 144.80835
-78.009285 788.47827 144.80835
-72.437172 788.47827 144.80835
-66.255005 801.54126 118.84888
-60.733734 801.54126 118.84888
-55.212467 801.54126 118.84888
-49.6912 801.54126 118.84888
-44.16993 801.54126 118.84888
-38.648773 801.54126 118.84888
-33.127502 801.54126 118.84888
-27.860468 788.47827 144.80835
-22.288351 788.47827 144.80835
-16.716238 788.47827 144.80835
-11.14423 788.47827 144.80835
-5.5721149 788.47827 144.80835
0 788.47827 144.80835
5.6246076 774.96484 171.66333
11.24943 774.96484 171.66333
16.874039 774.96484 171.66333
22.498859 774.96484 171.66333
28.123468 774.96484 171.66333
33.748077 774.96484 171.66333
39.372898 774.96484 171.66333
44.997505 774.96484 171.66333
50.622326 774.96484 171.66333
56.246937 774.96484 171.66333
61.871544 774.96484 171.66333
68.127563 761.45142 198.51782
73.804771 761.45142 198.51782
79.482201 761.45142 198.51782
85.159401 761.45142 198.51782
90.836609 761.45142 198.51782
96.514038 761.45142 198.51782
102.19124 761.45142 198.51782
107.86867 761.45142 198.51782
113.54587 761.45142 198.51782
120.36449 747.48755 226.26758
126.09628 747.48755 226.26758
131.82784 747.48755 226.26758
137.55962 747.48755 226.26758
143.29117 747.48755 226.26758
150.43591 733.52368 254.01758
157.78427 718.65894 283.55762
162.00795 733.52368 254.01758
167.7941 733.52368 254.01758
175.31581 718.65894 283.55762
181.15958 718.65894 283.55762
187.00357 718.65894 283.55762
194.69885 704.24475 312.20264
200.59895 704.24475 312.20264
206.49884 704.24475 312.20264
214.54478 688.92944 342.63818
220.50452 688.92944 342.63818
226.464 688.92944 342.63818
234.74864 673.61414 373.07349
238.38321 688.92944 342.63818
244.3427 688.92944 342.63818
252.80617 673.61414 373.07349
258.82529 673.61414 373.07349
264.8446 673.61414 373.07349
270.86371 673.61414 373.07349
279.70569 657.84863 404.40381
285.78638 657.84863 404.40381
-117.01398 783.34924 142.63135
-111.44187 783.34924 142.63135
-105.86976 783.34924 142.63135
-100.29764 783.34924 142.63135
-94.725632 783.34924 142.63135
-89.153519 783.34924 142.63135
-84.370399 769.78735 169.46558
-78.009285 783.34924 142.63135
-72.437172 783.34924 142.63135
-66.255005 796.45898 116.69165
-60.733734 796.45898 116.69165
-55.212467 796.45898 116.69165
-49.6912 796.45898 116.69165
-44.16993 796.45898 116.69165
-38.648773 796.45898 116.69165
-33.432583 783.34924 142.63135
-27.860468 783.34924 142.63135
-22.288351 783.34924 142.63135
-16.716238 783.34924 142.63135
-11.14423 783.34924 142.63135
-5.5721149 783.34924 142.63135
0 783.34924 142.63135
5.6246076 769.78735 169.46558
11.24943 769.78735 169.46558
16.874039 769.78735 169.46558
22.498859 769.78735 169.46558
28.386467 756.22559 196.29956
34.063675 756.22559 196.29956
39.7411 756.22559 196.29956
44.997505 769.78735 169.46558
50.622326 769.78735 169.46558
56.772934 756.22559 196.29956
62.450146 756.22559 196.29956
68.127563 756.22559 196.29956
73.804771 756.22559 196.29956
79.482201 756.22559 196.29956
85.159401 756.22559 196.29956
90.836609 756.22559 196.29956
96.514038 756.22559 196.29956
102.19124 756.22559 196.29956
107.86867 756.22559 196.29956
114.63293 742.21167 224.02808
120.36449 742.21167 224.02808
126.09628 742.21167 224.02808
131.82784 742.21167 224.02808
137.55962 742.21167 224.02808
143.29117 742.21167 224.02808
150.43591 728.19775 251.75684
157.78427 713.27966 281.27441
162.00795 728.19775 251.75684
167.7941 728.19775 251.75684
175.31581 713.27966 281.27441
182.8989 698.81384 309.89746
188.799 698.81384 309.89746
194.69885 698.81384 309.89746
200.59895 698.81384 309.89746
208.58531 683.44373 340.30957
214.54478 683.44373 340.30957
222.71021 668.07349 370.72168
228.72931 668.07349 370.72168
234.74864 668.07349 370.72168
240.76775 668.07349 370.72168
246.78685 668.07349 370.72168
252.80617 668.07349 370.72168
258.82529 668.07349 370.72168
267.54474 652.25146 402.02808
-117.01398 778.21997 140.4541
-111.44187 778.21997 140.4541
-105.86976 778.21997 140.4541
-101.24444 764.60974 167.26782
-95.619835 764.60974 167.26782
-89.995117 764.60974 167.26782
-84.370399 764.60974 167.26782
-78.009285 778.21997 140.4541
-72.437172 778.21997 140.4541
-66.865166 778.21997 140.4541
-60.733734 791.37659 114.53442
-55.212467 791.37659 114.53442
-50.148819 778.21997 140.4541
-44.576702 778.21997 140.4541
-39.0047 778.21997 140.4541
-33.432583 778.21997 140.4541
-27.860468 778.21997 140.4541
-22.288351 778.21997 140.4541
-16.716238 778.21997 140.4541
-11.24943 764.60974 167.26782
-5.6247149 764.60974 167.26782
0 764.60974 167.26782
5.6246076 764.60974 167.26782
11.24943 764.60974 167.26782
16.874039 764.60974 167.26782
22.709261 750.99951 194.0813
28.386467 750.99951 194.0813
34.063675 750.99951 194.0813
39.7411 750.99951 194.0813
45.418304 750.99951 194.0813
51.095726 750.99951 194.0813
56.772934 750.99951 194.0813
62.450146 750.99951 194.0813
68.127563 750.99951 194.0813
73.804771 750.99951 194.0813
79.482201 750.99951 194.0813
85.159401 750.99951 194.0813
90.836609 750.99951 194.0813
96.514038 750.99951 194.0813
102.19124 750.99951 194.0813
107.86867 750.99951 194.0813
114.63293 736.93555 221.78857
120.36449 736.93555 221.78857
126.09628 736.93555 221.78857
131.82784 736.93555 221.78857
137.55962 736.93555 221.78857
143.29117 736.93555 221.78857
