ply
format ascii 1.0
comment PCL generated
element vertex 1577
property float x
property float y
property float z
element camera 0
property float view_px
property float view_py
property float view_pz
property float x_axisx
property float x_axisy
property float x_axisz
property float y_axisx
property float y_axisy
property float y_axisz
property float z_axisx
property float z_axisy
property float z_axisz
property float focal
property float scalex
property float scaley
property float centerx
property float centery
property int viewportx
property int viewporty
property float k1
property float k2
end_header
-27.606234 984.50525 196.51245
-22.084965 984.50525 196.51245
-16.563698 984.50525 196.51245
-11.14423 973.12732 223.18726
-5.5212684 984.50525 196.51245
0 984.50525 196.51245
5.521163 984.50525 196.51245
11.042537 984.50525 196.51245
16.41116 995.8833 169.83765
21.881683 995.8833 169.83765
27.352001 995.8833 169.83765
32.822319 995.8833 169.83765
38.292843 995.8833 169.83765
43.370415 1006.869 144.08276
48.791843 1006.869 144.08276
53.722134 1017.8546 118.32788
59.094265 1017.8546 118.32788
63.330441 1039.0413 68.657715
67.422646 1059.4431 20.826904
71.995453 1069.2518 -2.168457
77.137901 1069.2518 -2.168457
82.28035 1069.2518 -2.168457
87.422989 1069.2518 -2.168457
92.565445 1069.2518 -2.168457
98.540924 1059.4431 20.826904
103.7272 1059.4431 20.826904
109.8708 1049.2423 44.742188
116.10578 1039.0413 68.657715
121.38322 1039.0413 68.657715
126.66088 1039.0413 68.657715
131.93834 1039.0413 68.657715
137.21579 1039.0413 68.657715
142.49345 1039.0413 68.657715
147.7709 1039.0413 68.657715
153.04855 1039.0413 68.657715
158.326 1039.0413 68.657715
163.60345 1039.0413 68.657715
168.8811 1039.0413 68.657715
174.15857 1039.0413 68.657715
179.43622 1039.0413 68.657715
183.11813 1049.2423 44.742188
188.35001 1049.2423 44.742188
193.58208 1049.2423 44.742188
197.08165 1059.4431 20.826904
200.55862 1069.2518 -2.168457
205.70108 1069.2518 -2.168457
210.84354 1069.2518 -2.168457
215.98618 1069.2518 -2.168457
219.24377 1079.0604 -25.164062
224.34259 1079.0604 -25.164062
229.44121 1079.0604 -25.164062
234.53983 1079.0604 -25.164062
239.63864 1079.0604 -25.164062
244.73724 1079.0604 -25.164062
249.83606 1079.0604 -25.164062
254.93468 1079.0604 -25.164062
260.03329 1079.0604 -25.164062
265.13211 1079.0604 -25.164062
270.23071 1079.0604 -25.164062
275.32953 1079.0604 -25.164062
280.42813 1079.0604 -25.164062
287.98141 1069.2518 -2.168457
293.12405 1069.2518 -2.168457
298.26654 1069.2518 -2.168457
303.40918 1069.2518 -2.168457
308.55161 1069.2518 -2.168457
311.0202 1079.0604 -25.164062
316.11902 1079.0604 -25.164062
321.21765 1079.0604 -25.164062
326.31647 1079.0604 -25.164062
331.41507 1079.0604 -25.164062
336.51367 1079.0604 -25.164062
344.54932 1069.2518 -2.168457
349.6918 1069.2518 -2.168457
354.83444 1069.2518 -2.168457
363.04523 1059.4431 20.826904
368.23148 1059.4431 20.826904
376.70023 1049.2423 44.742188
385.25992 1039.0413 68.657715
390.53754 1039.0413 68.657715
-72.437172 967.99817 221.01001
-66.255005 979.42297 194.35522
-60.733734 979.42297 194.35522
-55.212467 979.42297 194.35522
-49.6912 979.42297 194.35522
-44.16993 979.42297 194.35522
-38.648773 979.42297 194.35522
-33.127502 979.42297 194.35522
-27.606234 979.42297 194.35522
-22.084965 979.42297 194.35522
-16.716238 967.99817 221.01001
-11.14423 967.99817 221.01001
-5.5212684 979.42297 194.35522
0 979.42297 194.35522
5.521163 979.42297 194.35522
11.042537 979.42297 194.35522
16.41116 990.8479 167.7002
21.881683 990.8479 167.7002
27.352001 990.8479 167.7002
32.822319 990.8479 167.7002
38.292843 990.8479 167.7002
43.370415 1001.8787 141.9646
48.791843 1001.8787 141.9646
53.722134 1012.9095 116.22876
59.094265 1012.9095 116.22876
63.898525 1023.5465 91.412109
68.607895 1034.1833 66.595459
71.995453 1064.5182 -4.1779785
77.137901 1064.5182 -4.1779785
82.28035 1064.5182 -4.1779785
87.422989 1064.5182 -4.1779785
92.565445 1064.5182 -4.1779785
98.540924 1054.6692 18.800537
103.7272 1054.6692 18.800537
109.8708 1044.4263 42.697998
115.10287 1044.4263 42.697998
121.38322 1034.1833 66.595459
126.66088 1034.1833 66.595459
131.93834 1034.1833 66.595459
137.21579 1034.1833 66.595459
142.49345 1034.1833 66.595459
147.7709 1034.1833 66.595459
153.04855 1034.1833 66.595459
158.326 1034.1833 66.595459
163.60345 1034.1833 66.595459
168.8811 1034.1833 66.595459
174.15857 1034.1833 66.595459
179.43622 1034.1833 66.595459
184.71367 1034.1833 66.595459
188.35001 1044.4263 42.697998
193.58208 1044.4263 42.697998
197.08165 1054.6692 18.800537
200.55862 1064.5182 -4.1779785
205.70108 1064.5182 -4.1779785
210.84354 1064.5182 -4.1779785
215.98618 1064.5182 -4.1779785
221.12862 1064.5182 -4.1779785
224.34259 1074.3672 -27.15625
229.44121 1074.3672 -27.15625
236.55617 1064.5182 -4.1779785
239.63864 1074.3672 -27.15625
244.73724 1074.3672 -27.15625
249.83606 1074.3672 -27.15625
254.93468 1074.3672 -27.15625
260.03329 1074.3672 -27.15625
265.13211 1074.3672 -27.15625
270.23071 1074.3672 -27.15625
275.32953 1074.3672 -27.15625
282.83899 1064.5182 -4.1779785
287.98141 1064.5182 -4.1779785
293.12405 1064.5182 -4.1779785
298.26654 1064.5182 -4.1779785
303.40918 1064.5182 -4.1779785
308.55161 1064.5182 -4.1779785
313.69406 1064.5182 -4.1779785
316.11902 1074.3672 -27.15625
321.21765 1074.3672 -27.15625
326.31647 1074.3672 -27.15625
331.41507 1074.3672 -27.15625
336.51367 1074.3672 -27.15625
341.61249 1074.3672 -27.15625
349.6918 1064.5182 -4.1779785
354.83444 1064.5182 -4.1779785
359.97687 1064.5182 -4.1779785
368.23148 1054.6692 18.800537
373.41797 1054.6692 18.800537
378.60428 1054.6692 18.800537
390.53754 1034.1833 66.595459
-72.437172 962.86902 218.83301
-66.255005 974.34058 192.198
-60.733734 974.34058 192.198
-55.212467 974.34058 192.198
-49.6912 974.34058 192.198
-44.16993 974.34058 192.198
-38.648773 974.34058 192.198
-33.127502 974.34058 192.198
-27.606234 974.34058 192.198
-22.084965 974.34058 192.198
-16.716238 962.86902 218.83301
-11.14423 962.86902 218.83301
-5.5721149 962.86902 218.83301
0 962.86902 218.83301
5.5720086 962.86902 218.83301
11.14423 962.86902 218.83301
16.716238 962.86902 218.83301
21.881683 985.81226 165.56274
27.352001 985.81226 165.56274
32.822319 985.81226 165.56274
38.292843 985.81226 165.56274
43.763157 985.81226 165.56274
48.791843 996.88831 139.84644
54.21307 996.88831 139.84644
59.094265 1007.9644 114.12964
64.466599 1007.9644 114.12964
69.223312 1018.6449 89.331543
71.995453 1059.7844 -6.1872559
77.137901 1059.7844 -6.1872559
82.28035 1059.7844 -6.1872559
87.422989 1059.7844 -6.1872559
92.565445 1059.7844 -6.1872559
98.540924 1049.895 16.77417
103.7272 1049.895 16.77417
109.8708 1039.6102 40.653809
115.10287 1039.6102 40.653809
121.38322 1029.3252 64.533447
126.66088 1029.3252 64.533447
131.93834 1029.3252 64.533447
137.21579 1029.3252 64.533447
142.49345 1029.3252 64.533447
147.7709 1029.3252 64.533447
153.04855 1029.3252 64.533447
158.326 1029.3252 64.533447
163.60345 1029.3252 64.533447
168.8811 1029.3252 64.533447
174.15857 1029.3252 64.533447
179.43622 1029.3252 64.533447
184.71367 1029.3252 64.533447
189.99112 1029.3252 64.533447
195.26877 1029.3252 64.533447
198.81393 1039.6102 40.653809
202.26811 1049.895 16.77417
207.45441 1049.895 16.77417
210.84354 1059.7844 -6.1872559
215.98618 1059.7844 -6.1872559
221.12862 1059.7844 -6.1872559
226.27126 1059.7844 -6.1872559
231.41371 1059.7844 -6.1872559
236.55617 1059.7844 -6.1872559
241.69881 1059.7844 -6.1872559
246.84125 1059.7844 -6.1872559
251.98389 1059.7844 -6.1872559
257.12634 1059.7844 -6.1872559
262.2688 1059.7844 -6.1872559
265.13211 1069.6737 -29.148438
270.23071 1069.6737 -29.148438
275.32953 1069.6737 -29.148438
282.83899 1059.7844 -6.1872559
287.98141 1059.7844 -6.1872559
293.12405 1059.7844 -6.1872559
298.26654 1059.7844 -6.1872559
303.40918 1059.7844 -6.1872559
308.55161 1059.7844 -6.1872559
311.0202 1069.6737 -29.148438
316.11902 1069.6737 -29.148438
321.21765 1069.6737 -29.148438
326.31647 1069.6737 -29.148438
331.41507 1069.6737 -29.148438
336.51367 1069.6737 -29.148438
341.61249 1069.6737 -29.148438
346.71112 1069.6737 -29.148438
354.83444 1059.7844 -6.1872559
359.97687 1059.7844 -6.1872559
365.11932 1059.7844 -6.1872559
373.41797 1049.895 16.77417
378.60428 1049.895 16.77417
-72.437172 957.73999 216.65576
-66.865166 957.73999 216.65576
-61.293053 957.73999 216.65576
-55.720936 957.73999 216.65576
-50.148819 957.73999 216.65576
-44.16993 969.2583 190.04053
-38.648773 969.2583 190.04053
-33.127502 969.2583 190.04053
-27.352001 980.77686 163.42529
-21.881578 980.77686 163.42529
-16.563698 969.2583 190.04053
-11.14423 957.73999 216.65576
-5.5721149 957.73999 216.65576
0 957.73999 216.65576
5.5720086 957.73999 216.65576
11.14423 957.73999 216.65576
16.716238 957.73999 216.65576
21.881683 980.77686 163.42529
27.352001 980.77686 163.42529
32.822319 980.77686 163.42529
38.292843 980.77686 163.42529
43.763157 980.77686 163.42529
49.233688 980.77686 163.42529
54.21307 991.89807 137.72803
59.094265 1003.0193 112.03076
64.466599 1003.0193 112.03076
69.223312 1013.7433 87.250977
71.995453 1055.0508 -8.1965332
77.137901 1055.0508 -8.1965332
82.28035 1055.0508 -8.1965332
87.422989 1055.0508 -8.1965332
92.565445 1055.0508 -8.1965332
98.540924 1045.121 14.747559
103.7272 1045.121 14.747559
109.8708 1034.7942 38.609375
115.10287 1034.7942 38.609375
121.38322 1024.4673 62.471436
126.66088 1024.4673 62.471436
131.93834 1024.4673 62.471436
137.21579 1024.4673 62.471436
142.49345 1024.4673 62.471436
147.7709 1024.4673 62.471436
153.04855 1024.4673 62.471436
158.326 1024.4673 62.471436
163.60345 1024.4673 62.471436
168.8811 1024.4673 62.471436
174.15857 1024.4673 62.471436
179.43622 1024.4673 62.471436
184.71367 1024.4673 62.471436
189.99112 1024.4673 62.471436
195.26877 1024.4673 62.471436
200.54623 1024.4673 62.471436
202.26811 1045.121 14.747559
207.45441 1045.121 14.747559
212.6407 1045.121 14.747559
215.98618 1055.0508 -8.1965332
221.12862 1055.0508 -8.1965332
226.27126 1055.0508 -8.1965332
231.41371 1055.0508 -8.1965332
236.55617 1055.0508 -8.1965332
241.69881 1055.0508 -8.1965332
246.84125 1055.0508 -8.1965332
251.98389 1055.0508 -8.1965332
257.12634 1055.0508 -8.1965332
262.2688 1055.0508 -8.1965332
267.41144 1055.0508 -8.1965332
272.55386 1055.0508 -8.1965332
277.69653 1055.0508 -8.1965332
282.83899 1055.0508 -8.1965332
287.98141 1055.0508 -8.1965332
293.12405 1055.0508 -8.1965332
298.26654 1055.0508 -8.1965332
303.40918 1055.0508 -8.1965332
308.55161 1055.0508 -8.1965332
311.0202 1064.9805 -31.140625
316.11902 1064.9805 -31.140625
321.21765 1064.9805 -31.140625
326.31647 1064.9805 -31.140625
331.41507 1064.9805 -31.140625
336.51367 1064.9805 -31.140625
341.61249 1064.9805 -31.140625
346.71112 1064.9805 -31.140625
354.83444 1055.0508 -8.1965332
359.97687 1055.0508 -8.1965332
365.11932 1055.0508 -8.1965332
373.41797 1045.121 14.747559
378.60428 1045.121 14.747559
383.79074 1045.121 14.747559
-73.120972 940.64673 241.99097
-66.865166 952.61072 214.47852
-61.293053 952.61072 214.47852
-55.720936 952.61072 214.47852
-50.148819 952.61072 214.47852
-44.576702 952.61072 214.47852
-39.0047 952.61072 214.47852
-32.822422 975.74121 161.28784
-27.352001 975.74121 161.28784
-21.881578 975.74121 161.28784
-16.563698 964.1759 187.8833
-11.14423 952.61072 214.47852
-5.5721149 952.61072 214.47852
0 952.61072 214.47852
5.5720086 952.61072 214.47852
11.24943 940.64673 241.99097
16.874039 940.64673 241.99097
22.085073 964.1759 187.8833
27.352001 975.74121 161.28784
32.822319 975.74121 161.28784
38.292843 975.74121 161.28784
43.763157 975.74121 161.28784
49.233688 975.74121 161.28784
54.21307 986.90759 135.60986
59.634293 986.90759 135.60986
65.055725 986.90759 135.60986
69.838737 998.07397 109.93164
71.995453 1050.3169 -10.205811
77.137901 1050.3169 -10.205811
82.28035 1050.3169 -10.205811
87.422989 1050.3169 -10.205811
92.565445 1050.3169 -10.205811
98.540924 1040.3469 12.721191
104.63894 1029.9781 36.565186
109.8708 1029.9781 36.565186
116.10578 1019.6093 60.40918
121.38322 1019.6093 60.40918
127.79705 1008.8417 85.170166
131.93834 1019.6093 60.40918
137.21579 1019.6093 60.40918
142.49345 1019.6093 60.40918
147.7709 1019.6093 60.40918
153.04855 1019.6093 60.40918
158.326 1019.6093 60.40918
163.60345 1019.6093 60.40918
168.8811 1019.6093 60.40918
175.72078 1008.8417 85.170166
181.04578 1008.8417 85.170166
184.71367 1019.6093 60.40918
189.99112 1019.6093 60.40918
195.26877 1019.6093 60.40918
200.54623 1019.6093 60.40918
204.04601 1029.9781 36.565186
207.45441 1040.3469 12.721191
212.6407 1040.3469 12.721191
217.82718 1040.3469 12.721191
221.12862 1050.3169 -10.205811
226.27126 1050.3169 -10.205811
231.41371 1050.3169 -10.205811
236.55617 1050.3169 -10.205811
241.69881 1050.3169 -10.205811
246.84125 1050.3169 -10.205811
251.98389 1050.3169 -10.205811
257.12634 1050.3169 -10.205811
262.2688 1050.3169 -10.205811
267.41144 1050.3169 -10.205811
272.55386 1050.3169 -10.205811
277.69653 1050.3169 -10.205811
282.83899 1050.3169 -10.205811
287.98141 1050.3169 -10.205811
293.12405 1050.3169 -10.205811
298.26654 1050.3169 -10.205811
300.823 1060.287 -33.133057
305.9216 1060.287 -33.133057
311.0202 1060.287 -33.133057
316.11902 1060.287 -33.133057
321.21765 1060.287 -33.133057
326.31647 1060.287 -33.133057
331.41507 1060.287 -33.133057
336.51367 1060.287 -33.133057
341.61249 1060.287 -33.133057
346.71112 1060.287 -33.133057
354.83444 1050.3169 -10.205811
359.97687 1050.3169 -10.205811
365.11932 1050.3169 -10.205811
373.41797 1040.3469 12.721191
378.60428 1040.3469 12.721191
383.79074 1040.3469 12.721191
388.97702 1040.3469 12.721191
-73.120972 935.46924 239.79321
-67.496368 935.46924 239.79321
-61.293053 947.48169 212.30127
-55.720936 947.48169 212.30127
-50.148819 947.48169 212.30127
-44.576702 947.48169 212.30127
-39.0047 947.48169 212.30127
-32.822422 970.70581 159.15039
-27.352001 970.70581 159.15039
-21.881578 970.70581 159.15039
-16.563698 959.09363 185.72607
-11.14423 947.48169 212.30127
-5.5721149 947.48169 212.30127
0 947.48169 212.30127
5.5720086 947.48169 212.30127
11.24943 935.46924 239.79321
16.874039 935.46924 239.79321
22.085073 959.09363 185.72607
27.352001 970.70581 159.15039
32.822319 970.70581 159.15039
38.292843 970.70581 159.15039
43.763157 970.70581 159.15039
49.233688 970.70581 159.15039
54.21307 981.91736 133.49146
59.634293 981.91736 133.49146
63.898525 1003.9402 83.0896
67.422646 1035.5729 10.69458
71.995453 1045.5833 -12.215332
77.137901 1045.5833 -12.215332
82.28035 1045.5833 -12.215332
87.422989 1045.5833 -12.215332
92.565445 1045.5833 -12.215332
98.540924 1035.5729 10.69458
104.63894 1025.1622 34.520996
109.8708 1025.1622 34.520996
116.10578 1014.7513 58.347168
121.38322 1014.7513 58.347168
127.79705 1003.9402 83.0896
131.93834 1014.7513 58.347168
137.21579 1014.7513 58.347168
142.49345 1014.7513 58.347168
147.7709 1014.7513 58.347168
153.04855 1014.7513 58.347168
158.326 1014.7513 58.347168
163.60345 1014.7513 58.347168
168.8811 1014.7513 58.347168
175.72078 1003.9402 83.0896
181.04578 1003.9402 83.0896
184.71367 1014.7513 58.347168
189.99112 1014.7513 58.347168
195.26877 1014.7513 58.347168
200.54623 1014.7513 58.347168
205.8239 1014.7513 58.347168
209.27788 1025.1622 34.520996
214.50974 1025.1622 34.520996
219.74182 1025.1622 34.520996
221.12862 1045.5833 -12.215332
226.27126 1045.5833 -12.215332
231.41371 1045.5833 -12.215332
236.55617 1045.5833 -12.215332
241.69881 1045.5833 -12.215332
246.84125 1045.5833 -12.215332
251.98389 1045.5833 -12.215332
257.12634 1045.5833 -12.215332
262.2688 1045.5833 -12.215332
267.41144 1045.5833 -12.215332
272.55386 1045.5833 -12.215332
277.69653 1045.5833 -12.215332
282.83899 1045.5833 -12.215332
287.98141 1045.5833 -12.215332
293.12405 1045.5833 -12.215332
298.26654 1045.5833 -12.215332
300.823 1055.5938 -35.125244
305.9216 1055.5938 -35.125244
311.0202 1055.5938 -35.125244
316.11902 1055.5938 -35.125244
321.21765 1055.5938 -35.125244
326.31647 1055.5938 -35.125244
331.41507 1055.5938 -35.125244
336.51367 1055.5938 -35.125244
341.61249 1055.5938 -35.125244
346.71112 1055.5938 -35.125244
354.83444 1045.5833 -12.215332
359.97687 1045.5833 -12.215332
365.11932 1045.5833 -12.215332
370.26196 1045.5833 -12.215332
375.40442 1045.5833 -12.215332
380.54709 1045.5833 -12.215332
388.97702 1035.5729 10.69458
-73.120972 930.29163 237.59546
-67.496368 930.29163 237.59546
-61.293053 942.35242 210.12427
-55.720936 942.35242 210.12427
-50.148819 942.35242 210.12427
-44.576702 942.35242 210.12427
-39.0047 942.35242 210.12427
-33.127502 954.01123 183.5686
-27.606234 954.01123 183.5686
-22.084965 954.01123 183.5686
-16.563698 954.01123 183.5686
-11.14423 942.35242 210.12427
-5.5721149 942.35242 210.12427
0 942.35242 210.12427
5.6246076 930.29163 237.59546
11.24943 930.29163 237.59546
16.874039 930.29163 237.59546
22.085073 954.01123 183.5686
27.352001 965.67017 157.01294
32.822319 965.67017 157.01294
38.292843 965.67017 157.01294
43.763157 965.67017 157.01294
49.233688 965.67017 157.01294
54.21307 976.927 131.37329
59.634293 976.927 131.37329
63.898525 999.03857 81.009033
67.422646 1030.7987 8.6682129
71.995453 1040.8495 -14.224609
77.137901 1040.8495 -14.224609
82.28035 1040.8495 -14.224609
87.422989 1040.8495 -14.224609
92.565445 1040.8495 -14.224609
98.540924 1030.7987 8.6682129
104.63894 1020.3461 32.476562
109.8708 1020.3461 32.476562
116.10578 1009.8933 56.285156
121.38322 1009.8933 56.285156
127.79705 999.03857 81.009033
133.12184 999.03857 81.009033
138.44662 999.03857 81.009033
143.77162 999.03857 81.009033
149.09642 999.03857 81.009033
154.42142 999.03857 81.009033
159.7462 999.03857 81.009033
165.071 999.03857 81.009033
170.396 999.03857 81.009033
175.72078 999.03857 81.009033
181.04578 999.03857 81.009033
186.37057 999.03857 81.009033
191.69536 999.03857 81.009033
197.02036 999.03857 81.009033
200.54623 1009.8933 56.285156
205.8239 1009.8933 56.285156
209.27788 1020.3461 32.476562
214.50974 1020.3461 32.476562
219.74182 1020.3461 32.476562
223.01344 1030.7987 8.6682129
228.19992 1030.7987 8.6682129
233.38622 1030.7987 8.6682129
236.55617 1040.8495 -14.224609
241.69881 1040.8495 -14.224609
246.84125 1040.8495 -14.224609
251.98389 1040.8495 -14.224609
257.12634 1040.8495 -14.224609
262.2688 1040.8495 -14.224609
267.41144 1040.8495 -14.224609
272.55386 1040.8495 -14.224609
277.69653 1040.8495 -14.224609
282.83899 1040.8495 -14.224609
287.98141 1040.8495 -14.224609
293.12405 1040.8495 -14.224609
298.26654 1040.8495 -14.224609
300.823 1050.9003 -37.117432
305.9216 1050.9003 -37.117432
311.0202 1050.9003 -37.117432
316.11902 1050.9003 -37.117432
321.21765 1050.9003 -37.117432
326.31647 1050.9003 -37.117432
331.41507 1050.9003 -37.117432
336.51367 1050.9003 -37.117432
341.61249 1050.9003 -37.117432
346.71112 1050.9003 -37.117432
354.83444 1040.8495 -14.224609
359.97687 1040.8495 -14.224609
365.11932 1040.8495 -14.224609
370.26196 1040.8495 -14.224609
375.40442 1040.8495 -14.224609
380.54709 1040.8495 -14.224609
385.68951 1040.8495 -14.224609
394.1633 1030.7987 8.6682129
-73.120972 925.11414 235.39771
-67.496368 925.11414 235.39771
-61.871651 925.11414 235.39771
-55.720936 937.22339 207.94702
-50.148819 937.22339 207.94702
-44.576702 937.22339 207.94702
-39.0047 937.22339 207.94702
-33.432583 937.22339 207.94702
-27.606234 948.92896 181.41138
-22.084965 948.92896 181.41138
-16.716238 937.22339 207.94702
-11.24943 925.11414 235.39771
-5.6247149 925.11414 235.39771
0 925.11414 235.39771
5.6246076 925.11414 235.39771
11.24943 925.11414 235.39771
16.716238 937.22339 207.94702
22.085073 948.92896 181.41138
27.352001 960.63477 154.87549
32.822319 960.63477 154.87549
38.292843 960.63477 154.87549
43.763157 960.63477 154.87549
49.233688 960.63477 154.87549
54.21307 971.93665 129.25488
59.634293 971.93665 129.25488
63.898525 994.13708 78.928467
67.422646 1026.0248 6.6418457
71.995453 1036.1158 -16.233887
77.137901 1036.1158 -16.233887
82.28035 1036.1158 -16.233887
87.422989 1036.1158 -16.233887
92.565445 1036.1158 -16.233887
98.540924 1026.0248 6.6418457
104.63894 1015.5302 30.432373
109.8708 1015.5302 30.432373
116.10578 1005.0354 54.2229
121.38322 1005.0354 54.2229
127.79705 994.13708 78.928467
133.12184 994.13708 78.928467
138.44662 994.13708 78.928467
143.77162 994.13708 78.928467
149.09642 994.13708 78.928467
154.42142 994.13708 78.928467
159.7462 994.13708 78.928467
165.071 994.13708 78.928467
170.396 994.13708 78.928467
175.72078 994.13708 78.928467
181.04578 994.13708 78.928467
186.37057 994.13708 78.928467
191.69536 994.13708 78.928467
197.02036 994.13708 78.928467
202.34515 994.13708 78.928467
207.67015 994.13708 78.928467
212.99493 994.13708 78.928467
216.37878 1005.0354 54.2229
219.74182 1015.5302 30.432373
224.97366 1015.5302 30.432373
228.19992 1026.0248 6.6418457
233.38622 1026.0248 6.6418457
236.55617 1036.1158 -16.233887
241.69881 1036.1158 -16.233887
246.84125 1036.1158 -16.233887
251.98389 1036.1158 -16.233887
257.12634 1036.1158 -16.233887
262.2688 1036.1158 -16.233887
267.41144 1036.1158 -16.233887
272.55386 1036.1158 -16.233887
277.69653 1036.1158 -16.233887
282.83899 1036.1158 -16.233887
287.98141 1036.1158 -16.233887
293.12405 1036.1158 -16.233887
298.26654 1036.1158 -16.233887
300.823 1046.2069 -39.109619
305.9216 1046.2069 -39.109619
311.0202 1046.2069 -39.109619
316.11902 1046.2069 -39.109619
321.21765 1046.2069 -39.109619
326.31647 1046.2069 -39.109619
331.41507 1046.2069 -39.109619
336.51367 1046.2069 -39.109619
341.61249 1046.2069 -39.109619
346.71112 1046.2069 -39.109619
354.83444 1036.1158 -16.233887
359.97687 1036.1158 -16.233887
365.11932 1036.1158 -16.233887
370.26196 1036.1158 -16.233887
375.40442 1036.1158 -16.233887
380.54709 1036.1158 -16.233887
385.68951 1036.1158 -16.233887
394.1633 1026.0248 6.6418457
-73.120972 919.93652 233.19995
-67.496368 919.93652 233.19995
-61.871651 919.93652 233.19995
-55.720936 932.09424 205.76978
-50.148819 932.09424 205.76978
-44.576702 932.09424 205.76978
-39.0047 932.09424 205.76978
-33.432583 932.09424 205.76978
-27.860468 932.09424 205.76978
-22.288351 932.09424 205.76978
-16.716238 932.09424 205.76978
-11.24943 919.93652 233.19995
-5.6247149 919.93652 233.19995
0 919.93652 233.19995
5.6246076 919.93652 233.19995
11.24943 919.93652 233.19995
16.563698 943.84656 179.25391
21.881683 955.59912 152.73804
27.352001 955.59912 152.73804
32.822319 955.59912 152.73804
38.292843 955.59912 152.73804
43.763157 955.59912 152.73804
49.233688 955.59912 152.73804
54.21307 966.94629 127.13672
59.634293 966.94629 127.13672
65.055725 966.94629 127.13672
67.422646 1021.2506 4.6152344
71.995453 1031.3821 -18.243408
77.137901 1031.3821 -18.243408
82.28035 1031.3821 -18.243408
87.422989 1031.3821 -18.243408
92.565445 1031.3821 -18.243408
98.540924 1021.2506 4.6152344
104.63894 1010.714 28.387939
109.8708 1010.714 28.387939
115.10287 1010.714 28.387939
121.38322 1000.1772 52.160889
127.79705 989.23547 76.8479
133.12184 989.23547 76.8479
138.44662 989.23547 76.8479
143.77162 989.23547 76.8479
149.09642 989.23547 76.8479
154.42142 989.23547 76.8479
159.7462 989.23547 76.8479
165.071 989.23547 76.8479
170.396 989.23547 76.8479
175.72078 989.23547 76.8479
181.04578 989.23547 76.8479
186.37057 989.23547 76.8479
191.69536 989.23547 76.8479
197.02036 989.23547 76.8479
202.34515 989.23547 76.8479
207.67015 989.23547 76.8479
212.99493 989.23547 76.8479
218.31973 989.23547 76.8479
219.74182 1010.714 28.387939
224.97366 1010.714 28.387939
230.20573 1010.714 28.387939
233.38622 1021.2506 4.6152344
236.55617 1031.3821 -18.243408
241.69881 1031.3821 -18.243408
246.84125 1031.3821 -18.243408
251.98389 1031.3821 -18.243408
257.12634 1031.3821 -18.243408
262.2688 1031.3821 -18.243408
267.41144 1031.3821 -18.243408
272.55386 1031.3821 -18.243408
277.69653 1031.3821 -18.243408
280.42813 1041.5135 -41.101807
285.52676 1041.5135 -41.101807
293.12405 1031.3821 -18.243408
298.26654 1031.3821 -18.243408
300.823 1041.5135 -41.101807
305.9216 1041.5135 -41.101807
311.0202 1041.5135 -41.101807
316.11902 1041.5135 -41.101807
321.21765 1041.5135 -41.101807
326.31647 1041.5135 -41.101807
331.41507 1041.5135 -41.101807
336.51367 1041.5135 -41.101807
341.61249 1041.5135 -41.101807
349.6918 1031.3821 -18.243408
354.83444 1031.3821 -18.243408
359.97687 1031.3821 -18.243408
365.11932 1031.3821 -18.243408
370.26196 1031.3821 -18.243408
375.40442 1031.3821 -18.243408
380.54709 1031.3821 -18.243408
385.68951 1031.3821 -18.243408
394.1633 1021.2506 4.6152344
-73.120972 914.75903 231.00244
-66.865166 926.96509 203.59253
-61.293053 926.96509 203.59253
-55.720936 926.96509 203.59253
-50.148819 926.96509 203.59253
-44.576702 926.96509 203.59253
-39.0047 926.96509 203.59253
-33.432583 926.96509 203.59253
-27.860468 926.96509 203.59253
-22.288351 926.96509 203.59253
-16.874039 914.75903 231.00244
-11.24943 914.75903 231.00244
-5.6247149 914.75903 231.00244
0 914.75903 231.00244
5.5720086 926.96509 203.59253
11.042537 938.7644 177.09668
16.41116 950.56372 150.60059
21.881683 950.56372 150.60059
27.352001 950.56372 150.60059
32.822319 950.56372 150.60059
38.292843 950.56372 150.60059
43.763157 950.56372 150.60059
49.233688 950.56372 150.60059
54.704002 950.56372 150.60059
60.174316 950.56372 150.60059
65.644844 950.56372 150.60059
71.115158 950.56372 150.60059
72.609123 1016.4767 2.5888672
77.137901 1026.6484 -20.252686
82.28035 1026.6484 -20.252686
87.422989 1026.6484 -20.252686
92.565445 1026.6484 -20.252686
98.540924 1016.4767 2.5888672
103.7272 1016.4767 2.5888672
109.8708 1005.8981 26.34375
115.10287 1005.8981 26.34375
121.38322 995.31934 50.098877
127.79705 984.33398 74.767334
133.12184 984.33398 74.767334
138.44662 984.33398 74.767334
143.77162 984.33398 74.767334
149.09642 984.33398 74.767334
154.42142 984.33398 74.767334
159.7462 984.33398 74.767334
165.071 984.33398 74.767334
170.396 984.33398 74.767334
175.72078 984.33398 74.767334
181.04578 984.33398 74.767334
186.37057 984.33398 74.767334
191.69536 984.33398 74.767334
197.02036 984.33398 74.767334
202.34515 984.33398 74.767334
209.5164 973.34839 99.436035
214.88853 973.34839 99.436035
218.31973 984.33398 74.767334
221.65645 995.31934 50.098877
226.93391 995.31934 50.098877
230.20573 1005.8981 26.34375
235.43761 1005.8981 26.34375
238.57249 1016.4767 2.5888672
243.75897 1016.4767 2.5888672
246.84125 1026.6484 -20.252686
251.98389 1026.6484 -20.252686
257.12634 1026.6484 -20.252686
262.2688 1026.6484 -20.252686
265.13211 1036.8202 -43.093994
270.23071 1036.8202 -43.093994
275.32953 1036.8202 -43.093994
280.42813 1036.8202 -43.093994
285.52676 1036.8202 -43.093994
290.62555 1036.8202 -43.093994
298.26654 1026.6484 -20.252686
300.823 1036.8202 -43.093994
305.9216 1036.8202 -43.093994
311.0202 1036.8202 -43.093994
316.11902 1036.8202 -43.093994
321.21765 1036.8202 -43.093994
326.31647 1036.8202 -43.093994
331.41507 1036.8202 -43.093994
336.51367 1036.8202 -43.093994
344.54932 1026.6484 -20.252686
349.6918 1026.6484 -20.252686
354.83444 1026.6484 -20.252686
359.97687 1026.6484 -20.252686
365.11932 1026.6484 -20.252686
370.26196 1026.6484 -20.252686
375.40442 1026.6484 -20.252686
380.54709 1026.6484 -20.252686
385.68951 1026.6484 -20.252686
394.1633 1016.4767 2.5888672
399.34976 1016.4767 2.5888672
404.53607 1016.4767 2.5888672
416.92523 995.31934 50.098877
-72.437172 921.83594 201.41528
-66.865166 921.83594 201.41528
-61.293053 921.83594 201.41528
-55.720936 921.83594 201.41528
-50.148819 921.83594 201.41528
-44.576702 921.83594 201.41528
-39.0047 921.83594 201.41528
-33.432583 921.83594 201.41528
-27.860468 921.83594 201.41528
-22.288351 921.83594 201.41528
-16.874039 909.58142 228.80444
-11.35463 897.3269 256.19336
-5.6247149 909.58142 228.80444
0 909.58142 228.80444
5.521163 933.68188 174.93945
11.042537 933.68188 174.93945
16.41116 945.52808 148.46313
21.881683 945.52808 148.46313
27.352001 945.52808 148.46313
32.822319 945.52808 148.46313
38.292843 945.52808 148.46313
43.763157 945.52808 148.46313
49.233688 945.52808 148.46313
54.704002 945.52808 148.46313
60.174316 945.52808 148.46313
65.644844 945.52808 148.46313
71.115158 945.52808 148.46313
71.995453 1021.9147 -22.261963
77.137901 1021.9147 -22.261963
82.28035 1021.9147 -22.261963
87.422989 1021.9147 -22.261963
92.565445 1021.9147 -22.261963
98.540924 1011.7025 0.56225586
103.7272 1011.7025 0.56225586
109.8708 1001.082 24.299561
115.10287 1001.082 24.299561
121.38322 990.4613 48.036621
127.79705 979.43225 72.686768
133.12184 979.43225 72.686768
138.44662 979.43225 72.686768
143.77162 979.43225 72.686768
149.09642 979.43225 72.686768
154.42142 979.43225 72.686768
159.7462 979.43225 72.686768
165.071 979.43225 72.686768
170.396 979.43225 72.686768
175.72078 979.43225 72.686768
181.04578 979.43225 72.686768
186.37057 979.43225 72.686768
191.69536 979.43225 72.686768
197.02036 979.43225 72.686768
202.34515 979.43225 72.686768
209.5164 968.4032 97.336914
214.88853 968.4032 97.336914
220.26068 968.4032 97.336914
223.64473 979.43225 72.686768
226.93391 990.4613 48.036621
232.21156 990.4613 48.036621
235.43761 1001.082 24.299561
238.57249 1011.7025 0.56225586
243.75897 1011.7025 0.56225586
246.84125 1021.9147 -22.261963
251.98389 1021.9147 -22.261963
257.12634 1021.9147 -22.261963
262.2688 1021.9147 -22.261963
265.13211 1032.1268 -45.086182
270.23071 1032.1268 -45.086182
275.32953 1032.1268 -45.086182
280.42813 1032.1268 -45.086182
285.52676 1032.1268 -45.086182
290.62555 1032.1268 -45.086182
295.72418 1032.1268 -45.086182
300.823 1032.1268 -45.086182
305.9216 1032.1268 -45.086182
311.0202 1032.1268 -45.086182
316.11902 1032.1268 -45.086182
321.21765 1032.1268 -45.086182
326.31647 1032.1268 -45.086182
331.41507 1032.1268 -45.086182
336.51367 1032.1268 -45.086182
344.54932 1021.9147 -22.261963
349.6918 1021.9147 -22.261963
354.83444 1021.9147 -22.261963
359.97687 1021.9147 -22.261963
365.11932 1021.9147 -22.261963
370.26196 1021.9147 -22.261963
375.40442 1021.9147 -22.261963
380.54709 1021.9147 -22.261963
388.97702 1011.7025 0.56225586
394.1633 1011.7025 0.56225586
399.34976 1011.7025 0.56225586
404.53607 1011.7025 0.56225586
413.32388 1001.082 24.299561
418.55576 1001.082 24.299561
-72.437172 916.70691 199.23828
-66.865166 916.70691 199.23828
-61.293053 916.70691 199.23828
-55.720936 916.70691 199.23828
-50.148819 916.70691 199.23828
-44.576702 916.70691 199.23828
-39.0047 916.70691 199.23828
-33.432583 916.70691 199.23828
-28.123468 904.40393 226.60693
-22.498753 904.40393 226.60693
-16.874039 904.40393 226.60693
-11.35463 892.10095 253.9751
-5.6247149 904.40393 226.60693
0 904.40393 226.60693
5.521163 928.59973 172.78198
11.042537 928.59973 172.78198
16.563698 928.59973 172.78198
21.881683 940.49268 146.32568
27.352001 940.49268 146.32568
32.822319 940.49268 146.32568
38.292843 940.49268 146.32568
43.763157 940.49268 146.32568
49.233688 940.49268 146.32568
54.704002 940.49268 146.32568
60.174316 940.49268 146.32568
65.644844 940.49268 146.32568
69.223312 974.53076 70.606201
71.995453 1017.181 -24.27124
77.137901 1017.181 -24.27124
82.28035 1017.181 -24.27124
87.422989 1017.181 -24.27124
92.565445 1017.181 -24.27124
98.540924 1006.9285 -1.4641113
103.7272 1006.9285 -1.4641113
109.8708 996.26599 22.255127
115.10287 996.26599 22.255127
121.38322 985.60339 45.974609
127.79705 974.53076 70.606201
133.12184 974.53076 70.606201
138.44662 974.53076 70.606201
143.77162 974.53076 70.606201
150.42194 963.45813 95.238037
155.79427 963.45813 95.238037
159.7462 974.53076 70.606201
165.071 974.53076 70.606201
170.396 974.53076 70.606201
175.72078 974.53076 70.606201
181.04578 974.53076 70.606201
186.37057 974.53076 70.606201
191.69536 974.53076 70.606201
197.02036 974.53076 70.606201
202.34515 974.53076 70.606201
209.5164 963.45813 95.238037
214.88853 963.45813 95.238037
220.26068 963.45813 95.238037
225.63301 963.45813 95.238037
228.96953 974.53076 70.606201
232.21156 985.60339 45.974609
237.48901 985.60339 45.974609
240.66948 996.26599 22.255127
243.75897 1006.9285 -1.4641113
246.84125 1017.181 -24.27124
251.98389 1017.181 -24.27124
257.12634 1017.181 -24.27124
262.2688 1017.181 -24.27124
265.13211 1027.4335 -47.078369
270.23071 1027.4335 -47.078369
275.32953 1027.4335 -47.078369
280.42813 1027.4335 -47.078369
285.52676 1027.4335 -47.078369
290.62555 1027.4335 -47.078369
295.72418 1027.4335 -47.078369
300.823 1027.4335 -47.078369
305.9216 1027.4335 -47.078369
311.0202 1027.4335 -47.078369
316.11902 1027.4335 -47.078369
321.21765 1027.4335 -47.078369
326.31647 1027.4335 -47.078369
331.41507 1027.4335 -47.078369
339.40668 1017.181 -24.27124
344.54932 1017.181 -24.27124
349.6918 1017.181 -24.27124
354.83444 1017.181 -24.27124
359.97687 1017.181 -24.27124
365.11932 1017.181 -24.27124
370.26196 1017.181 -24.27124
375.40442 1017.181 -24.27124
380.54709 1017.181 -24.27124
388.97702 1006.9285 -1.4641113
394.1633 1006.9285 -1.4641113
399.34976 1006.9285 -1.4641113
404.53607 1006.9285 -1.4641113
413.32388 996.26599 22.255127
418.55576 996.26599 22.255127
-72.437172 911.57764 197.06104
-66.255005 923.51733 170.62476
-60.733734 923.51733 170.62476
-55.720936 911.57764 197.06104
-50.148819 911.57764 197.06104
-44.576702 911.57764 197.06104
-39.0047 911.57764 197.06104
-33.748184 899.22632 224.40918
-28.123468 899.22632 224.40918
-22.498753 899.22632 224.40918
-17.031837 886.87488 251.75684
-11.35463 886.87488 251.75684
-5.6773152 886.87488 251.75684
0 899.22632 224.40918
5.521163 923.51733 170.62476
11.042537 923.51733 170.62476
16.41116 935.45703 144.18823
21.881683 935.45703 144.18823
27.352001 935.45703 144.18823
32.822319 935.45703 144.18823
38.292843 935.45703 144.18823
43.763157 935.45703 144.18823
49.233688 935.45703 144.18823
54.704002 935.45703 144.18823
60.174316 935.45703 144.18823
65.644844 935.45703 144.18823
68.607895 980.74536 43.912354
72.609123 1002.1544 -3.4907227
77.795403 1002.1544 -3.4907227
82.28035 1012.4473 -26.280762
87.422989 1012.4473 -26.280762
92.565445 1012.4473 -26.280762
98.540924 1002.1544 -3.4907227
103.7272 1002.1544 -3.4907227
109.8708 991.44995 20.210938
115.10287 991.44995 20.210938
121.38322 980.74536 43.912354
126.66088 980.74536 43.912354
133.12184 969.62915 68.525635
138.44662 969.62915 68.525635
143.77162 969.62915 68.525635
150.42194 958.51282 93.138916
155.79427 958.51282 93.138916
159.7462 969.62915 68.525635
165.071 969.62915 68.525635
170.396 969.62915 68.525635
175.72078 969.62915 68.525635
181.04578 969.62915 68.525635
186.37057 969.62915 68.525635
191.69536 969.62915 68.525635
197.02036 969.62915 68.525635
202.34515 969.62915 68.525635
209.5164 958.51282 93.138916
214.88853 958.51282 93.138916
220.26068 958.51282 93.138916
225.63301 958.51282 93.138916
228.96953 969.62915 68.525635
234.29451 969.62915 68.525635
237.48901 980.74536 43.912354
240.66948 991.44995 20.210938
243.75897 1002.1544 -3.4907227
246.84125 1012.4473 -26.280762
251.98389 1012.4473 -26.280762
257.12634 1012.4473 -26.280762
262.2688 1012.4473 -26.280762
265.13211 1022.7401 -49.070801
270.23071 1022.7401 -49.070801
275.32953 1022.7401 -49.070801
280.42813 1022.7401 -49.070801
285.52676 1022.7401 -49.070801
290.62555 1022.7401 -49.070801
295.72418 1022.7401 -49.070801
300.823 1022.7401 -49.070801
305.9216 1022.7401 -49.070801
311.0202 1022.7401 -49.070801
316.11902 1022.7401 -49.070801
321.21765 1022.7401 -49.070801
326.31647 1022.7401 -49.070801
331.41507 1022.7401 -49.070801
339.40668 1012.4473 -26.280762
344.54932 1012.4473 -26.280762
349.6918 1012.4473 -26.280762
354.83444 1012.4473 -26.280762
359.97687 1012.4473 -26.280762
365.11932 1012.4473 -26.280762
370.26196 1012.4473 -26.280762
375.40442 1012.4473 -26.280762
380.54709 1012.4473 -26.280762
388.97702 1002.1544 -3.4907227
394.1633 1002.1544 -3.4907227
399.34976 1002.1544 -3.4907227
404.53607 1002.1544 -3.4907227
413.32388 991.44995 20.210938
418.55576 991.44995 20.210938
-72.437172 906.44861 194.88379
-66.255005 918.43506 168.46753
-60.733734 918.43506 168.46753
-55.720936 906.44861 194.88379
-50.148819 906.44861 194.88379
-44.997505 894.04883 222.21143
-39.372898 894.04883 222.21143
-33.748184 894.04883 222.21143
-28.123468 894.04883 222.21143
-22.498753 894.04883 222.21143
-17.031837 881.64905 249.53857
-11.35463 881.64905 249.53857
-5.6773152 881.64905 249.53857
0 894.04883 222.21143
5.521163 918.43506 168.46753
11.042537 918.43506 168.46753
16.41116 930.42163 142.05078
21.881683 930.42163 142.05078
27.352001 930.42163 142.05078
32.822319 930.42163 142.05078
38.292843 930.42163 142.05078
43.763157 930.42163 142.05078
49.233688 930.42163 142.05078
54.704002 930.42163 142.05078
60.174316 930.42163 142.05078
65.055725 941.99463 116.54541
68.607895 975.88745 41.850342
72.609123 997.38037 -5.5170898
77.795403 997.38037 -5.5170898
82.28035 1007.7136 -28.290039
87.422989 1007.7136 -28.290039
92.565445 1007.7136 -28.290039
98.540924 997.38037 -5.5170898
103.7272 997.38037 -5.5170898
109.8708 986.63391 18.166748
116.10578 975.88745 41.850342
121.38322 975.88745 41.850342
126.66088 975.88745 41.850342
133.12184 964.72766 66.445068
138.44662 964.72766 66.445068
143.77162 964.72766 66.445068
149.09642 964.72766 66.445068
154.42142 964.72766 66.445068
159.7462 964.72766 66.445068
165.071 964.72766 66.445068
170.396 964.72766 66.445068
175.72078 964.72766 66.445068
181.04578 964.72766 66.445068
186.37057 964.72766 66.445068
191.69536 964.72766 66.445068
197.02036 964.72766 66.445068
202.34515 964.72766 66.445068
207.67015 964.72766 66.445068
214.88853 953.56775 91.039795
222.2735 941.99463 116.54541
227.69493 941.99463 116.54541
231.00513 953.56775 91.039795
234.29451 964.72766 66.445068
239.61931 964.72766 66.445068
242.76645 975.88745 41.850342
245.90155 986.63391 18.166748
246.84125 1007.7136 -28.290039
251.98389 1007.7136 -28.290039
257.12634 1007.7136 -28.290039
262.2688 1007.7136 -28.290039
265.13211 1018.0468 -51.062988
270.23071 1018.0468 -51.062988
277.69653 1007.7136 -28.290039
282.83899 1007.7136 -28.290039
287.98141 1007.7136 -28.290039
293.12405 1007.7136 -28.290039
295.72418 1018.0468 -51.062988
300.823 1018.0468 -51.062988
305.9216 1018.0468 -51.062988
311.0202 1018.0468 -51.062988
316.11902 1018.0468 -51.062988
321.21765 1018.0468 -51.062988
326.31647 1018.0468 -51.062988
331.41507 1018.0468 -51.062988
339.40668 1007.7136 -28.290039
344.54932 1007.7136 -28.290039
349.6918 1007.7136 -28.290039
354.83444 1007.7136 -28.290039
359.97687 1007.7136 -28.290039
365.11932 1007.7136 -28.290039
370.26196 1007.7136 -28.290039
375.40442 1007.7136 -28.290039
383.79074 997.38037 -5.5170898
388.97702 997.38037 -5.5170898
394.1633 997.38037 -5.5170898
399.34976 997.38037 -5.5170898
404.53607 997.38037 -5.5170898
413.32388 986.63391 18.166748
418.55576 986.63391 18.166748
-73.120972 888.87122 220.01367
-66.865166 901.31934 192.70654
-61.293053 901.31934 192.70654
-56.246937 888.87122 220.01367
-50.622219 888.87122 220.01367
-44.997505 888.87122 220.01367
-39.372898 888.87122 220.01367
-33.748184 888.87122 220.01367
-28.123468 888.87122 220.01367
-22.498753 888.87122 220.01367
-17.031837 876.42297 247.32031
-11.35463 876.42297 247.32031
-5.6773152 876.42297 247.32031
0 888.87122 220.01367
5.6246076 888.87122 220.01367
11.042537 913.35266 166.31006
16.41116 925.38599 139.91333
21.881683 925.38599 139.91333
27.352001 925.38599 139.91333
32.822319 925.38599 139.91333
38.292843 925.38599 139.91333
43.763157 925.38599 139.91333
49.233688 925.38599 139.91333
54.704002 925.38599 139.91333
60.174316 925.38599 139.91333
65.055725 937.00427 114.427
69.223312 959.82605 64.364258
73.247337 981.81787 16.122314
77.795403 992.6062 -7.543457
82.981682 992.6062 -7.543457
87.422989 1002.9797 -30.299316
92.565445 1002.9797 -30.299316
98.540924 992.6062 -7.543457
103.7272 992.6062 -7.543457
109.8708 981.81787 16.122314
115.10287 981.81787 16.122314
121.38322 971.02942 39.78833
126.66088 971.02942 39.78833
133.12184 959.82605 64.364258
138.44662 959.82605 64.364258
143.77162 959.82605 64.364258
149.09642 959.82605 64.364258
154.42142 959.82605 64.364258
159.7462 959.82605 64.364258
165.071 959.82605 64.364258
171.91087 948.62256 88.940674
175.72078 959.82605 64.364258
181.04578 959.82605 64.364258
186.37057 959.82605 64.364258
191.69536 959.82605 64.364258
197.02036 959.82605 64.364258
202.34515 959.82605 64.364258
207.67015 959.82605 64.364258
214.88853 948.62256 88.940674
222.2735 937.00427 114.427
227.69493 937.00427 114.427
231.00513 948.62256 88.940674
236.37747 948.62256 88.940674
239.61931 959.82605 64.364258
242.76645 971.02942 39.78833
248.04411 971.02942 39.78833
248.94525 992.6062 -7.543457
254.13171 992.6062 -7.543457
257.12634 1002.9797 -30.299316
262.2688 1002.9797 -30.299316
267.41144 1002.9797 -30.299316
272.55386 1002.9797 -30.299316
277.69653 1002.9797 -30.299316
282.83899 1002.9797 -30.299316
287.98141 1002.9797 -30.299316
293.12405 1002.9797 -30.299316
298.26654 1002.9797 -30.299316
303.40918 1002.9797 -30.299316
305.9216 1013.3533 -53.055176
311.0202 1013.3533 -53.055176
316.11902 1013.3533 -53.055176
321.21765 1013.3533 -53.055176
329.1218 1002.9797 -30.299316
334.26425 1002.9797 -30.299316
339.40668 1002.9797 -30.299316
344.54932 1002.9797 -30.299316
349.6918 1002.9797 -30.299316
354.83444 1002.9797 -30.299316
363.04523 992.6062 -7.543457
368.23148 992.6062 -7.543457
373.41797 992.6062 -7.543457
378.60428 992.6062 -7.543457
383.79074 992.6062 -7.543457
388.97702 992.6062 -7.543457
394.1633 992.6062 -7.543457
399.34976 992.6062 -7.543457
404.53607 992.6062 -7.543457
413.32388 981.81787 16.122314
418.55576 981.81787 16.122314
-73.120972 883.6936 217.81592
-67.496368 883.6936 217.81592
-61.871651 883.6936 217.81592
-56.246937 883.6936 217.81592
-50.622219 883.6936 217.81592
-44.997505 883.6936 217.81592
-39.372898 883.6936 217.81592
-33.748184 883.6936 217.81592
-28.123468 883.6936 217.81592
-22.498753 883.6936 217.81592
-17.031837 871.1969 245.10205
-11.35463 871.1969 245.10205
-5.6773152 871.1969 245.10205
0 883.6936 217.81592
5.6246076 883.6936 217.81592
11.042537 908.27026 164.15283
16.563698 908.27026 164.15283
21.881683 920.35034 137.77588
27.352001 920.35034 137.77588
32.822319 920.35034 137.77588
38.292843 920.35034 137.77588
43.763157 920.35034 137.77588
49.233688 920.35034 137.77588
54.704002 920.35034 137.77588
60.174316 920.35034 137.77588
65.055725 932.01392 112.30884
69.838737 943.67737 86.841553
73.885544 966.17126 37.726074
78.479202 977.00171 14.078125
82.981682 987.83215 -9.5700684
88.168159 987.83215 -9.5700684
93.354446 987.83215 -9.5700684
98.540924 987.83215 -9.5700684
103.7272 987.83215 -9.5700684
108.91348 987.83215 -9.5700684
115.10287 977.00171 14.078125
121.38322 966.17126 37.726074
126.66088 966.17126 37.726074
131.93834 966.17126 37.726074
138.44662 954.92444 62.283691
143.77162 954.92444 62.283691
149.09642 954.92444 62.283691
154.42142 954.92444 62.283691
159.7462 954.92444 62.283691
165.071 954.92444 62.283691
171.91087 943.67737 86.841553
175.72078 954.92444 62.283691
181.04578 954.92444 62.283691
186.37057 954.92444 62.283691
191.69536 954.92444 62.283691
198.77194 943.67737 86.841553
202.34515 954.92444 62.283691
207.67015 954.92444 62.283691
214.88853 943.67737 86.841553
222.2735 932.01392 112.30884
227.69493 932.01392 112.30884
231.00513 943.67737 86.841553
236.37747 943.67737 86.841553
239.61931 954.92444 62.283691
242.76645 966.17126 37.726074
248.04411 966.17126 37.726074
251.13341 977.00171 14.078125
254.13171 987.83215 -9.5700684
257.12634 998.24597 -32.308838
262.2688 998.24597 -32.308838
267.41144 998.24597 -32.308838
272.55386 998.24597 -32.308838
277.69653 998.24597 -32.308838
282.83899 998.24597 -32.308838
287.98141 998.24597 -32.308838
293.12405 998.24597 -32.308838
298.26654 998.24597 -32.308838
303.40918 998.24597 -32.308838
305.9216 1008.6599 -55.047363
311.0202 1008.6599 -55.047363
318.8367 998.24597 -32.308838
323.97916 998.24597 -32.308838
329.1218 998.24597 -32.308838
334.26425 998.24597 -32.308838
339.40668 998.24597 -32.308838
344.54932 998.24597 -32.308838
352.67245 987.83215 -9.5700684
357.85895 987.83215 -9.5700684
363.04523 987.83215 -9.5700684
368.23148 987.83215 -9.5700684
373.41797 987.83215 -9.5700684
378.60428 987.83215 -9.5700684
383.79074 987.83215 -9.5700684
388.97702 987.83215 -9.5700684
397.62787 977.00171 14.078125
402.85995 977.00171 14.078125
408.0918 977.00171 14.078125
416.92523 966.17126 37.726074
422.20267 966.17126 37.726074
-73.120972 878.51611 215.61816
-67.496368 878.51611 215.61816
-61.871651 878.51611 215.61816
-56.246937 878.51611 215.61816
-50.622219 878.51611 215.61816
-44.997505 878.51611 215.61816
-39.372898 878.51611 215.61816
-33.748184 878.51611 215.61816
-28.123468 878.51611 215.61816
-22.498753 878.51611 215.61816
-17.031837 865.97107 242.88379
-11.35463 865.97107 242.88379
-5.6773152 865.97107 242.88379
0 878.51611 215.61816
5.6246076 878.51611 215.61816
11.042537 903.18799 161.99536
16.563698 903.18799 161.99536
22.085073 903.18799 161.99536
27.606234 903.18799 161.99536
33.127396 903.18799 161.99536
38.292843 915.31494 135.63843
43.763157 915.31494 135.63843
49.233688 915.31494 135.63843
54.704002 915.31494 135.63843
60.174316 915.31494 135.63843
65.055725 927.02356 110.19043
69.838737 938.7323 84.742432
74.548309 950.02295 60.203125
78.479202 972.18579 12.033691
82.981682 983.05811 -11.596436
88.168159 983.05811 -11.596436
93.354446 983.05811 -11.596436
98.540924 983.05811 -11.596436
103.7272 983.05811 -11.596436
108.91348 983.05811 -11.596436
115.10287 972.18579 12.033691
121.38322 961.31335 35.664062
126.66088 961.31335 35.664062
131.93834 961.31335 35.664062
138.44662 950.02295 60.203125
143.77162 950.02295 60.203125
149.09642 950.02295 60.203125
154.42142 950.02295 60.203125
159.7462 950.02295 60.203125
165.071 950.02295 60.203125
171.91087 938.7323 84.742432
177.283 938.7323 84.742432
182.65533 938.7323 84.742432
188.02748 938.7323 84.742432
193.39961 938.7323 84.742432
198.77194 938.7323 84.742432
204.14407 938.7323 84.742432
209.5164 938.7323 84.742432
216.85228 927.02356 110.19043
222.2735 927.02356 110.19043
227.69493 927.02356 110.19043
231.00513 938.7323 84.742432
236.37747 938.7323 84.742432
239.61931 950.02295 60.203125
244.94411 950.02295 60.203125
248.04411 961.31335 35.664062
251.13341 972.18579 12.033691
254.13171 983.05811 -11.596436
259.31802 983.05811 -11.596436
262.2688 993.51233 -34.318115
267.41144 993.51233 -34.318115
272.55386 993.51233 -34.318115
277.69653 993.51233 -34.318115
282.83899 993.51233 -34.318115
287.98141 993.51233 -34.318115
293.12405 993.51233 -34.318115
298.26654 993.51233 -34.318115
303.40918 993.51233 -34.318115
305.9216 1003.9666 -57.039551
311.0202 1003.9666 -57.039551
318.8367 993.51233 -34.318115
323.97916 993.51233 -34.318115
329.1218 993.51233 -34.318115
334.26425 993.51233 -34.318115
339.40668 993.51233 -34.318115
347.48615 983.05811 -11.596436
352.67245 983.05811 -11.596436
357.85895 983.05811 -11.596436
363.04523 983.05811 -11.596436
368.23148 983.05811 -11.596436
373.41797 983.05811 -11.596436
378.60428 983.05811 -11.596436
383.79074 983.05811 -11.596436
388.97702 983.05811 -11.596436
394.1633 983.05811 -11.596436
399.34976 983.05811 -11.596436
408.0918 972.18579 12.033691
413.32388 972.18579 12.033691
-73.120972 873.3385 213.42041
-67.496368 873.3385 213.42041
-61.871651 873.3385 213.42041
-56.246937 873.3385 213.42041
-50.622219 873.3385 213.42041
-44.997505 873.3385 213.42041
-39.372898 873.3385 213.42041
-33.748184 873.3385 213.42041
-28.123468 873.3385 213.42041
-22.498753 873.3385 213.42041
-17.031837 860.745 240.66528
-11.35463 860.745 240.66528
-5.6773152 860.745 240.66528
0 873.3385 213.42041
5.6246076 873.3385 213.42041
11.042537 898.10559 159.83813
16.563698 898.10559 159.83813
22.085073 898.10559 159.83813
27.606234 898.10559 159.83813
33.127396 898.10559 159.83813
38.292843 910.2793 133.50098
43.763157 910.2793 133.50098
49.233688 910.2793 133.50098
54.704002 910.2793 133.50098
60.174316 910.2793 133.50098
65.055725 922.0332 108.07227
69.838737 933.78711 82.643311
74.548309 945.12122 58.122559
78.479202 967.36975 9.989502
83.711067 967.36975 9.989502
88.168159 978.28394 -13.623047
93.354446 978.28394 -13.623047
98.540924 978.28394 -13.623047
103.7272 978.28394 -13.623047
108.91348 978.28394 -13.623047
115.10287 967.36975 9.989502
