ply
format ascii 1.0
comment PCL generated
element vertex 1591
property float x
property float y
property float z
element camera 0
property float view_px
property float view_py
property float view_pz
property float x_axisx
property float x_axisy
property float x_axisz
property float y_axisx
property float y_axisy
property float y_axisz
property float z_axisx
property float z_axisy
property float z_axisz
property float focal
property float scalex
property float scaley
property float centerx
property float centery
property int viewportx
property int viewporty
property float k1
property float k2
end_header
-181.1597 874.65869 349.77563
-175.31581 874.65869 349.77563
-169.47191 874.65869 349.77563
-163.62804 874.65869 349.77563
-156.22206 887.979 319.57983
-150.43602 887.979 319.57983
-144.65001 887.979 319.57983
-138.86398 887.979 319.57983
-133.07796 887.979 319.57983
-128.56497 874.65869 349.77563
-122.72108 874.65869 349.77563
11.042537 948.92896 181.41138
16.563698 948.92896 181.41138
21.881683 960.63477 154.87549
27.352001 960.63477 154.87549
32.822319 960.63477 154.87549
38.292843 960.63477 154.87549
43.370415 971.93665 129.25488
48.791843 971.93665 129.25488
54.21307 971.93665 129.25488
59.634293 971.93665 129.25488
65.055725 971.93665 129.25488
69.838737 983.23865 103.63428
75.211067 983.23865 103.63428
80.583206 983.23865 103.63428
85.955338 983.23865 103.63428
91.327667 983.23865 103.63428
96.699806 983.23865 103.63428
102.07214 983.23865 103.63428
106.49747 994.13708 78.928467
111.82227 994.13708 78.928467
117.14725 994.13708 78.928467
123.56087 983.23865 103.63428
127.79705 994.13708 78.928467
133.12184 994.13708 78.928467
138.44662 994.13708 78.928467
143.77162 994.13708 78.928467
149.09642 994.13708 78.928467
154.42142 994.13708 78.928467
159.7462 994.13708 78.928467
165.071 994.13708 78.928467
171.91087 983.23865 103.63428
177.283 983.23865 103.63428
182.65533 983.23865 103.63428
188.02748 983.23865 103.63428
193.39961 983.23865 103.63428
198.77194 983.23865 103.63428
204.14407 983.23865 103.63428
207.67015 994.13708 78.928467
212.99493 994.13708 78.928467
216.37878 1005.0354 54.2229
221.65645 1005.0354 54.2229
224.97366 1015.5302 30.432373
230.20573 1015.5302 30.432373
233.38622 1026.0248 6.6418457
238.57249 1026.0248 6.6418457
243.75897 1026.0248 6.6418457
248.94525 1026.0248 6.6418457
251.98389 1036.1158 -16.233887
257.12634 1036.1158 -16.233887
264.5043 1026.0248 6.6418457
269.69077 1026.0248 6.6418457
277.29312 1015.5302 30.432373
282.52521 1015.5302 30.432373
287.75708 1015.5302 30.432373
292.98892 1015.5302 30.432373
298.22101 1015.5302 30.432373
-252.19244 895.21582 288.97461
-246.46077 895.21582 288.97461
-240.72922 895.21582 288.97461
-234.99754 895.21582 288.97461
-231.44 882.65283 317.31909
-225.65399 882.65283 317.31909
-219.86795 882.65283 317.31909
-214.08206 882.65283 317.31909
-210.379 869.27942 347.49219
-204.53511 869.27942 347.49219
-198.69122 869.27942 347.49219
-192.84734 869.27942 347.49219
-188.799 856.31128 376.75098
-182.89899 856.31128 376.75098
-175.31581 869.27942 347.49219
-169.47191 869.27942 347.49219
-163.62804 869.27942 347.49219
-156.22206 882.65283 317.31909
-150.43602 882.65283 317.31909
-144.65001 882.65283 317.31909
-138.86398 882.65283 317.31909
-133.07796 882.65283 317.31909
-128.56497 869.27942 347.49219
-122.72108 869.27942 347.49219
11.042537 943.84656 179.25391
16.563698 943.84656 179.25391
21.881683 955.59912 152.73804
27.352001 955.59912 152.73804
32.822319 955.59912 152.73804
38.292843 955.59912 152.73804
43.763157 955.59912 152.73804
48.791843 966.94629 127.13672
54.21307 966.94629 127.13672
59.634293 966.94629 127.13672
65.055725 966.94629 127.13672
69.838737 978.29346 101.53516
75.211067 978.29346 101.53516
80.583206 978.29346 101.53516
85.955338 978.29346 101.53516
91.327667 978.29346 101.53516
96.699806 978.29346 101.53516
102.07214 978.29346 101.53516
106.49747 989.23547 76.8479
111.82227 989.23547 76.8479
118.18874 978.29346 101.53516
123.56087 978.29346 101.53516
128.9332 978.29346 101.53516
134.30534 978.29346 101.53516
138.44662 989.23547 76.8479
143.77162 989.23547 76.8479
149.09642 989.23547 76.8479
154.42142 989.23547 76.8479
159.7462 989.23547 76.8479
165.071 989.23547 76.8479
171.91087 978.29346 101.53516
177.283 978.29346 101.53516
182.65533 978.29346 101.53516
188.02748 978.29346 101.53516
195.16696 966.94629 127.13672
198.77194 978.29346 101.53516
204.14407 978.29346 101.53516
207.67015 989.23547 76.8479
212.99493 989.23547 76.8479
216.37878 1000.1772 52.160889
221.65645 1000.1772 52.160889
224.97366 1010.714 28.387939
230.20573 1010.714 28.387939
233.38622 1021.2506 4.6152344
238.57249 1021.2506 4.6152344
243.75897 1021.2506 4.6152344
248.94525 1021.2506 4.6152344
254.13171 1021.2506 4.6152344
259.31802 1021.2506 4.6152344
264.5043 1021.2506 4.6152344
269.69077 1021.2506 4.6152344
277.29312 1010.714 28.387939
282.52521 1010.714 28.387939
287.75708 1010.714 28.387939
295.54181 1000.1772 52.160889
-252.19244 889.93994 286.73511
-246.46077 889.93994 286.73511
-240.72922 889.93994 286.73511
-234.99754 889.93994 286.73511
-229.26587 889.93994 286.73511
-223.53421 889.93994 286.73511
-217.80254 889.93994 286.73511
-214.08206 877.3269 315.05835
-210.379 863.90015 345.20898
-204.53511 863.90015 345.20898
-198.69122 863.90015 345.20898
-192.84734 863.90015 345.20898
-188.799 850.88037 374.4458
-181.1597 863.90015 345.20898
-175.31581 863.90015 345.20898
-167.79399 877.3269 315.05835
-162.00795 877.3269 315.05835
-156.22206 877.3269 315.05835
-150.43602 877.3269 315.05835
-144.65001 877.3269 315.05835
-138.86398 877.3269 315.05835
-133.07796 877.3269 315.05835
-128.56497 863.90015 345.20898
-122.72108 863.90015 345.20898
5.521163 938.7644 177.09668
11.042537 938.7644 177.09668
16.563698 938.7644 177.09668
21.881683 950.56372 150.60059
27.352001 950.56372 150.60059
32.822319 950.56372 150.60059
38.292843 950.56372 150.60059
43.763157 950.56372 150.60059
49.233688 950.56372 150.60059
54.704002 950.56372 150.60059
59.634293 961.95605 125.01855
65.055725 961.95605 125.01855
70.476952 961.95605 125.01855
75.898376 961.95605 125.01855
81.319603 961.95605 125.01855
86.740829 961.95605 125.01855
91.327667 973.34839 99.436035
96.699806 973.34839 99.436035
102.07214 973.34839 99.436035
107.44427 973.34839 99.436035
112.81641 973.34839 99.436035
118.18874 973.34839 99.436035
123.56087 973.34839 99.436035
128.9332 973.34839 99.436035
135.53267 961.95605 125.01855
139.67747 973.34839 99.436035
145.04982 973.34839 99.436035
150.42194 973.34839 99.436035
155.79427 973.34839 99.436035
161.16641 973.34839 99.436035
166.53854 973.34839 99.436035
171.91087 973.34839 99.436035
177.283 973.34839 99.436035
182.65533 973.34839 99.436035
188.02748 973.34839 99.436035
193.39961 973.34839 99.436035
198.77194 973.34839 99.436035
204.14407 973.34839 99.436035
207.67015 984.33398 74.767334
211.10133 995.31934 50.098877
216.37878 995.31934 50.098877
221.65645 995.31934 50.098877
224.97366 1005.8981 26.34375
230.20573 1005.8981 26.34375
235.43761 1005.8981 26.34375
238.57249 1016.4767 2.5888672
243.75897 1016.4767 2.5888672
248.94525 1016.4767 2.5888672
254.13171 1016.4767 2.5888672
259.31802 1016.4767 2.5888672
264.5043 1016.4767 2.5888672
272.06128 1005.8981 26.34375
277.29312 1005.8981 26.34375
282.52521 1005.8981 26.34375
290.26434 995.31934 50.098877
295.54181 995.31934 50.098877
-248.79796 872.00085 312.79761
-240.72922 884.66382 284.49561
-234.99754 884.66382 284.49561
-229.26587 884.66382 284.49561
-223.53421 884.66382 284.49561
-217.80254 884.66382 284.49561
-214.08206 872.00085 312.79761
-210.379 858.52075 342.92554
-204.53511 858.52075 342.92554
-198.69122 858.52075 342.92554
-192.84734 858.52075 342.92554
-188.799 845.44934 372.14038
-181.1597 858.52075 342.92554
-175.31581 858.52075 342.92554
-167.79399 872.00085 312.79761
-162.00795 872.00085 312.79761
-156.22206 872.00085 312.79761
-150.43602 872.00085 312.79761
-144.65001 872.00085 312.79761
-138.86398 872.00085 312.79761
-133.07796 872.00085 312.79761
5.521163 933.68188 174.93945
10.940842 945.52808 148.46313
16.41116 945.52808 148.46313
21.881683 945.52808 148.46313
27.352001 945.52808 148.46313
32.822319 945.52808 148.46313
38.292843 945.52808 148.46313
43.763157 945.52808 148.46313
49.233688 945.52808 148.46313
54.21307 956.96558 122.90015
59.634293 956.96558 122.90015
65.055725 956.96558 122.90015
70.476952 956.96558 122.90015
75.211067 968.4032 97.336914
80.583206 968.4032 97.336914
85.955338 968.4032 97.336914
91.327667 968.4032 97.336914
96.699806 968.4032 97.336914
102.07214 968.4032 97.336914
107.44427 968.4032 97.336914
112.81641 968.4032 97.336914
118.18874 968.4032 97.336914
123.56087 968.4032 97.336914
128.9332 968.4032 97.336914
135.53267 956.96558 122.90015
139.67747 968.4032 97.336914
145.04982 968.4032 97.336914
150.42194 968.4032 97.336914
155.79427 968.4032 97.336914
161.16641 968.4032 97.336914
166.53854 968.4032 97.336914
171.91087 968.4032 97.336914
177.283 968.4032 97.336914
182.65533 968.4032 97.336914
188.02748 968.4032 97.336914
193.39961 968.4032 97.336914
198.77194 968.4032 97.336914
202.34515 979.43225 72.686768
207.67015 979.43225 72.686768
211.10133 990.4613 48.036621
216.37878 990.4613 48.036621
219.74182 1001.082 24.299561
224.97366 1001.082 24.299561
230.20573 1001.082 24.299561
235.43761 1001.082 24.299561
240.66948 1001.082 24.299561
245.90155 1001.082 24.299561
248.94525 1011.7025 0.56225586
254.13171 1011.7025 0.56225586
259.31802 1011.7025 0.56225586
266.82922 1001.082 24.299561
272.06128 1001.082 24.299561
277.29312 1001.082 24.299561
284.98691 990.4613 48.036621
290.26434 990.4613 48.036621
295.54181 990.4613 48.036621
-243.01205 866.6748 310.53687
-237.22603 866.6748 310.53687
-229.26587 879.38794 282.2561
-223.53421 879.38794 282.2561
-219.86795 866.6748 310.53687
-216.22287 853.1416 340.64233
-167.79399 866.6748 310.53687
-162.00795 866.6748 310.53687
-156.22206 866.6748 310.53687
-150.43602 866.6748 310.53687
-144.65001 866.6748 310.53687
-138.86398 866.6748 310.53687
5.4703169 940.49268 146.32568
10.940842 940.49268 146.32568
16.41116 940.49268 146.32568
21.881683 940.49268 146.32568
27.352001 940.49268 146.32568
32.822319 940.49268 146.32568
38.292843 940.49268 146.32568
43.763157 940.49268 146.32568
49.233688 940.49268 146.32568
54.21307 951.97534 120.78198
59.634293 951.97534 120.78198
65.055725 951.97534 120.78198
70.476952 951.97534 120.78198
75.211067 963.45813 95.238037
80.583206 963.45813 95.238037
85.955338 963.45813 95.238037
91.327667 963.45813 95.238037
96.699806 963.45813 95.238037
102.07214 963.45813 95.238037
107.44427 963.45813 95.238037
112.81641 963.45813 95.238037
119.26879 951.97534 120.78198
124.69002 951.97534 120.78198
130.11145 951.97534 120.78198
135.53267 951.97534 120.78198
140.9539 951.97534 120.78198
146.37532 951.97534 120.78198
150.42194 963.45813 95.238037
155.79427 963.45813 95.238037
161.16641 963.45813 95.238037
166.53854 963.45813 95.238037
171.91087 963.45813 95.238037
177.283 963.45813 95.238037
182.65533 963.45813 95.238037
188.02748 963.45813 95.238037
193.39961 963.45813 95.238037
198.77194 963.45813 95.238037
202.34515 974.53076 70.606201
205.8239 985.60339 45.974609
211.10133 985.60339 45.974609
216.37878 985.60339 45.974609
219.74182 996.26599 22.255127
224.97366 996.26599 22.255127
230.20573 996.26599 22.255127
235.43761 996.26599 22.255127
240.66948 996.26599 22.255127
245.90155 996.26599 22.255127
248.94525 1006.9285 -1.4641113
254.13171 1006.9285 -1.4641113
259.31802 1006.9285 -1.4641113
264.5043 1006.9285 -1.4641113
272.06128 996.26599 22.255127
277.29312 996.26599 22.255127
282.52521 996.26599 22.255127
287.75708 996.26599 22.255127
295.54181 985.60339 45.974609
5.4703169 935.45703 144.18823
10.940842 935.45703 144.18823
16.41116 935.45703 144.18823
22.085073 923.51733 170.62476
27.606234 923.51733 170.62476
32.822319 935.45703 144.18823
38.292843 935.45703 144.18823
43.763157 935.45703 144.18823
49.233688 935.45703 144.18823
54.704002 935.45703 144.18823
60.174316 935.45703 144.18823
65.055725 946.98499 118.66357
70.476952 946.98499 118.66357
75.898376 946.98499 118.66357
81.319603 946.98499 118.66357
85.955338 958.51282 93.138916
91.327667 958.51282 93.138916
96.699806 958.51282 93.138916
102.07214 958.51282 93.138916
107.44427 958.51282 93.138916
112.81641 958.51282 93.138916
119.26879 946.98499 118.66357
124.69002 946.98499 118.66357
130.11145 946.98499 118.66357
135.53267 946.98499 118.66357
140.9539 946.98499 118.66357
146.37532 946.98499 118.66357
150.42194 958.51282 93.138916
155.79427 958.51282 93.138916
161.16641 958.51282 93.138916
166.53854 958.51282 93.138916
171.91087 958.51282 93.138916
177.283 958.51282 93.138916
182.65533 958.51282 93.138916
188.02748 958.51282 93.138916
193.39961 958.51282 93.138916
197.02036 969.62915 68.525635
202.34515 969.62915 68.525635
205.8239 980.74536 43.912354
211.10133 980.74536 43.912354
216.37878 980.74536 43.912354
219.74182 991.44995 20.210938
224.97366 991.44995 20.210938
230.20573 991.44995 20.210938
235.43761 991.44995 20.210938
240.66948 991.44995 20.210938
245.90155 991.44995 20.210938
248.94525 1002.1544 -3.4907227
254.13171 1002.1544 -3.4907227
259.31802 1002.1544 -3.4907227
264.5043 1002.1544 -3.4907227
272.06128 991.44995 20.210938
277.29312 991.44995 20.210938
282.52521 991.44995 20.210938
287.75708 991.44995 20.210938
5.4703169 930.42163 142.05078
10.940842 930.42163 142.05078
16.41116 930.42163 142.05078
22.085073 918.43506 168.46753
27.352001 930.42163 142.05078
32.822319 930.42163 142.05078
38.292843 930.42163 142.05078
43.763157 930.42163 142.05078
49.233688 930.42163 142.05078
54.704002 930.42163 142.05078
60.174316 930.42163 142.05078
65.055725 941.99463 116.54541
70.476952 941.99463 116.54541
75.898376 941.99463 116.54541
81.319603 941.99463 116.54541
85.955338 953.56775 91.039795
91.327667 953.56775 91.039795
96.699806 953.56775 91.039795
102.07214 953.56775 91.039795
107.44427 953.56775 91.039795
113.84736 941.99463 116.54541
119.26879 941.99463 116.54541
124.69002 941.99463 116.54541
130.11145 941.99463 116.54541
135.53267 941.99463 116.54541
140.9539 941.99463 116.54541
146.37532 941.99463 116.54541
150.42194 953.56775 91.039795
155.79427 953.56775 91.039795
161.16641 953.56775 91.039795
166.53854 953.56775 91.039795
171.91087 953.56775 91.039795
177.283 953.56775 91.039795
182.65533 953.56775 91.039795
188.02748 953.56775 91.039795
193.39961 953.56775 91.039795
197.02036 964.72766 66.445068
202.34515 964.72766 66.445068
205.8239 975.88745 41.850342
211.10133 975.88745 41.850342
216.37878 975.88745 41.850342
219.74182 986.63391 18.166748
224.97366 986.63391 18.166748
230.20573 986.63391 18.166748
235.43761 986.63391 18.166748
240.66948 986.63391 18.166748
245.90155 986.63391 18.166748
251.13341 986.63391 18.166748
256.36548 986.63391 18.166748
261.59735 986.63391 18.166748
266.82922 986.63391 18.166748
272.06128 986.63391 18.166748
277.29312 986.63391 18.166748
284.98691 975.88745 41.850342
290.26434 975.88745 41.850342
5.4212241 937.00427 114.427
10.842655 937.00427 114.427
16.41116 925.38599 139.91333
22.085073 913.35266 166.31006
27.352001 925.38599 139.91333
32.822319 925.38599 139.91333
38.292843 925.38599 139.91333
43.763157 925.38599 139.91333
49.233688 925.38599 139.91333
54.704002 925.38599 139.91333
60.174316 925.38599 139.91333
65.055725 937.00427 114.427
70.476952 937.00427 114.427
75.898376 937.00427 114.427
81.319603 937.00427 114.427
86.740829 937.00427 114.427
91.327667 948.62256 88.940674
96.699806 948.62256 88.940674
102.07214 948.62256 88.940674
107.44427 948.62256 88.940674
112.81641 948.62256 88.940674
119.26879 937.00427 114.427
124.69002 937.00427 114.427
130.11145 937.00427 114.427
135.53267 937.00427 114.427
140.9539 937.00427 114.427
146.37532 937.00427 114.427
150.42194 948.62256 88.940674
155.79427 948.62256 88.940674
161.16641 948.62256 88.940674
166.53854 948.62256 88.940674
173.48186 937.00427 114.427
177.283 948.62256 88.940674
182.65533 948.62256 88.940674
188.02748 948.62256 88.940674
191.69536 959.82605 64.364258
197.02036 959.82605 64.364258
200.54623 971.02942 39.78833
205.8239 971.02942 39.78833
211.10133 971.02942 39.78833
214.50974 981.81787 16.122314
219.74182 981.81787 16.122314
224.97366 981.81787 16.122314
230.20573 981.81787 16.122314
235.43761 981.81787 16.122314
240.66948 981.81787 16.122314
245.90155 981.81787 16.122314
251.13341 981.81787 16.122314
256.36548 981.81787 16.122314
261.59735 981.81787 16.122314
266.82922 981.81787 16.122314
269.69077 992.6062 -7.543457
274.87704 992.6062 -7.543457
282.52521 981.81787 16.122314
287.75708 981.81787 16.122314
5.3721313 943.67737 86.841553
10.744469 943.67737 86.841553
16.26388 932.01392 112.30884
21.881683 920.35034 137.77588
27.352001 920.35034 137.77588
32.822319 920.35034 137.77588
38.292843 920.35034 137.77588
43.763157 920.35034 137.77588
49.233688 920.35034 137.77588
54.704002 920.35034 137.77588
60.174316 920.35034 137.77588
65.055725 932.01392 112.30884
70.476952 932.01392 112.30884
75.898376 932.01392 112.30884
81.319603 932.01392 112.30884
86.740829 932.01392 112.30884
91.327667 943.67737 86.841553
96.699806 943.67737 86.841553
102.07214 943.67737 86.841553
107.44427 943.67737 86.841553
112.81641 943.67737 86.841553
119.26879 932.01392 112.30884
124.69002 932.01392 112.30884
130.11145 932.01392 112.30884
135.53267 932.01392 112.30884
140.9539 932.01392 112.30884
146.37532 932.01392 112.30884
150.42194 943.67737 86.841553
155.79427 943.67737 86.841553
161.16641 943.67737 86.841553
166.53854 943.67737 86.841553
173.48186 932.01392 112.30884
177.283 943.67737 86.841553
182.65533 943.67737 86.841553
188.02748 943.67737 86.841553
191.69536 954.92444 62.283691
197.02036 954.92444 62.283691
200.54623 966.17126 37.726074
205.8239 966.17126 37.726074
209.27788 977.00171 14.078125
214.50974 977.00171 14.078125
219.74182 977.00171 14.078125
224.97366 977.00171 14.078125
230.20573 977.00171 14.078125
235.43761 977.00171 14.078125
240.66948 977.00171 14.078125
245.90155 977.00171 14.078125
251.13341 977.00171 14.078125
256.36548 977.00171 14.078125
261.59735 977.00171 14.078125
266.82922 977.00171 14.078125
269.69077 987.83215 -9.5700684
274.87704 987.83215 -9.5700684
282.52521 977.00171 14.078125
5.3721313 938.7323 84.742432
10.744469 938.7323 84.742432
16.26388 927.02356 110.19043
21.881683 915.31494 135.63843
27.352001 915.31494 135.63843
32.822319 915.31494 135.63843
38.292843 915.31494 135.63843
43.763157 915.31494 135.63843
49.233688 915.31494 135.63843
54.704002 915.31494 135.63843
60.174316 915.31494 135.63843
65.055725 927.02356 110.19043
70.476952 927.02356 110.19043
75.898376 927.02356 110.19043
80.583206 938.7323 84.742432
85.955338 938.7323 84.742432
92.162254 927.02356 110.19043
97.583481 927.02356 110.19043
103.00491 927.02356 110.19043
108.42614 927.02356 110.19043
113.84736 927.02356 110.19043
119.26879 927.02356 110.19043
124.69002 927.02356 110.19043
130.11145 927.02356 110.19043
134.30534 938.7323 84.742432
139.67747 938.7323 84.742432
146.37532 927.02356 110.19043
151.79655 927.02356 110.19043
157.21799 927.02356 110.19043
162.63921 927.02356 110.19043
168.06042 927.02356 110.19043
173.48186 927.02356 110.19043
178.90309 927.02356 110.19043
184.32451 927.02356 110.19043
188.02748 938.7323 84.742432
191.69536 950.02295 60.203125
195.26877 961.31335 35.664062
200.54623 961.31335 35.664062
204.04601 972.18579 12.033691
207.45441 983.05811 -11.596436
212.6407 983.05811 -11.596436
219.74182 972.18579 12.033691
224.97366 972.18579 12.033691
230.20573 972.18579 12.033691
235.43761 972.18579 12.033691
240.66948 972.18579 12.033691
245.90155 972.18579 12.033691
251.13341 972.18579 12.033691
256.36548 972.18579 12.033691
261.59735 972.18579 12.033691
266.82922 972.18579 12.033691
272.06128 972.18579 12.033691
277.29312 972.18579 12.033691
282.52521 972.18579 12.033691
5.3721313 933.78711 82.643311
10.744469 933.78711 82.643311
16.26388 922.0332 108.07227
21.881683 910.2793 133.50098
27.606234 898.10559 159.83813
33.127396 898.10559 159.83813
38.648773 898.10559 159.83813
43.763157 910.2793 133.50098
49.233688 910.2793 133.50098
54.704002 910.2793 133.50098
60.174316 910.2793 133.50098
65.055725 922.0332 108.07227
70.476952 922.0332 108.07227
75.898376 922.0332 108.07227
80.583206 933.78711 82.643311
85.955338 933.78711 82.643311
92.162254 922.0332 108.07227
97.583481 922.0332 108.07227
103.00491 922.0332 108.07227
108.42614 922.0332 108.07227
113.84736 922.0332 108.07227
119.26879 922.0332 108.07227
124.69002 922.0332 108.07227
130.11145 922.0332 108.07227
134.30534 933.78711 82.643311
139.67747 933.78711 82.643311
146.37532 922.0332 108.07227
151.79655 922.0332 108.07227
157.21799 922.0332 108.07227
162.63921 922.0332 108.07227
168.06042 922.0332 108.07227
173.48186 922.0332 108.07227
178.90309 922.0332 108.07227
184.32451 922.0332 108.07227
188.02748 933.78711 82.643311
191.69536 945.12122 58.122559
195.26877 956.45532 33.602051
200.54623 956.45532 33.602051
204.04601 967.36975 9.989502
207.45441 978.28394 -13.623047
212.6407 978.28394 -13.623047
219.74182 967.36975 9.989502
224.97366 967.36975 9.989502
230.20573 967.36975 9.989502
235.43761 967.36975 9.989502
240.66948 967.36975 9.989502
245.90155 967.36975 9.989502
251.13341 967.36975 9.989502
256.36548 967.36975 9.989502
261.59735 967.36975 9.989502
266.82922 967.36975 9.989502
272.06128 967.36975 9.989502
277.29312 967.36975 9.989502
282.52521 967.36975 9.989502
5.3721313 928.84204 80.544189
10.744469 928.84204 80.544189
16.41116 905.2439 131.36353
21.881683 905.2439 131.36353
27.606234 893.02332 157.68091
33.127396 893.02332 157.68091
38.648773 893.02332 157.68091
44.16993 893.02332 157.68091
49.233688 905.2439 131.36353
54.704002 905.2439 131.36353
60.174316 905.2439 131.36353
65.644844 905.2439 131.36353
70.476952 917.04297 105.9541
75.898376 917.04297 105.9541
81.319603 917.04297 105.9541
86.740829 917.04297 105.9541
92.162254 917.04297 105.9541
97.583481 917.04297 105.9541
103.00491 917.04297 105.9541
108.42614 917.04297 105.9541
113.84736 917.04297 105.9541
119.26879 917.04297 105.9541
124.69002 917.04297 105.9541
128.9332 928.84204 80.544189
134.30534 928.84204 80.544189
139.67747 928.84204 80.544189
146.37532 917.04297 105.9541
151.79655 917.04297 105.9541
157.21799 917.04297 105.9541
162.63921 917.04297 105.9541
168.06042 917.04297 105.9541
173.48186 917.04297 105.9541
178.90309 917.04297 105.9541
184.32451 917.04297 105.9541
188.02748 928.84204 80.544189
191.69536 940.21973 56.041992
195.26877 951.59741 31.539795
200.54623 951.59741 31.539795
204.04601 962.55371 7.9453125
207.45441 973.51001 -15.649414
212.6407 973.51001 -15.649414
219.74182 962.55371 7.9453125
224.97366 962.55371 7.9453125
230.20573 962.55371 7.9453125
235.43761 962.55371 7.9453125
240.66948 962.55371 7.9453125
248.04411 951.59741 31.539795
251.13341 962.55371 7.9453125
256.36548 962.55371 7.9453125
261.59735 962.55371 7.9453125
266.82922 962.55371 7.9453125
272.06128 962.55371 7.9453125
277.29312 962.55371 7.9453125
282.52521 962.55371 7.9453125
5.4212241 912.05249 103.83569
10.842655 912.05249 103.83569
16.41116 900.20825 129.22607
21.881683 900.20825 129.22607
27.606234 887.94092 155.52344
33.127396 887.94092 155.52344
38.648773 887.94092 155.52344
44.16993 887.94092 155.52344
49.233688 900.20825 129.22607
54.704002 900.20825 129.22607
60.174316 900.20825 129.22607
65.644844 900.20825 129.22607
71.115158 900.20825 129.22607
76.585686 900.20825 129.22607
81.319603 912.05249 103.83569
86.740829 912.05249 103.83569
92.162254 912.05249 103.83569
97.583481 912.05249 103.83569
103.00491 912.05249 103.83569
108.42614 912.05249 103.83569
113.84736 912.05249 103.83569
119.26879 912.05249 103.83569
124.69002 912.05249 103.83569
128.9332 923.89673 78.445068
134.30534 923.89673 78.445068
139.67747 923.89673 78.445068
146.37532 912.05249 103.83569
151.79655 912.05249 103.83569
157.21799 912.05249 103.83569
162.63921 912.05249 103.83569
168.06042 912.05249 103.83569
173.48186 912.05249 103.83569
178.90309 912.05249 103.83569
184.32451 912.05249 103.83569
188.02748 923.89673 78.445068
191.69536 935.31812 53.961426
195.26877 946.73938 29.477783
198.81393 957.73767 5.9008789
202.26811 968.73584 -17.676025
207.45441 968.73584 -17.676025
212.6407 968.73584 -17.676025
217.82718 968.73584 -17.676025
224.97366 957.73767 5.9008789
230.20573 957.73767 5.9008789
237.48901 946.73938 29.477783
242.76645 946.73938 29.477783
248.04411 946.73938 29.477783
253.32158 946.73938 29.477783
258.59924 946.73938 29.477783
261.59735 957.73767 5.9008789
266.82922 957.73767 5.9008789
272.06128 957.73767 5.9008789
5.4212241 907.06226 101.71753
10.842655 907.06226 101.71753
16.41116 895.17285 127.08862
22.085073 882.85864 153.36621
27.606234 882.85864 153.36621
33.127396 882.85864 153.36621
38.648773 882.85864 153.36621
44.16993 882.85864 153.36621
49.691303 882.85864 153.36621
54.704002 895.17285 127.08862
60.174316 895.17285 127.08862
65.644844 895.17285 127.08862
71.115158 895.17285 127.08862
76.585686 895.17285 127.08862
81.319603 907.06226 101.71753
86.740829 907.06226 101.71753
92.162254 907.06226 101.71753
97.583481 907.06226 101.71753
103.93769 895.17285 127.08862
108.42614 907.06226 101.71753
113.84736 907.06226 101.71753
119.26879 907.06226 101.71753
124.69002 907.06226 101.71753
130.11145 907.06226 101.71753
134.30534 918.95166 76.346191
139.67747 918.95166 76.346191
146.37532 907.06226 101.71753
151.79655 907.06226 101.71753
157.21799 907.06226 101.71753
162.63921 907.06226 101.71753
168.06042 907.06226 101.71753
173.48186 907.06226 101.71753
177.283 918.95166 76.346191
181.04578 930.41663 51.880859
186.37057 930.41663 51.880859
189.99112 941.88147 27.415771
193.58208 952.92175 3.8566895
197.08165 963.96191 -19.702393
202.26811 963.96191 -19.702393
207.45441 963.96191 -19.702393
212.6407 963.96191 -19.702393
217.82718 963.96191 -19.702393
224.97366 952.92175 3.8566895
230.20573 952.92175 3.8566895
237.48901 941.88147 27.415771
242.76645 941.88147 27.415771
248.04411 941.88147 27.415771
253.32158 941.88147 27.415771
258.59924 941.88147 27.415771
263.87668 941.88147 27.415771
266.82922 952.92175 3.8566895
272.06128 952.92175 3.8566895
5.4703169 890.13721 124.95117
10.940842 890.13721 124.95117
16.563698 877.77625 151.20874
22.085073 877.77625 151.20874
27.606234 877.77625 151.20874
33.127396 877.77625 151.20874
38.648773 877.77625 151.20874
44.16993 877.77625 151.20874
49.691303 877.77625 151.20874
54.704002 890.13721 124.95117
60.174316 890.13721 124.95117
65.644844 890.13721 124.95117
71.115158 890.13721 124.95117
76.585686 890.13721 124.95117
81.319603 902.0719 99.599121
86.740829 902.0719 99.599121
92.996849 890.13721 124.95117
98.467163 890.13721 124.95117
103.93769 890.13721 124.95117
109.408 890.13721 124.95117
114.87832 890.13721 124.95117
119.26879 902.0719 99.599121
124.69002 902.0719 99.599121
130.11145 902.0719 99.599121
135.53267 902.0719 99.599121
140.9539 902.0719 99.599121
146.37532 902.0719 99.599121
151.79655 902.0719 99.599121
157.21799 902.0719 99.599121
161.16641 914.00647 74.24707
166.53854 914.00647 74.24707
171.91087 914.00647 74.24707
177.283 914.00647 74.24707
181.04578 925.51501 49.800049
186.37057 925.51501 49.800049
189.99112 937.02332 25.353516
193.58208 948.10559 1.8122559
197.08165 959.18774 -21.729004
202.26811 959.18774 -21.729004
207.45441 959.18774 -21.729004
212.6407 959.18774 -21.729004
219.74182 948.10559 1.8122559
224.97366 948.10559 1.8122559
230.20573 948.10559 1.8122559
237.48901 937.02332 25.353516
242.76645 937.02332 25.353516
248.04411 937.02332 25.353516
253.32158 937.02332 25.353516
258.59924 937.02332 25.353516
263.87668 937.02332 25.353516
266.82922 948.10559 1.8122559
272.06128 948.10559 1.8122559
5.4703169 885.10181 122.81372
10.940842 885.10181 122.81372
16.563698 872.69397 149.05151
22.085073 872.69397 149.05151
27.606234 872.69397 149.05151
33.127396 872.69397 149.05151
38.648773 872.69397 149.05151
44.16993 872.69397 149.05151
49.233688 885.10181 122.81372
54.704002 885.10181 122.81372
60.174316 885.10181 122.81372
65.644844 885.10181 122.81372
71.115158 885.10181 122.81372
76.585686 885.10181 122.81372
82.056 885.10181 122.81372
87.526314 885.10181 122.81372
92.996849 885.10181 122.81372
98.467163 885.10181 122.81372
103.93769 885.10181 122.81372
109.408 885.10181 122.81372
114.87832 885.10181 122.81372
120.34885 885.10181 122.81372
125.81916 885.10181 122.81372
130.11145 897.08167 97.480957
135.53267 897.08167 97.480957
140.9539 897.08167 97.480957
146.37532 897.08167 97.480957
151.79655 897.08167 97.480957
157.21799 897.08167 97.480957
161.16641 909.0614 72.147949
166.53854 909.0614 72.147949
171.91087 909.0614 72.147949
175.72078 920.61353 47.719482
181.04578 920.61353 47.719482
186.37057 920.61353 47.719482
189.99112 932.16541 23.291504
195.26877 932.16541 23.291504
198.81393 943.28967 -0.23193359
204.04601 943.28967 -0.23193359
209.27788 943.28967 -0.23193359
214.50974 943.28967 -0.23193359
219.74182 943.28967 -0.23193359
224.97366 943.28967 -0.23193359
230.20573 943.28967 -0.23193359
235.43761 943.28967 -0.23193359
242.76645 932.16541 23.291504
248.04411 932.16541 23.291504
253.32158 932.16541 23.291504
258.59924 932.16541 23.291504
263.87668 932.16541 23.291504
269.15411 932.16541 23.291504
274.43176 932.16541 23.291504
5.4703169 880.06616 120.67627
10.940842 880.06616 120.67627
16.563698 867.61157 146.89404
22.28846 855.1571 173.11182
27.860468 855.1571 173.11182
33.127396 867.61157 146.89404
38.648773 867.61157 146.89404
44.16993 867.61157 146.89404
49.233688 880.06616 120.67627
54.704002 880.06616 120.67627
60.174316 880.06616 120.67627
65.644844 880.06616 120.67627
71.115158 880.06616 120.67627
76.585686 880.06616 120.67627
82.056 880.06616 120.67627
87.526314 880.06616 120.67627
92.996849 880.06616 120.67627
98.467163 880.06616 120.67627
103.93769 880.06616 120.67627
109.408 880.06616 120.67627
114.87832 880.06616 120.67627
120.34885 880.06616 120.67627
125.81916 880.06616 120.67627
131.28969 880.06616 120.67627
136.76001 880.06616 120.67627
140.9539 892.09119 95.362549
146.37532 892.09119 95.362549
150.42194 904.11621 70.048828
155.79427 904.11621 70.048828
161.16641 904.11621 70.048828
166.53854 904.11621 70.048828
171.91087 904.11621 70.048828
175.72078 915.71191 45.638916
181.04578 915.71191 45.638916
186.37057 915.71191 45.638916
189.99112 927.30737 21.229492
195.26877 927.30737 21.229492
198.81393 938.47351 -2.276123
204.04601 938.47351 -2.276123
209.27788 938.47351 -2.276123
214.50974 938.47351 -2.276123
219.74182 938.47351 -2.276123
224.97366 938.47351 -2.276123
230.20573 938.47351 -2.276123
235.43761 938.47351 -2.276123
242.76645 927.30737 21.229492
248.04411 927.30737 21.229492
253.32158 927.30737 21.229492
258.59924 927.30737 21.229492
263.87668 927.30737 21.229492
269.15411 927.30737 21.229492
5.5720086 850.02808 170.93481
11.14423 850.02808 170.93481
16.716238 850.02808 170.93481
22.28846 850.02808 170.93481
27.860468 850.02808 170.93481
33.127396 862.5293 144.73682
38.648773 862.5293 144.73682
44.16993 862.5293 144.73682
49.233688 875.03076 118.53882
54.704002 875.03076 118.53882
60.174316 875.03076 118.53882
65.644844 875.03076 118.53882
71.115158 875.03076 118.53882
76.585686 875.03076 118.53882
82.056 875.03076 118.53882
87.526314 875.03076 118.53882
92.996849 875.03076 118.53882
98.467163 875.03076 118.53882
103.93769 875.03076 118.53882
109.408 875.03076 118.53882
114.87832 875.03076 118.53882
120.34885 875.03076 118.53882
125.81916 875.03076 118.53882
131.28969 875.03076 118.53882
136.76001 875.03076 118.53882
140.9539 887.10095 93.244385
146.37532 887.10095 93.244385
150.42194 899.17114 67.949707
155.79427 899.17114 67.949707
161.16641 899.17114 67.949707
166.53854 899.17114 67.949707
170.396 910.8103 43.55835
175.72078 910.8103 43.55835
181.04578 910.8103 43.55835
184.71367 922.44946 19.167236
189.99112 922.44946 19.167236
195.26877 922.44946 19.167236
198.81393 933.65759 -4.3205566
204.04601 933.65759 -4.3205566
209.27788 933.65759 -4.3205566
214.50974 933.65759 -4.3205566
219.74182 933.65759 -4.3205566
226.93391 922.44946 19.167236
232.21156 922.44946 19.167236
237.48901 922.44946 19.167236
242.76645 922.44946 19.167236
245.90155 933.65759 -4.3205566
251.13341 933.65759 -4.3205566
258.59924 922.44946 19.167236
263.87668 922.44946 19.167236
271.56848 910.8103 43.55835
11.24943 831.91797 195.83838
16.874039 831.91797 195.83838
22.498859 831.91797 195.83838
27.860468 844.8988 168.75757
33.127396 857.4469 142.57959
38.648773 857.4469 142.57959
44.16993 857.4469 142.57959
49.233688 869.99512 116.40137
54.704002 869.99512 116.40137
60.174316 869.99512 116.40137
65.644844 869.99512 116.40137
71.115158 869.99512 116.40137
76.585686 869.99512 116.40137
82.056 869.99512 116.40137
87.526314 869.99512 116.40137
92.996849 869.99512 116.40137
98.467163 869.99512 116.40137
103.93769 869.99512 116.40137
109.408 869.99512 116.40137
114.87832 869.99512 116.40137
120.34885 869.99512 116.40137
125.81916 869.99512 116.40137
131.28969 869.99512 116.40137
136.76001 869.99512 116.40137
140.9539 882.1106 91.125977
146.37532 882.1106 91.125977
150.42194 894.22595 65.850586
155.79427 894.22595 65.850586
161.16641 894.22595 65.850586
166.53854 894.22595 65.850586
170.396 905.90869 41.477783
175.72078 905.90869 41.477783
181.04578 905.90869 41.477783
184.71367 917.59143 17.105225
189.99112 917.59143 17.105225
195.26877 917.59143 17.105225
198.81393 928.84143 -6.3647461
204.04601 928.84143 -6.3647461
209.27788 928.84143 -6.3647461
214.50974 928.84143 -6.3647461
219.74182 928.84143 -6.3647461
224.97366 928.84143 -6.3647461
232.21156 917.59143 17.105225
237.48901 917.59143 17.105225
242.76645 917.59143 17.105225
245.90155 928.84143 -6.3647461
251.13341 928.84143 -6.3647461
258.59924 917.59143 17.105225
263.87668 917.59143 17.105225
11.14423 839.76978 166.58032
16.874039 826.7406 193.64062
22.498859 826.7406 193.64062
27.860468 839.76978 166.58032
33.127396 852.36462 140.42212
38.648773 852.36462 140.42212
43.763157 864.95972 114.26392
49.233688 864.95972 114.26392
54.704002 864.95972 114.26392
60.174316 864.95972 114.26392
65.644844 864.95972 114.26392
71.115158 864.95972 114.26392
76.585686 864.95972 114.26392
82.056 864.95972 114.26392
87.526314 864.95972 114.26392
92.996849 864.95972 114.26392
98.467163 864.95972 114.26392
103.00491 877.12024 89.007812
108.42614 877.12024 89.007812
114.87832 864.95972 114.26392
120.34885 864.95972 114.26392
125.81916 864.95972 114.26392
130.11145 877.12024 89.007812
135.53267 877.12024 89.007812
140.9539 877.12024 89.007812
146.37532 877.12024 89.007812
151.79655 877.12024 89.007812
157.21799 877.12024 89.007812
161.16641 889.28088 63.751465
166.53854 889.28088 63.751465
170.396 901.0072 39.397217
175.72078 901.0072 39.397217
181.04578 901.0072 39.397217
184.71367 912.73352 15.043213
189.99112 912.73352 15.043213
195.26877 912.73352 15.043213
198.81393 924.02551 -8.4089355
204.04601 924.02551 -8.4089355
209.27788 924.02551 -8.4089355
214.50974 924.02551 -8.4089355
219.74182 924.02551 -8.4089355
224.97366 924.02551 -8.4089355
232.21156 912.73352 15.043213
237.48901 912.73352 15.043213
242.76645 912.73352 15.043213
245.90155 924.02551 -8.4089355
251.13341 924.02551 -8.4089355
258.59924 912.73352 15.043213
263.87668 912.73352 15.043213
11.14423 834.64062 164.40308
16.716238 834.64062 164.40308
22.28846 834.64062 164.40308
27.860468 834.64062 164.40308
33.127396 847.28223 138.26489
38.648773 847.28223 138.26489
43.763157 859.92407 112.12622
49.233688 859.92407 112.12622
54.704002 859.92407 112.12622
60.174316 859.92407 112.12622
65.644844 859.92407 112.12622
71.115158 859.92407 112.12622
76.585686 859.92407 112.12622
82.056 859.92407 112.12622
87.526314 859.92407 112.12622
92.996849 859.92407 112.12622
98.467163 859.92407 112.12622
103.00491 872.12988 86.889404
108.42614 872.12988 86.889404
114.87832 859.92407 112.12622
120.34885 859.92407 112.12622
125.81916 859.92407 112.12622
130.11145 872.12988 86.889404
135.53267 872.12988 86.889404
140.9539 872.12988 86.889404
146.37532 872.12988 86.889404
151.79655 872.12988 86.889404
157.21799 872.12988 86.889404
161.16641 884.33557 61.652344
166.53854 884.33557 61.652344
170.396 896.10559 37.31665
175.72078 896.10559 37.31665
181.04578 896.10559 37.31665
184.71367 907.87549 12.980957
189.99112 907.87549 12.980957
195.26877 907.87549 12.980957
198.81393 919.20947 -10.453369
204.04601 919.20947 -10.453369
209.27788 919.20947 -10.453369
216.37878 907.87549 12.980957
221.65645 907.87549 12.980957
226.93391 907.87549 12.980957
232.21156 907.87549 12.980957
237.48901 907.87549 12.980957
242.76645 907.87549 12.980957
248.04411 907.87549 12.980957
253.32158 907.87549 12.980957
258.59924 907.87549 12.980957
11.14423 829.51147 162.22607
16.716238 829.51147 162.22607
22.28846 829.51147 162.22607
27.860468 829.51147 162.22607
33.127396 842.19995 136.10767
38.648773 842.19995 136.10767
43.763157 854.88867 109.98901
49.233688 854.88867 109.98901
54.704002 854.88867 109.98901
60.174316 854.88867 109.98901
65.644844 854.88867 109.98901
71.115158 854.88867 109.98901
76.585686 854.88867 109.98901
82.056 854.88867 109.98901
87.526314 854.88867 109.98901
92.996849 854.88867 109.98901
98.467163 854.88867 109.98901
103.93769 854.88867 109.98901
109.408 854.88867 109.98901
114.87832 854.88867 109.98901
120.34885 854.88867 109.98901
125.81916 854.88867 109.98901
130.11145 867.13965 84.77124
135.53267 867.13965 84.77124
140.9539 867.13965 84.77124
146.37532 867.13965 84.77124
151.79655 867.13965 84.77124
155.79427 879.39062 59.553467
161.16641 879.39062 59.553467
166.53854 879.39062 59.553467
170.396 891.2041 35.236084
175.72078 891.2041 35.236084
181.04578 891.2041 35.236084
184.71367 903.01746 10.918945
189.99112 903.01746 10.918945
195.26877 903.01746 10.918945
198.81393 914.39343 -12.497559
204.04601 914.39343 -12.497559
209.27788 914.39343 -12.497559
216.37878 903.01746 10.918945
221.65645 903.01746 10.918945
226.93391 903.01746 10.918945
232.21156 903.01746 10.918945
237.48901 903.01746 10.918945
242.76645 903.01746 10.918945
248.04411 903.01746 10.918945
253.32158 903.01746 10.918945
11.14423 824.38232 160.04883
16.563698 837.11768 133.9502
22.085073 837.11768 133.9502
27.860468 824.38232 160.04883
33.127396 837.11768 133.9502
38.648773 837.11768 133.9502
44.16993 837.11768 133.9502
49.233688 849.85303 107.85132
54.704002 849.85303 107.85132
60.733631 837.11768 133.9502
65.644844 849.85303 107.85132
71.115158 849.85303 107.85132
76.585686 849.85303 107.85132
82.056 849.85303 107.85132
87.526314 849.85303 107.85132
92.996849 849.85303 107.85132
97.583481 862.14917 82.653076
103.00491 862.14917 82.653076
108.42614 862.14917 82.653076
113.84736 862.14917 82.653076
120.34885 849.85303 107.85132
125.81916 849.85303 107.85132
130.11145 862.14917 82.653076
135.53267 862.14917 82.653076
140.9539 862.14917 82.653076
146.37532 862.14917 82.653076
151.79655 862.14917 82.653076
155.79427 874.44531 57.454346
161.16641 874.44531 57.454346
166.53854 874.44531 57.454346
170.396 886.30249 33.155518
175.72078 886.30249 33.155518
179.43622 898.15942 8.8569336
184.71367 898.15942 8.8569336
189.99112 898.15942 8.8569336
195.26877 898.15942 8.8569336
198.81393 909.57739 -14.541992
204.04601 909.57739 -14.541992
209.27788 909.57739 -14.541992
216.37878 898.15942 8.8569336
221.65645 898.15942 8.8569336
226.93391 898.15942 8.8569336
232.21156 898.15942 8.8569336
237.48901 898.15942 8.8569336
242.76645 898.15942 8.8569336
248.04411 898.15942 8.8569336
253.32158 898.15942 8.8569336
11.14423 819.25305 157.87158
16.563698 832.03516 131.79297
22.085073 832.03516 131.79297
27.860468 819.25305 157.87158
33.127396 832.03516 131.79297
38.648773 832.03516 131.79297
44.16993 832.03516 131.79297
49.691303 832.03516 131.79297
55.212467 832.03516 131.79297
60.733631 832.03516 131.79297
66.255005 832.03516 131.79297
71.115158 844.8175 105.71387
76.585686 844.8175 105.71387
82.056 844.8175 105.71387
87.526314 844.8175 105.71387
92.162254 857.15881 80.534668
97.583481 857.15881 80.534668
103.00491 857.15881 80.534668
108.42614 857.15881 80.534668
113.84736 857.15881 80.534668
120.34885 844.8175 105.71387
125.81916 844.8175 105.71387
130.11145 857.15881 80.534668
135.53267 857.15881 80.534668
140.9539 857.15881 80.534668
146.37532 857.15881 80.534668
151.79655 857.15881 80.534668
157.21799 857.15881 80.534668
162.63921 857.15881 80.534668
166.53854 869.50012 55.355225
170.396 881.40088 31.074707
175.72078 881.40088 31.074707
179.43622 893.30139 6.7946777
184.71367 893.30139 6.7946777
188.35001 904.76123 -16.586182
193.58208 904.76123 -16.586182
200.54623 893.30139 6.7946777
204.04601 904.76123 -16.586182
209.27788 904.76123 -16.586182
216.37878 893.30139 6.7946777
221.65645 893.30139 6.7946777
226.93391 893.30139 6.7946777
232.21156 893.30139 6.7946777
239.61931 881.40088 31.074707
244.94411 881.40088 31.074707
250.2691 881.40088 31.074707
11.14423 814.12402 155.69434
16.716238 814.12402 155.69434
22.28846 814.12402 155.69434
27.860468 814.12402 155.69434
33.127396 826.953 129.6355
38.648773 826.953 129.6355
44.16993 826.953 129.6355
49.691303 826.953 129.6355
55.212467 826.953 129.6355
60.733631 826.953 129.6355
66.255005 826.953 129.6355
71.115158 839.78198 103.57642
76.585686 839.78198 103.57642
81.319603 852.16858 78.416504
86.740829 852.16858 78.416504
92.162254 852.16858 78.416504
97.583481 852.16858 78.416504
103.00491 852.16858 78.416504
108.42614 852.16858 78.416504
113.84736 852.16858 78.416504
120.34885 839.78198 103.57642
125.81916 839.78198 103.57642
131.28969 839.78198 103.57642
136.76001 839.78198 103.57642
140.9539 852.16858 78.416504
146.37532 852.16858 78.416504
151.79655 852.16858 78.416504
157.21799 852.16858 78.416504
161.16641 864.55505 53.256104
166.53854 864.55505 53.256104
170.396 876.49927 28.994141
175.72078 876.49927 28.994141
179.43622 888.44348 4.732666
184.71367 888.44348 4.732666
188.35001 899.94531 -18.630371
193.58208 899.94531 -18.630371
200.54623 888.44348 4.732666
204.04601 899.94531 -18.630371
209.27788 899.94531 -18.630371
216.37878 888.44348 4.732666
221.65645 888.44348 4.732666
226.93391 888.44348 4.732666
234.29451 876.49927 28.994141
239.61931 876.49927 28.994141
244.94411 876.49927 28.994141
252.49408 864.55505 53.256104
11.24943 795.67505 180.4541
16.716238 808.99487 153.51709
22.085073 821.87061 127.47827
27.606234 821.87061 127.47827
33.127396 821.87061 127.47827
38.648773 821.87061 127.47827
44.16993 821.87061 127.47827
49.691303 821.87061 127.47827
55.212467 821.87061 127.47827
60.733631 821.87061 127.47827
66.255005 821.87061 127.47827
71.115158 834.74634 101.43896
76.585686 834.74634 101.43896
81.319603 847.1781 76.298096
86.740829 847.1781 76.298096
92.162254 847.1781 76.298096
97.583481 847.1781 76.298096
103.93769 834.74634 101.43896
109.408 834.74634 101.43896
114.87832 834.74634 101.43896
120.34885 834.74634 101.43896
125.81916 834.74634 101.43896
131.28969 834.74634 101.43896
136.76001 834.74634 101.43896
140.9539 847.1781 76.298096
146.37532 847.1781 76.298096
151.79655 847.1781 76.298096
157.21799 847.1781 76.298096
161.16641 859.60986 51.156982
166.53854 859.60986 51.156982
170.396 871.59766 26.913574
175.72078 871.59766 26.913574
179.43622 883.58545 2.6704102
184.71367 883.58545 2.6704102
189.99112 883.58545 2.6704102
195.26877 883.58545 2.6704102
200.54623 883.58545 2.6704102
204.04601 895.12927 -20.674805
209.27788 895.12927 -20.674805
216.37878 883.58545 2.6704102
221.65645 883.58545 2.6704102
226.93391 883.58545 2.6704102
234.29451 871.59766 26.913574
239.61931 871.59766 26.913574
244.94411 871.59766 26.913574
252.49408 859.60986 51.156982
11.24943 790.49756 178.25659
16.716238 803.86572 151.34009
22.085073 816.78833 125.32104
27.606234 816.78833 125.32104
33.127396 816.78833 125.32104
38.648773 816.78833 125.32104
44.16993 816.78833 125.32104
49.691303 816.78833 125.32104
55.212467 816.78833 125.32104
60.733631 816.78833 125.32104
66.255005 816.78833 125.32104
71.115158 829.71094 99.301514
76.585686 829.71094 99.301514
82.056 829.71094 99.301514
87.526314 829.71094 99.301514
92.996849 829.71094 99.301514
98.467163 829.71094 99.301514
103.93769 829.71094 99.301514
109.408 829.71094 99.301514
114.87832 829.71094 99.301514
120.34885 829.71094 99.301514
125.81916 829.71094 99.301514
131.28969 829.71094 99.301514
136.76001 829.71094 99.301514
142.23032 829.71094 99.301514
146.37532 842.18787 74.179932
151.79655 842.18787 74.179932
155.79427 854.66479 49.057861
161.16641 854.66479 49.057861
165.071 866.69617 24.833008
168.8811 878.72754 0.60839844
174.15857 878.72754 0.60839844
179.43622 878.72754 0.60839844
184.71367 878.72754 0.60839844
189.99112 878.72754 0.60839844
195.26877 878.72754 0.60839844
200.54623 878.72754 0.60839844
205.8239 878.72754 0.60839844
211.10133 878.72754 0.60839844
216.37878 878.72754 0.60839844
221.65645 878.72754 0.60839844
226.93391 878.72754 0.60839844
234.29451 866.69617 24.833008
239.61931 866.69617 24.833008
247.12175 854.66479 49.057861
254.80147 842.18787 74.179932
0 729.41748 288.12451
5.6772065 771.90344 202.95435
11.24943 785.31995 176.05859
16.874039 785.31995 176.05859
22.498859 785.31995 176.05859
27.860468 798.73657 149.16284
33.432476 798.73657 149.16284
38.648773 811.70593 123.16357
44.16993 811.70593 123.16357
49.691303 811.70593 123.16357
55.212467 811.70593 123.16357
60.733631 811.70593 123.16357
66.255005 811.70593 123.16357
71.115158 824.67529 97.164062
76.585686 824.67529 97.164062
82.056 824.67529 97.164062
87.526314 824.67529 97.164062
92.996849 824.67529 97.164062
98.467163 824.67529 97.164062
103.93769 824.67529 97.164062
109.408 824.67529 97.164062
114.87832 824.67529 97.164062
120.34885 824.67529 97.164062
125.81916 824.67529 97.164062
131.28969 824.67529 97.164062
136.76001 824.67529 97.164062
142.23032 824.67529 97.164062
146.37532 837.19751 72.061523
151.79655 837.19751 72.061523
155.79427 849.71948 46.95874
161.16641 849.71948 46.95874
165.071 861.79456 22.752441
168.8811 873.86938 -1.4536133
174.15857 873.86938 -1.4536133
179.43622 873.86938 -1.4536133
184.71367 873.86938 -1.4536133
189.99112 873.86938 -1.4536133
195.26877 873.86938 -1.4536133
200.54623 873.86938 -1.4536133
205.8239 873.86938 -1.4536133
211.10133 873.86938 -1.4536133
216.37878 873.86938 -1.4536133
221.65645 873.86938 -1.4536133
226.93391 873.86938 -1.4536133
234.29451 861.79456 22.752441
241.7496 849.71948 46.95874
0 724.03833 285.84106
5.6772065 766.67749 200.73608
11.24943 780.14246 173.86108
16.874039 780.14246 173.86108
22.498859 780.14246 173.86108
28.123468 780.14246 173.86108
33.432476 793.60754 146.9856
38.648773 806.62366 121.00635
44.16993 806.62366 121.00635
49.691303 806.62366 121.00635
55.212467 806.62366 121.00635
60.733631 806.62366 121.00635
66.255005 806.62366 121.00635
71.115158 819.63989 95.026611
76.585686 819.63989 95.026611
82.056 819.63989 95.026611
87.526314 819.63989 95.026611
92.996849 819.63989 95.026611
98.467163 819.63989 95.026611
103.93769 819.63989 95.026611
109.408 819.63989 95.026611
114.87832 819.63989 95.026611
120.34885 819.63989 95.026611
125.81916 819.63989 95.026611
131.28969 819.63989 95.026611
136.76001 819.63989 95.026611
142.23032 819.63989 95.026611
147.70084 819.63989 95.026611
151.79655 832.20715 69.943359
155.79427 844.77454 44.859863
161.16641 844.77454 44.859863
165.071 856.89307 20.671875
168.8811 869.01147 -3.515625
174.15857 869.01147 -3.515625
179.43622 869.01147 -3.515625
184.71367 869.01147 -3.515625
189.99112 869.01147 -3.515625
195.26877 869.01147 -3.515625
200.54623 869.01147 -3.515625
205.8239 869.01147 -3.515625
211.10133 869.01147 -3.515625
216.37878 869.01147 -3.515625
221.65645 869.01147 -3.515625
226.93391 869.01147 -3.515625
234.29451 856.89307 20.671875
243.9588 832.20715 69.943359
5.7315598 747.48755 226.26758
11.35463 761.45142 198.51782
17.031837 761.45142 198.51782
22.709261 761.45142 198.51782
28.123468 774.96484 171.66333
33.748077 774.96484 171.66333
39.0047 788.47827 144.80835
44.576702 788.47827 144.80835
49.691303 801.54126 118.84888
55.212467 801.54126 118.84888
60.733631 801.54126 118.84888
66.255005 801.54126 118.84888
71.115158 814.60425 92.88916
