ply
format ascii 1.0
comment PCL generated
element vertex 1546
property float x
property float y
property float z
element camera 0
property float view_px
property float view_py
property float view_pz
property float x_axisx
property float x_axisy
property float x_axisz
property float y_axisx
property float y_axisy
property float y_axisz
property float z_axisx
property float z_axisy
property float z_axisz
property float focal
property float scalex
property float scaley
property float centerx
property float centery
property int viewportx
property int viewporty
property float k1
property float k2
end_header
-142.49345 883.58545 2.6704102
-137.21588 883.58545 2.6704102
-133.12184 871.59766 26.913574
-127.79694 871.59766 26.913574
-122.47205 871.59766 26.913574
-116.10578 883.58545 2.6704102
-110.82822 883.58545 2.6704102
-105.55067 883.58545 2.6704102
-100.27312 883.58545 2.6704102
-94.99556 883.58545 2.6704102
-88.943138 895.12927 -20.674805
-83.711174 895.12927 -20.674805
-78.479202 895.12927 -20.674805
-73.247231 895.12927 -20.674805
-68.015266 895.12927 -20.674805
-62.783401 895.12927 -20.674805
-57.551434 895.12927 -20.674805
-51.42527 917.77271 -66.467529
-46.282722 917.77271 -66.467529
-41.140175 917.77271 -66.467529
-35.997726 917.77271 -66.467529
-30.855181 917.77271 -66.467529
-25.712635 917.77271 -66.467529
-20.570087 917.77271 -66.467529
-15.296041 928.87256 -88.915039
-10.197426 928.87256 -88.915039
-5.0987129 928.87256 -88.915039
0 928.87256 -88.915039
5.0986156 928.87256 -88.915039
10.197426 928.87256 -88.915039
15.296041 928.87256 -88.915039
20.394852 928.87256 -88.915039
25.493467 928.87256 -88.915039
30.592083 928.87256 -88.915039
35.690891 928.87256 -88.915039
40.789509 928.87256 -88.915039
45.888317 928.87256 -88.915039
50.986935 928.87256 -88.915039
56.085552 928.87256 -88.915039
61.710361 917.77271 -66.467529
66.852806 917.77271 -66.467529
71.995453 917.77271 -66.467529
77.137901 917.77271 -66.467529
82.28035 917.77271 -66.467529
88.168159 906.67297 -44.02002
93.354446 906.67297 -44.02002
98.540924 906.67297 -44.02002
103.7272 906.67297 -44.02002
108.91348 906.67297 -44.02002
115.10287 895.12927 -20.674805
120.33474 895.12927 -20.674805
125.5668 895.12927 -20.674805
130.79868 895.12927 -20.674805
136.03053 895.12927 -20.674805
141.2626 895.12927 -20.674805
147.7709 883.58545 2.6704102
153.04855 883.58545 2.6704102
158.326 883.58545 2.6704102
163.60345 883.58545 2.6704102
170.396 871.59766 26.913574
175.72078 871.59766 26.913574
182.65533 859.60986 51.156982
189.74574 847.1781 76.298096
195.16696 847.1781 76.298096
200.58839 847.1781 76.298096
206.00961 847.1781 76.298096
211.43105 847.1781 76.298096
202.19441 939.97241 -111.36255
205.52391 950.62805 -132.91211
210.5368 950.62805 -132.91211
215.54951 950.62805 -132.91211
220.56241 950.62805 -132.91211
225.5751 950.62805 -132.91211
230.58781 950.62805 -132.91211
235.60069 950.62805 -132.91211
240.61342 950.62805 -132.91211
245.62631 950.62805 -132.91211
250.63901 950.62805 -132.91211
255.65172 950.62805 -132.91211
262.85278 939.97241 -111.36255
267.90753 939.97241 -111.36255
272.96252 939.97241 -111.36255
278.0173 939.97241 -111.36255
285.52676 928.87256 -88.915039
290.62555 928.87256 -88.915039
-268.04959 829.71094 99.301514
-262.57916 829.71094 99.301514
-257.10886 829.71094 99.301514
-251.63843 829.71094 99.301514
-246.16801 829.71094 99.301514
-240.69759 829.71094 99.301514
-235.22717 829.71094 99.301514
-229.75684 829.71094 99.301514
-224.28642 829.71094 99.301514
-218.81601 829.71094 99.301514
-213.3456 829.71094 99.301514
-207.87517 829.71094 99.301514
-202.40485 829.71094 99.301514
-196.93442 829.71094 99.301514
-191.464 829.71094 99.301514
-185.99359 829.71094 99.301514
-180.52318 829.71094 99.301514
-142.49345 878.72754 0.60839844
-137.21588 878.72754 0.60839844
-131.93834 878.72754 0.60839844
-127.79694 866.69617 24.833008
-122.47205 866.69617 24.833008
-116.10578 878.72754 0.60839844
-110.82822 878.72754 0.60839844
-105.55067 878.72754 0.60839844
-99.406967 890.31323 -22.718994
-94.175003 890.31323 -22.718994
-88.943138 890.31323 -22.718994
-84.440552 878.72754 0.60839844
-79.163002 878.72754 0.60839844
-73.247231 890.31323 -22.718994
-68.015266 890.31323 -22.718994
-62.783401 890.31323 -22.718994
-57.551434 890.31323 -22.718994
-51.42527 913.03906 -68.476807
-46.282722 913.03906 -68.476807
-41.140175 913.03906 -68.476807
-35.997726 913.03906 -68.476807
-30.855181 913.03906 -68.476807
-25.712635 913.03906 -68.476807
-20.570087 913.03906 -68.476807
-15.296041 924.17932 -90.907227
-10.197426 924.17932 -90.907227
-5.0987129 924.17932 -90.907227
0 924.17932 -90.907227
5.0986156 924.17932 -90.907227
10.197426 924.17932 -90.907227
15.296041 924.17932 -90.907227
20.394852 924.17932 -90.907227
25.493467 924.17932 -90.907227
30.592083 924.17932 -90.907227
35.690891 924.17932 -90.907227
40.789509 924.17932 -90.907227
45.888317 924.17932 -90.907227
50.986935 924.17932 -90.907227
56.567715 913.03906 -68.476807
61.710361 913.03906 -68.476807
66.852806 913.03906 -68.476807
71.995453 913.03906 -68.476807
77.137901 913.03906 -68.476807
82.28035 913.03906 -68.476807
88.168159 901.89893 -46.046631
93.354446 901.89893 -46.046631
98.540924 901.89893 -46.046631
103.7272 901.89893 -46.046631
108.91348 901.89893 -46.046631
115.10287 890.31323 -22.718994
120.33474 890.31323 -22.718994
125.5668 890.31323 -22.718994
130.79868 890.31323 -22.718994
137.21579 878.72754 0.60839844
142.49345 878.72754 0.60839844
147.7709 878.72754 0.60839844
153.04855 878.72754 0.60839844
158.326 878.72754 0.60839844
165.071 866.69617 24.833008
170.396 866.69617 24.833008
175.72078 866.69617 24.833008
182.65533 854.66479 49.057861
189.74574 842.18787 74.179932
195.16696 842.18787 74.179932
200.58839 842.18787 74.179932
206.00961 842.18787 74.179932
197.13962 935.31946 -113.33765
202.19441 935.31946 -113.33765
205.52391 946.01392 -134.87061
210.5368 946.01392 -134.87061
215.54951 946.01392 -134.87061
220.56241 946.01392 -134.87061
225.5751 946.01392 -134.87061
230.58781 946.01392 -134.87061
235.60069 946.01392 -134.87061
240.61342 946.01392 -134.87061
245.62631 946.01392 -134.87061
250.63901 946.01392 -134.87061
255.65172 946.01392 -134.87061
260.66461 946.01392 -134.87061
267.90753 935.31946 -113.33765
272.96252 935.31946 -113.33765
278.0173 935.31946 -113.33765
283.07211 935.31946 -113.33765
288.12704 935.31946 -113.33765
-268.04959 824.67529 97.164062
-262.57916 824.67529 97.164062
-257.10886 824.67529 97.164062
-251.63843 824.67529 97.164062
-246.16801 824.67529 97.164062
-240.69759 824.67529 97.164062
-235.22717 824.67529 97.164062
-229.75684 824.67529 97.164062
-224.28642 824.67529 97.164062
-218.81601 824.67529 97.164062
-213.3456 824.67529 97.164062
-207.87517 824.67529 97.164062
-202.40485 824.67529 97.164062
-196.93442 824.67529 97.164062
-191.464 824.67529 97.164062
-185.99359 824.67529 97.164062
-180.52318 824.67529 97.164062
-142.49345 873.86938 -1.4536133
-137.21588 873.86938 -1.4536133
-131.93834 873.86938 -1.4536133
-127.79694 861.79456 22.752441
-122.47205 861.79456 22.752441
-117.14725 861.79456 22.752441
-110.82822 873.86938 -1.4536133
-105.55067 873.86938 -1.4536133
-99.406967 885.49719 -24.763428
-94.175003 885.49719 -24.763428
-88.943138 885.49719 -24.763428
-84.440552 873.86938 -1.4536133
-79.163002 873.86938 -1.4536133
-73.885452 873.86938 -1.4536133
-68.015266 885.49719 -24.763428
-62.783401 885.49719 -24.763428
-57.551434 885.49719 -24.763428
-51.42527 908.3053 -70.486328
-46.282722 908.3053 -70.486328
-41.140175 908.3053 -70.486328
-35.997726 908.3053 -70.486328
-30.855181 908.3053 -70.486328
-25.712635 908.3053 -70.486328
-20.570087 908.3053 -70.486328
-15.427542 908.3053 -70.486328
-10.285093 908.3053 -70.486328
-5.1425467 908.3053 -70.486328
0 919.48584 -92.899414
5.0986156 919.48584 -92.899414
10.197426 919.48584 -92.899414
15.296041 919.48584 -92.899414
20.394852 919.48584 -92.899414
25.493467 919.48584 -92.899414
30.592083 919.48584 -92.899414
35.690891 919.48584 -92.899414
40.789509 919.48584 -92.899414
45.888317 919.48584 -92.899414
50.986935 919.48584 -92.899414
56.567715 908.3053 -70.486328
61.710361 908.3053 -70.486328
66.852806 908.3053 -70.486328
71.995453 908.3053 -70.486328
77.137901 908.3053 -70.486328
82.28035 908.3053 -70.486328
88.168159 897.12476 -48.072998
93.354446 897.12476 -48.072998
98.540924 897.12476 -48.072998
103.7272 897.12476 -48.072998
109.8708 885.49719 -24.763428
115.10287 885.49719 -24.763428
120.33474 885.49719 -24.763428
125.5668 885.49719 -24.763428
130.79868 885.49719 -24.763428
137.21579 873.86938 -1.4536133
142.49345 873.86938 -1.4536133
147.7709 873.86938 -1.4536133
153.04855 873.86938 -1.4536133
158.326 873.86938 -1.4536133
165.071 861.79456 22.752441
170.396 861.79456 22.752441
175.72078 861.79456 22.752441
182.65533 849.71948 46.95874
189.74574 837.19751 72.061523
195.16696 837.19751 72.061523
200.58839 837.19751 72.061523
206.00961 837.19751 72.061523
197.13962 930.66638 -115.31274
198.828 952.13281 -158.34595
203.79865 952.13281 -158.34595
210.5368 941.39954 -136.82935
215.54951 941.39954 -136.82935
220.56241 941.39954 -136.82935
225.5751 941.39954 -136.82935
230.58781 941.39954 -136.82935
235.60069 941.39954 -136.82935
240.61342 941.39954 -136.82935
245.62631 941.39954 -136.82935
250.63901 941.39954 -136.82935
255.65172 941.39954 -136.82935
260.66461 941.39954 -136.82935
267.90753 930.66638 -115.31274
272.96252 930.66638 -115.31274
278.0173 930.66638 -115.31274
283.07211 930.66638 -115.31274
-262.57916 819.63989 95.026611
-257.10886 819.63989 95.026611
-251.63843 819.63989 95.026611
-246.16801 819.63989 95.026611
-240.69759 819.63989 95.026611
-235.22717 819.63989 95.026611
-229.75684 819.63989 95.026611
-224.28642 819.63989 95.026611
-218.81601 819.63989 95.026611
-213.3456 819.63989 95.026611
-207.87517 819.63989 95.026611
-202.40485 819.63989 95.026611
-196.93442 819.63989 95.026611
-191.464 819.63989 95.026611
-185.99359 819.63989 95.026611
-180.52318 819.63989 95.026611
-138.44673 856.89307 20.671875
-133.12184 856.89307 20.671875
-127.79694 856.89307 20.671875
-122.47205 856.89307 20.671875
-116.10578 869.01147 -3.515625
-110.82822 869.01147 -3.515625
-105.55067 869.01147 -3.515625
-100.27312 869.01147 -3.515625
-94.175003 880.68127 -26.807617
-88.943138 880.68127 -26.807617
-84.440552 869.01147 -3.515625
-79.163002 869.01147 -3.515625
-73.885452 869.01147 -3.515625
-68.015266 880.68127 -26.807617
-62.783401 880.68127 -26.807617
-57.551434 880.68127 -26.807617
-51.42527 903.57166 -72.495605
-46.282722 903.57166 -72.495605
-41.140175 903.57166 -72.495605
-35.997726 903.57166 -72.495605
-30.855181 903.57166 -72.495605
-25.712635 903.57166 -72.495605
-20.570087 903.57166 -72.495605
-15.296041 914.79248 -94.891602
-10.197426 914.79248 -94.891602
-5.1425467 903.57166 -72.495605
0 914.79248 -94.891602
5.0986156 914.79248 -94.891602
10.197426 914.79248 -94.891602
15.296041 914.79248 -94.891602
20.394852 914.79248 -94.891602
25.493467 914.79248 -94.891602
30.592083 914.79248 -94.891602
35.690891 914.79248 -94.891602
40.789509 914.79248 -94.891602
45.888317 914.79248 -94.891602
50.986935 914.79248 -94.891602
56.567715 903.57166 -72.495605
61.710361 903.57166 -72.495605
67.422646 892.35083 -50.099365
72.609123 892.35083 -50.099365
77.137901 903.57166 -72.495605
82.28035 903.57166 -72.495605
87.422989 903.57166 -72.495605
93.354446 892.35083 -50.099365
98.540924 892.35083 -50.099365
103.7272 892.35083 -50.099365
109.8708 880.68127 -26.807617
115.10287 880.68127 -26.807617
120.33474 880.68127 -26.807617
126.66088 869.01147 -3.515625
131.93834 869.01147 -3.515625
137.21579 869.01147 -3.515625
142.49345 869.01147 -3.515625
147.7709 869.01147 -3.515625
153.04855 869.01147 -3.515625
159.7462 856.89307 20.671875
165.071 856.89307 20.671875
170.396 856.89307 20.671875
177.283 844.77454 44.859863
182.65533 844.77454 44.859863
189.74574 832.20715 69.943359
195.16696 832.20715 69.943359
200.58839 832.20715 69.943359
206.00961 832.20715 69.943359
195.4985 936.78528 -138.78809
198.828 947.55737 -160.28809
203.79865 947.55737 -160.28809
210.5368 936.78528 -138.78809
215.54951 936.78528 -138.78809
220.56241 936.78528 -138.78809
225.5751 936.78528 -138.78809
228.65215 947.55737 -160.28809
233.62294 947.55737 -160.28809
238.59357 947.55737 -160.28809
245.62631 936.78528 -138.78809
250.63901 936.78528 -138.78809
255.65172 936.78528 -138.78809
260.66461 936.78528 -138.78809
267.90753 926.01343 -117.28784
272.96252 926.01343 -117.28784
278.0173 926.01343 -117.28784
283.07211 926.01343 -117.28784
288.12704 926.01343 -117.28784
-257.10886 814.60425 92.88916
-249.38014 827.2168 67.824951
-243.9588 827.2168 67.824951
-240.69759 814.60425 92.88916
-235.22717 814.60425 92.88916
-229.75684 814.60425 92.88916
-224.28642 814.60425 92.88916
-218.81601 814.60425 92.88916
-213.3456 814.60425 92.88916
-207.87517 814.60425 92.88916
-202.40485 814.60425 92.88916
-196.93442 814.60425 92.88916
-191.464 814.60425 92.88916
-185.99359 814.60425 92.88916
-180.52318 814.60425 92.88916
-138.44673 851.99146 18.591309
-133.12184 851.99146 18.591309
-127.79694 851.99146 18.591309
-122.47205 851.99146 18.591309
-116.10578 864.15344 -5.5778809
-110.82822 864.15344 -5.5778809
-105.55067 864.15344 -5.5778809
-100.27312 864.15344 -5.5778809
-94.175003 875.86511 -28.851807
-88.943138 875.86511 -28.851807
-84.440552 864.15344 -5.5778809
-79.163002 864.15344 -5.5778809
-73.885452 864.15344 -5.5778809
-68.015266 875.86511 -28.851807
-62.783401 875.86511 -28.851807
-57.551434 875.86511 -28.851807
-51.863602 887.57666 -52.125977
-46.282722 898.83789 -74.504883
-41.140175 898.83789 -74.504883
-35.997726 898.83789 -74.504883
-31.118181 887.57666 -52.125977
-25.931801 887.57666 -52.125977
-20.74542 887.57666 -52.125977
-15.296041 910.09912 -96.884033
-10.197426 910.09912 -96.884033
-5.1425467 898.83789 -74.504883
0 910.09912 -96.884033
5.0986156 910.09912 -96.884033
10.197426 910.09912 -96.884033
15.296041 910.09912 -96.884033
20.394852 910.09912 -96.884033
25.493467 910.09912 -96.884033
30.592083 910.09912 -96.884033
35.690891 910.09912 -96.884033
40.789509 910.09912 -96.884033
45.888317 910.09912 -96.884033
51.42527 898.83789 -74.504883
56.567715 898.83789 -74.504883
61.710361 898.83789 -74.504883
67.422646 887.57666 -52.125977
72.609123 887.57666 -52.125977
77.137901 898.83789 -74.504883
82.28035 898.83789 -74.504883
87.422989 898.83789 -74.504883
93.354446 887.57666 -52.125977
98.540924 887.57666 -52.125977
103.7272 887.57666 -52.125977
109.8708 875.86511 -28.851807
115.10287 875.86511 -28.851807
120.33474 875.86511 -28.851807
126.66088 864.15344 -5.5778809
131.93834 864.15344 -5.5778809
137.21579 864.15344 -5.5778809
142.49345 864.15344 -5.5778809
147.7709 864.15344 -5.5778809
153.04855 864.15344 -5.5778809
158.326 864.15344 -5.5778809
165.071 851.99146 18.591309
171.91087 839.82935 42.760742
177.283 839.82935 42.760742
182.65533 839.82935 42.760742
189.74574 827.2168 67.824951
195.16696 827.2168 67.824951
200.58839 827.2168 67.824951
206.00961 827.2168 67.824951
195.4985 932.1709 -140.74658
197.21494 953.34204 -182.81885
202.14523 953.34204 -182.81885
210.5368 932.1709 -140.74658
213.74007 942.98169 -162.23022
218.71088 942.98169 -162.23022
225.5751 932.1709 -140.74658
228.65215 942.98169 -162.23022
233.62294 942.98169 -162.23022
238.59357 942.98169 -162.23022
243.56438 942.98169 -162.23022
250.63901 932.1709 -140.74658
255.65172 932.1709 -140.74658
260.66461 932.1709 -140.74658
267.90753 921.36035 -119.26294
272.96252 921.36035 -119.26294
278.0173 921.36035 -119.26294
283.07211 921.36035 -119.26294
288.12704 921.36035 -119.26294
-257.10886 809.56885 90.751709
-249.38014 822.22656 65.706787
-243.9588 822.22656 65.706787
-240.69759 809.56885 90.751709
-235.22717 809.56885 90.751709
-229.75684 809.56885 90.751709
-224.28642 809.56885 90.751709
-218.81601 809.56885 90.751709
-213.3456 809.56885 90.751709
-209.80733 796.45898 116.69165
-204.28618 796.45898 116.69165
-198.76491 796.45898 116.69165
-193.24364 796.45898 116.69165
-187.72237 796.45898 116.69165
-182.2011 796.45898 116.69165
-138.44673 847.08984 16.510742
-133.12184 847.08984 16.510742
-127.79694 847.08984 16.510742
-122.47205 847.08984 16.510742
-117.14725 847.08984 16.510742
-111.82236 847.08984 16.510742
-105.55067 859.29553 -7.6398926
-100.27312 859.29553 -7.6398926
-94.99556 859.29553 -7.6398926
-89.718109 859.29553 -7.6398926
-84.440552 859.29553 -7.6398926
-79.163002 859.29553 -7.6398926
-73.885452 859.29553 -7.6398926
-68.015266 871.04919 -30.89624
-62.783401 871.04919 -30.89624
-57.551434 871.04919 -30.89624
-51.863602 882.80273 -54.152344
-46.677223 882.80273 -54.152344
-41.140175 894.10425 -76.51416
-35.997726 894.10425 -76.51416
-31.118181 882.80273 -54.152344
-25.931801 882.80273 -54.152344
-20.74542 882.80273 -54.152344
-15.296041 905.40576 -98.876221
-10.197426 905.40576 -98.876221
-5.1425467 894.10425 -76.51416
0 905.40576 -98.876221
5.0986156 905.40576 -98.876221
10.285093 894.10425 -76.51416
15.427542 894.10425 -76.51416
20.394852 905.40576 -98.876221
25.493467 905.40576 -98.876221
30.592083 905.40576 -98.876221
35.997726 894.10425 -76.51416
41.140175 894.10425 -76.51416
46.282822 894.10425 -76.51416
51.42527 894.10425 -76.51416
56.567715 894.10425 -76.51416
61.710361 894.10425 -76.51416
66.852806 894.10425 -76.51416
72.609123 882.80273 -54.152344
77.795403 882.80273 -54.152344
82.981682 882.80273 -54.152344
88.168159 882.80273 -54.152344
93.354446 882.80273 -54.152344
99.407066 871.04919 -30.89624
104.63894 871.04919 -30.89624
109.8708 871.04919 -30.89624
115.10287 871.04919 -30.89624
120.33474 871.04919 -30.89624
126.66088 859.29553 -7.6398926
131.93834 859.29553 -7.6398926
137.21579 859.29553 -7.6398926
142.49345 859.29553 -7.6398926
147.7709 859.29553 -7.6398926
153.04855 859.29553 -7.6398926
158.326 859.29553 -7.6398926
165.071 847.08984 16.510742
171.91087 834.88416 40.661621
177.283 834.88416 40.661621
182.65533 834.88416 40.661621
189.74574 822.22656 65.706787
195.16696 822.22656 65.706787
200.58839 822.22656 65.706787
206.00961 822.22656 65.706787
195.4985 927.55676 -142.70532
197.21494 948.80359 -184.74536
202.14523 948.80359 -184.74536
210.5368 927.55676 -142.70532
213.74007 938.40625 -164.17261
218.71088 938.40625 -164.17261
225.5751 927.55676 -142.70532
228.65215 938.40625 -164.17261
233.62294 938.40625 -164.17261
238.59357 938.40625 -164.17261
243.56438 938.40625 -164.17261
248.535 938.40625 -164.17261
255.65172 927.55676 -142.70532
260.66461 927.55676 -142.70532
265.67731 927.55676 -142.70532
272.96252 916.7074 -121.23804
278.0173 916.7074 -121.23804
283.07211 916.7074 -121.23804
288.12704 916.7074 -121.23804
-257.10886 804.5332 88.614258
-249.38014 817.23608 63.588623
-243.9588 817.23608 63.588623
-240.69759 804.5332 88.614258
-235.22717 804.5332 88.614258
-229.75684 804.5332 88.614258
-224.28642 804.5332 88.614258
-218.81601 804.5332 88.614258
-213.3456 804.5332 88.614258
-209.80733 791.37659 114.53442
-204.28618 791.37659 114.53442
-198.76491 791.37659 114.53442
-193.24364 791.37659 114.53442
-187.72237 791.37659 114.53442
-182.2011 791.37659 114.53442
-179.99023 764.60974 167.26782
-139.67758 829.93896 38.5625
-134.30534 829.93896 38.5625
-127.79694 842.18823 14.430176
-122.47205 842.18823 14.430176
-117.14725 842.18823 14.430176
-111.82236 842.18823 14.430176
-105.55067 854.4375 -9.7021484
-100.27312 854.4375 -9.7021484
-94.99556 854.4375 -9.7021484
-89.718109 854.4375 -9.7021484
-84.440552 854.4375 -9.7021484
-79.163002 854.4375 -9.7021484
-73.885452 854.4375 -9.7021484
-68.015266 866.23303 -32.94043
-62.783401 866.23303 -32.94043
-57.551434 866.23303 -32.94043
-51.863602 878.02856 -56.178955
-46.677223 878.02856 -56.178955
-41.490841 878.02856 -56.178955
-36.304562 878.02856 -56.178955
-31.118181 878.02856 -56.178955
-25.931801 878.02856 -56.178955
-20.74542 878.02856 -56.178955
-15.296041 900.7124 -100.86841
-10.197426 900.7124 -100.86841
-5.1425467 889.37048 -78.523682
0 889.37048 -78.523682
5.1424484 889.37048 -78.523682
10.285093 889.37048 -78.523682
15.427542 889.37048 -78.523682
20.394852 900.7124 -100.86841
25.493467 900.7124 -100.86841
30.855083 889.37048 -78.523682
35.997726 889.37048 -78.523682
41.140175 889.37048 -78.523682
46.282822 889.37048 -78.523682
51.42527 889.37048 -78.523682
56.567715 889.37048 -78.523682
61.710361 889.37048 -78.523682
66.852806 889.37048 -78.523682
71.995453 889.37048 -78.523682
77.795403 878.02856 -56.178955
82.981682 878.02856 -56.178955
88.168159 878.02856 -56.178955
94.175003 866.23303 -32.94043
99.407066 866.23303 -32.94043
104.63894 866.23303 -32.94043
109.8708 866.23303 -32.94043
115.10287 866.23303 -32.94043
120.33474 866.23303 -32.94043
126.66088 854.4375 -9.7021484
131.93834 854.4375 -9.7021484
137.21579 854.4375 -9.7021484
142.49345 854.4375 -9.7021484
147.7709 854.4375 -9.7021484
153.04855 854.4375 -9.7021484
159.7462 842.18823 14.430176
166.53854 829.93896 38.5625
171.91087 829.93896 38.5625
177.283 829.93896 38.5625
182.65533 829.93896 38.5625
189.74574 817.23608 63.588623
195.16696 817.23608 63.588623
202.40485 804.5332 88.614258
207.87517 804.5332 88.614258
197.13962 912.05432 -123.21313
200.5112 922.94238 -144.66406
205.52391 922.94238 -144.66406
208.76944 933.83057 -166.11475
213.74007 933.83057 -166.11475
218.71088 933.83057 -166.11475
223.6815 933.83057 -166.11475
228.65215 933.83057 -166.11475
233.62294 933.83057 -166.11475
238.59357 933.83057 -166.11475
243.56438 933.83057 -166.11475
248.535 933.83057 -166.11475
253.50565 933.83057 -166.11475
258.47644 933.83057 -166.11475
265.67731 922.94238 -144.66406
270.69022 922.94238 -144.66406
275.70291 922.94238 -144.66406
280.71561 922.94238 -144.66406
285.72852 922.94238 -144.66406
-254.80147 812.24585 61.470215
-249.38014 812.24585 61.470215
-243.9588 812.24585 61.470215
-240.69759 799.4978 86.476807
-235.22717 799.4978 86.476807
-229.75684 799.4978 86.476807
-224.28642 799.4978 86.476807
-218.81601 799.4978 86.476807
-213.3456 799.4978 86.476807
-209.80733 786.29431 112.37695
-204.28618 786.29431 112.37695
-198.76491 786.29431 112.37695
-195.02327 773.09094 138.27686
-189.45117 773.09094 138.27686
-183.87904 773.09094 138.27686
-179.99023 759.43225 165.07007
-139.67758 824.9939 36.463379
-134.30534 824.9939 36.463379
-127.79694 837.28674 12.349609
-122.47205 837.28674 12.349609
-117.14725 837.28674 12.349609
-110.82822 849.57959 -11.76416
-105.55067 849.57959 -11.76416
-100.27312 849.57959 -11.76416
-94.99556 849.57959 -11.76416
-89.718109 849.57959 -11.76416
-84.440552 849.57959 -11.76416
-79.163002 849.57959 -11.76416
-73.885452 849.57959 -11.76416
-68.015266 861.41711 -34.984619
-62.783401 861.41711 -34.984619
-57.551434 861.41711 -34.984619
-52.319469 861.41711 -34.984619
-47.087502 861.41711 -34.984619
-41.490841 873.25452 -58.205322
-36.304562 873.25452 -58.205322
-31.118181 873.25452 -58.205322
-25.931801 873.25452 -58.205322
-20.74542 873.25452 -58.205322
-15.427542 884.63684 -80.532959
-10.285093 884.63684 -80.532959
-5.1425467 884.63684 -80.532959
0 884.63684 -80.532959
5.1424484 884.63684 -80.532959
10.285093 884.63684 -80.532959
15.427542 884.63684 -80.532959
20.394852 896.01904 -102.8606
25.493467 896.01904 -102.8606
30.855083 884.63684 -80.532959
35.997726 884.63684 -80.532959
41.140175 884.63684 -80.532959
46.282822 884.63684 -80.532959
51.42527 884.63684 -80.532959
56.085552 896.01904 -102.8606
61.184364 896.01904 -102.8606
66.852806 884.63684 -80.532959
71.995453 884.63684 -80.532959
77.137901 884.63684 -80.532959
82.981682 873.25452 -58.205322
88.168159 873.25452 -58.205322
94.175003 861.41711 -34.984619
99.407066 861.41711 -34.984619
104.63894 861.41711 -34.984619
109.8708 861.41711 -34.984619
115.10287 861.41711 -34.984619
120.33474 861.41711 -34.984619
126.66088 849.57959 -11.76416
131.93834 849.57959 -11.76416
137.21579 849.57959 -11.76416
142.49345 849.57959 -11.76416
149.09642 837.28674 12.349609
154.42142 837.28674 12.349609
159.7462 837.28674 12.349609
166.53854 824.9939 36.463379
171.91087 824.9939 36.463379
177.283 824.9939 36.463379
184.32451 812.24585 61.470215
189.74574 812.24585 61.470215
195.16696 812.24585 61.470215
202.40485 799.4978 86.476807
207.87517 799.4978 86.476807
197.13962 907.40137 -125.18823
200.5112 918.32812 -146.62256
205.52391 918.32812 -146.62256
208.76944 929.25513 -168.05688
213.74007 929.25513 -168.05688
218.71088 929.25513 -168.05688
223.6815 929.25513 -168.05688
228.65215 929.25513 -168.05688
233.62294 929.25513 -168.05688
238.59357 929.25513 -168.05688
243.56438 929.25513 -168.05688
248.535 929.25513 -168.05688
253.50565 929.25513 -168.05688
258.47644 929.25513 -168.05688
265.67731 918.32812 -146.62256
270.69022 918.32812 -146.62256
275.70291 918.32812 -146.62256
280.71561 918.32812 -146.62256
285.72852 918.32812 -146.62256
-254.80147 807.25537 59.352051
-249.38014 807.25537 59.352051
-243.9588 807.25537 59.352051
-240.69759 794.46216 84.339355
-235.22717 794.46216 84.339355
-229.75684 794.46216 84.339355
-224.28642 794.46216 84.339355
-218.81601 794.46216 84.339355
-213.3456 794.46216 84.339355
-209.80733 781.21191 110.21973
-204.28618 781.21191 110.21973
-200.59538 767.96179 136.09961
-195.02327 767.96179 136.09961
-189.45117 767.96179 136.09961
-185.61484 754.25464 162.87231
-179.99023 754.25464 162.87231
-175.99611 740.54761 189.64453
-139.67758 820.04871 34.364258
-134.30534 820.04871 34.364258
-128.93311 820.04871 34.364258
-123.56087 820.04871 34.364258
-117.14725 832.38513 10.268799
-110.82822 844.72144 -13.826172
-105.55067 844.72144 -13.826172
-100.27312 844.72144 -13.826172
-94.99556 844.72144 -13.826172
-89.718109 844.72144 -13.826172
-84.440552 844.72144 -13.826172
-79.163002 844.72144 -13.826172
-73.885452 844.72144 -13.826172
-68.015266 856.60095 -37.029053
-62.783401 856.60095 -37.029053
-57.551434 856.60095 -37.029053
-52.319469 856.60095 -37.029053
-47.087502 856.60095 -37.029053
-41.490841 868.48047 -60.231934
-36.304562 868.48047 -60.231934
-31.391701 856.60095 -37.029053
-25.931801 868.48047 -60.231934
-20.74542 868.48047 -60.231934
-15.427542 879.90308 -82.542236
-10.285093 879.90308 -82.542236
-5.1425467 879.90308 -82.542236
0 879.90308 -82.542236
5.1424484 879.90308 -82.542236
10.285093 879.90308 -82.542236
15.427542 879.90308 -82.542236
20.570187 879.90308 -82.542236
25.712635 879.90308 -82.542236
30.855083 879.90308 -82.542236
35.997726 879.90308 -82.542236
41.140175 879.90308 -82.542236
46.282822 879.90308 -82.542236
51.42527 879.90308 -82.542236
56.085552 891.32568 -104.85278
61.184364 891.32568 -104.85278
66.852806 879.90308 -82.542236
71.995453 879.90308 -82.542236
77.137901 879.90308 -82.542236
82.981682 868.48047 -60.231934
88.168159 868.48047 -60.231934
94.175003 856.60095 -37.029053
99.407066 856.60095 -37.029053
104.63894 856.60095 -37.029053
109.8708 856.60095 -37.029053
115.10287 856.60095 -37.029053
120.33474 856.60095 -37.029053
126.66088 844.72144 -13.826172
131.93834 844.72144 -13.826172
137.21579 844.72144 -13.826172
142.49345 844.72144 -13.826172
149.09642 832.38513 10.268799
154.42142 832.38513 10.268799
159.7462 832.38513 10.268799
165.071 832.38513 10.268799
173.48186 807.25537 59.352051
178.90309 807.25537 59.352051
184.32451 807.25537 59.352051
189.74574 807.25537 59.352051
195.16696 807.25537 59.352051
202.40485 794.46216 84.339355
207.87517 794.46216 84.339355
197.13962 902.74829 -127.16333
202.19441 902.74829 -127.16333
205.52391 913.71387 -148.5813
210.5368 913.71387 -148.5813
213.74007 924.67957 -169.99927
218.71088 924.67957 -169.99927
223.6815 924.67957 -169.99927
228.65215 924.67957 -169.99927
233.62294 924.67957 -169.99927
238.59357 924.67957 -169.99927
243.56438 924.67957 -169.99927
248.535 924.67957 -169.99927
253.50565 924.67957 -169.99927
258.47644 924.67957 -169.99927
265.67731 913.71387 -148.5813
270.69022 913.71387 -148.5813
275.70291 913.71387 -148.5813
280.71561 913.71387 -148.5813
285.72852 913.71387 -148.5813
-257.10886 789.42676 82.201904
-251.63843 789.42676 82.201904
-246.16801 789.42676 82.201904
-240.69759 789.42676 82.201904
-235.22717 789.42676 82.201904
-229.75684 789.42676 82.201904
-226.37114 776.12964 108.0625
-220.84987 776.12964 108.0625
-215.3286 776.12964 108.0625
-209.80733 776.12964 108.0625
-204.28618 776.12964 108.0625
-200.59538 762.83276 133.92261
-195.02327 762.83276 133.92261
-189.45117 762.83276 133.92261
-185.61484 749.07715 160.67456
-179.99023 749.07715 160.67456
-175.99611 735.32166 187.42627
-170.3188 735.32166 187.42627
-151.79655 802.26514 57.233643
-146.37532 802.26514 57.233643
-139.67758 815.10364 32.265137
-134.30534 815.10364 32.265137
-128.93311 815.10364 32.265137
-123.56087 815.10364 32.265137
-117.14725 827.48364 8.1882324
-111.82236 827.48364 8.1882324
-106.49747 827.48364 8.1882324
-101.17258 827.48364 8.1882324
-94.99556 839.86353 -15.888184
-89.718109 839.86353 -15.888184
-84.440552 839.86353 -15.888184
-79.163002 839.86353 -15.888184
-73.885452 839.86353 -15.888184
-68.607895 839.86353 -15.888184
-62.783401 851.78503 -39.073242
-57.551434 851.78503 -39.073242
-52.319469 851.78503 -39.073242
-47.087502 851.78503 -39.073242
-41.855534 851.78503 -39.073242
-36.623669 851.78503 -39.073242
-31.391701 851.78503 -39.073242
-26.159735 851.78503 -39.073242
-20.927767 851.78503 -39.073242
-15.427542 875.16943 -84.551758
-10.285093 875.16943 -84.551758
-5.1425467 875.16943 -84.551758
0 875.16943 -84.551758
5.1424484 875.16943 -84.551758
10.285093 875.16943 -84.551758
15.427542 875.16943 -84.551758
20.570187 875.16943 -84.551758
25.712635 875.16943 -84.551758
30.855083 875.16943 -84.551758
35.997726 875.16943 -84.551758
41.140175 875.16943 -84.551758
46.282822 875.16943 -84.551758
51.42527 875.16943 -84.551758
56.567715 875.16943 -84.551758
61.710361 875.16943 -84.551758
66.852806 875.16943 -84.551758
71.995453 875.16943 -84.551758
77.137901 875.16943 -84.551758
82.981682 863.70642 -62.258301
88.168159 863.70642 -62.258301
94.175003 851.78503 -39.073242
99.407066 851.78503 -39.073242
104.63894 851.78503 -39.073242
109.8708 851.78503 -39.073242
115.10287 851.78503 -39.073242
120.33474 851.78503 -39.073242
126.66088 839.86353 -15.888184
131.93834 839.86353 -15.888184
137.21579 839.86353 -15.888184
142.49345 839.86353 -15.888184
147.7709 839.86353 -15.888184
153.04855 839.86353 -15.888184
159.7462 827.48364 8.1882324
165.071 827.48364 8.1882324
173.48186 802.26514 57.233643
178.90309 802.26514 57.233643
185.9937 789.42676 82.201904
189.74574 802.26514 57.233643
195.16696 802.26514 57.233643
202.40485 789.42676 82.201904
207.87517 789.42676 82.201904
195.4985 909.09961 -150.53979
200.5112 909.09961 -150.53979
205.52391 909.09961 -150.53979
208.76944 920.104 -171.94141
213.74007 920.104 -171.94141
218.71088 920.104 -171.94141
223.6815 920.104 -171.94141
226.7971 930.6499 -192.45117
231.7276 930.6499 -192.45117
236.65788 930.6499 -192.45117
241.58838 930.6499 -192.45117
246.51868 930.6499 -192.45117
253.50565 920.104 -171.94141
258.47644 920.104 -171.94141
265.67731 909.09961 -150.53979
270.69022 909.09961 -150.53979
275.70291 909.09961 -150.53979
283.07211 898.09534 -129.13843
288.12704 898.09534 -129.13843
-253.97739 771.04724 105.90503
-246.16801 784.39111 80.064453
-240.69759 784.39111 80.064453
-235.22717 784.39111 80.064453
-229.75684 784.39111 80.064453
-226.37114 771.04724 105.90503
-220.84987 771.04724 105.90503
-215.3286 771.04724 105.90503
-209.80733 771.04724 105.90503
-204.28618 771.04724 105.90503
-200.59538 757.70349 131.74536
-193.24364 771.04724 105.90503
-187.72237 771.04724 105.90503
-183.87904 757.70349 131.74536
-179.99023 743.89954 158.47681
-175.99611 730.0957 185.20801
-170.3188 730.0957 185.20801
-150.42194 810.15845 30.166016
-145.04982 810.15845 30.166016
-139.67758 810.15845 30.166016
-134.30534 810.15845 30.166016
-128.93311 810.15845 30.166016
-123.56087 810.15845 30.166016
-117.14725 822.58203 6.107666
-111.82236 822.58203 6.107666
-106.49747 822.58203 6.107666
-101.17258 822.58203 6.107666
-95.847679 822.58203 6.107666
-89.718109 835.00549 -17.950439
-84.440552 835.00549 -17.950439
-79.163002 835.00549 -17.950439
-73.885452 835.00549 -17.950439
-68.607895 835.00549 -17.950439
-63.330441 835.00549 -17.950439
-58.052891 835.00549 -17.950439
-52.775333 835.00549 -17.950439
-47.49778 835.00549 -17.950439
-42.22023 835.00549 -17.950439
-36.942772 835.00549 -17.950439
-31.391701 846.96899 -41.117676
-26.159735 846.96899 -41.117676
-20.927767 846.96899 -41.117676
-15.559041 858.93225 -64.284912
-10.285093 870.43555 -86.561035
-5.1425467 870.43555 -86.561035
0 870.43555 -86.561035
5.1424484 870.43555 -86.561035
10.285093 870.43555 -86.561035
15.559041 858.93225 -64.284912
20.74552 858.93225 -64.284912
25.931801 858.93225 -64.284912
30.855083 870.43555 -86.561035
35.997726 870.43555 -86.561035
41.140175 870.43555 -86.561035
46.282822 870.43555 -86.561035
51.42527 870.43555 -86.561035
56.567715 870.43555 -86.561035
61.710361 870.43555 -86.561035
66.852806 870.43555 -86.561035
71.995453 870.43555 -86.561035
77.795403 858.93225 -64.284912
82.981682 858.93225 -64.284912
88.168159 858.93225 -64.284912
94.175003 846.96899 -41.117676
99.407066 846.96899 -41.117676
104.63894 846.96899 -41.117676
109.8708 846.96899 -41.117676
115.10287 846.96899 -41.117676
120.33474 846.96899 -41.117676
126.66088 835.00549 -17.950439
131.93834 835.00549 -17.950439
137.21579 835.00549 -17.950439
142.49345 835.00549 -17.950439
147.7709 835.00549 -17.950439
153.04855 835.00549 -17.950439
159.7462 822.58203 6.107666
165.071 822.58203 6.107666
173.48186 797.27478 55.115479
178.90309 797.27478 55.115479
184.32451 797.27478 55.115479
189.74574 797.27478 55.115479
195.16696 797.27478 55.115479
200.58839 797.27478 55.115479
206.00961 797.27478 55.115479
195.4985 904.48523 -152.49854
200.5112 904.48523 -152.49854
203.79865 915.52844 -173.88354
208.76944 915.52844 -173.88354
213.74007 915.52844 -173.88354
218.71088 915.52844 -173.88354
223.6815 915.52844 -173.88354
226.7971 926.11145 -194.37769
231.7276 926.11145 -194.37769
236.65788 926.11145 -194.37769
241.58838 926.11145 -194.37769
246.51868 926.11145 -194.37769
253.50565 915.52844 -173.88354
258.47644 915.52844 -173.88354
263.44708 915.52844 -173.88354
270.69022 904.48523 -152.49854
275.70291 904.48523 -152.49854
283.07211 893.44214 -131.11353
288.12704 893.44214 -131.11353
-253.97739 765.96497 103.7478
-248.45612 765.96497 103.7478
-242.93484 765.96497 103.7478
-237.41357 765.96497 103.7478
-231.89241 765.96497 103.7478
-226.37114 765.96497 103.7478
-220.84987 765.96497 103.7478
-215.3286 765.96497 103.7478
-209.80733 765.96497 103.7478
-204.28618 765.96497 103.7478
-198.76491 765.96497 103.7478
-193.24364 765.96497 103.7478
-187.72237 765.96497 103.7478
-183.87904 752.57446 129.56812
-178.30704 752.57446 129.56812
-174.36551 738.72205 156.27905
-168.7408 738.72205 156.27905
-161.5907 752.57446 129.56812
-150.42194 805.21338 28.067139
-145.04982 805.21338 28.067139
-139.67758 805.21338 28.067139
-134.30534 805.21338 28.067139
-128.93311 805.21338 28.067139
-123.56087 805.21338 28.067139
-117.14725 817.68054 4.0270996
-111.82236 817.68054 4.0270996
-106.49747 817.68054 4.0270996
-101.17258 817.68054 4.0270996
-95.847679 817.68054 4.0270996
-90.522888 817.68054 4.0270996
-84.440552 830.14758 -20.012451
-79.163002 830.14758 -20.012451
-73.885452 830.14758 -20.012451
-68.607895 830.14758 -20.012451
-63.330441 830.14758 -20.012451
-58.052891 830.14758 -20.012451
-52.775333 830.14758 -20.012451
-47.49778 830.14758 -20.012451
-42.22023 830.14758 -20.012451
-36.942772 830.14758 -20.012451
-31.391701 842.15295 -43.161865
-26.159735 842.15295 -43.161865
-20.927767 842.15295 -43.161865
-15.559041 854.15833 -66.311279
-10.37276 854.15833 -66.311279
-5.1863799 854.15833 -66.311279
0 854.15833 -66.311279
5.1862807 854.15833 -66.311279
10.37276 854.15833 -66.311279
15.559041 854.15833 -66.311279
20.74552 854.15833 -66.311279
25.931801 854.15833 -66.311279
31.118082 854.15833 -66.311279
36.304562 854.15833 -66.311279
41.140175 865.7019 -88.570312
46.282822 865.7019 -88.570312
51.42527 865.7019 -88.570312
56.567715 865.7019 -88.570312
61.710361 865.7019 -88.570312
66.852806 865.7019 -88.570312
71.995453 865.7019 -88.570312
77.795403 854.15833 -66.311279
82.981682 854.15833 -66.311279
88.168159 854.15833 -66.311279
94.175003 842.15295 -43.161865
99.407066 842.15295 -43.161865
104.63894 842.15295 -43.161865
109.8708 842.15295 -43.161865
115.10287 842.15295 -43.161865
120.33474 842.15295 -43.161865
126.66088 830.14758 -20.012451
131.93834 830.14758 -20.012451
137.21579 830.14758 -20.012451
142.49345 830.14758 -20.012451
147.7709 830.14758 -20.012451
154.42142 817.68054 4.0270996
159.7462 817.68054 4.0270996
165.071 817.68054 4.0270996
173.48186 792.28455 52.99707
178.90309 792.28455 52.99707
184.32451 792.28455 52.99707
189.74574 792.28455 52.99707
195.16696 792.28455 52.99707
200.58839 792.28455 52.99707
206.00961 792.28455 52.99707
195.4985 899.87109 -154.45703
197.21494 921.573 -196.3042
202.14523 921.573 -196.3042
208.76944 910.95288 -175.82568
213.74007 910.95288 -175.82568
218.71088 910.95288 -175.82568
221.86681 921.573 -196.3042
226.7971 921.573 -196.3042
231.7276 921.573 -196.3042
236.65788 921.573 -196.3042
241.58838 921.573 -196.3042
246.51868 921.573 -196.3042
251.44896 921.573 -196.3042
256.37946 921.573 -196.3042
263.44708 910.95288 -175.82568
270.69022 899.87109 -154.45703
278.0173 888.78931 -133.08862
283.07211 888.78931 -133.08862
288.12704 888.78931 -133.08862
-248.45612 760.88257 101.59033
-242.93484 760.88257 101.59033
-237.41357 760.88257 101.59033
-231.89241 760.88257 101.59033
-226.37114 760.88257 101.59033
-220.84987 760.88257 101.59033
-215.3286 760.88257 101.59033
-209.80733 760.88257 101.59033
-204.28618 760.88257 101.59033
-198.76491 760.88257 101.59033
-193.24364 760.88257 101.59033
-187.72237 760.88257 101.59033
-183.87904 747.44519 127.39087
-178.30704 747.44519 127.39087
-174.36551 733.54443 154.0813
-167.16281 747.44519 127.39087
-161.5907 747.44519 127.39087
-156.01857 747.44519 127.39087
-146.37532 787.29407 50.878906
-140.95399 787.29407 50.878906
-135.53267 787.29407 50.878906
-128.93311 800.26807 25.968018
-123.56087 800.26807 25.968018
-117.14725 812.77893 1.9465332
-111.82236 812.77893 1.9465332
-106.49747 812.77893 1.9465332
-101.17258 812.77893 1.9465332
-95.847679 812.77893 1.9465332
-90.522888 812.77893 1.9465332
-84.440552 825.28955 -22.074707
-79.163002 825.28955 -22.074707
-73.885452 825.28955 -22.074707
-68.607895 825.28955 -22.074707
-63.330441 825.28955 -22.074707
-58.052891 825.28955 -22.074707
-52.775333 825.28955 -22.074707
-47.49778 825.28955 -22.074707
-42.22023 825.28955 -22.074707
-36.942772 825.28955 -22.074707
-31.66522 825.28955 -22.074707
-26.387667 825.28955 -22.074707
-21.110115 825.28955 -22.074707
-15.559041 849.38416 -68.337646
-10.37276 849.38416 -68.337646
-5.1863799 849.38416 -68.337646
0 849.38416 -68.337646
5.1862807 849.38416 -68.337646
10.37276 849.38416 -68.337646
15.559041 849.38416 -68.337646
20.74552 849.38416 -68.337646
25.931801 849.38416 -68.337646
31.118082 849.38416 -68.337646
36.304562 849.38416 -68.337646
41.140175 860.96814 -90.57959
46.282822 860.96814 -90.57959
51.42527 860.96814 -90.57959
56.567715 860.96814 -90.57959
61.710361 860.96814 -90.57959
66.852806 860.96814 -90.57959
72.609123 849.38416 -68.337646
77.795403 849.38416 -68.337646
82.981682 849.38416 -68.337646
88.943138 837.33691 -45.206055
94.175003 837.33691 -45.206055
99.407066 837.33691 -45.206055
104.63894 837.33691 -45.206055
109.8708 837.33691 -45.206055
115.10287 837.33691 -45.206055
120.33474 837.33691 -45.206055
126.66088 825.28955 -22.074707
131.93834 825.28955 -22.074707
137.21579 825.28955 -22.074707
142.49345 825.28955 -22.074707
147.7709 825.28955 -22.074707
154.42142 812.77893 1.9465332
159.7462 812.77893 1.9465332
165.071 812.77893 1.9465332
171.91087 800.26807 25.968018
178.90309 787.29407 50.878906
184.32451 787.29407 50.878906
189.74574 787.29407 50.878906
195.16696 787.29407 50.878906
200.58839 787.29407 50.878906
206.00961 787.29407 50.878906
186.19882 958.27356 -277.41187
190.97307 958.27356 -277.41187
202.14523 917.03455 -198.23047
207.07573 917.03455 -198.23047
212.00603 917.03455 -198.23047
216.93652 917.03455 -198.23047
221.86681 917.03455 -198.23047
226.7971 917.03455 -198.23047
231.7276 917.03455 -198.23047
234.72221 927.69189 -218.69312
239.61238 927.69189 -218.69312
246.51868 917.03455 -198.23047
251.44896 917.03455 -198.23047
256.37946 917.03455 -198.23047
261.30975 917.03455 -198.23047
268.41788 906.37732 -177.76807
275.70291 895.25671 -156.41577
283.07211 884.13623 -135.06372
-248.45612 755.80017 99.433105
-242.93484 755.80017 99.433105
-237.41357 755.80017 99.433105
-231.89241 755.80017 99.433105
-226.37114 755.80017 99.433105
-220.84987 755.80017 99.433105
-215.3286 755.80017 99.433105
-209.80733 755.80017 99.433105
-204.28618 755.80017 99.433105
-198.76491 755.80017 99.433105
-193.24364 755.80017 99.433105
-187.72237 755.80017 99.433105
-183.87904 742.31604 125.21362
-178.30704 742.31604 125.21362
-174.36551 728.36682 151.88354
-167.16281 742.31604 125.21362
-161.5907 742.31604 125.21362
-154.59486 755.80017 99.433105
-149.07372 755.80017 99.433105
-140.95399 782.30371 48.760498
-135.53267 782.30371 48.760498
-130.11134 782.30371 48.760498
-123.56087 795.32288 23.868896
-118.18874 795.32288 23.868896
-111.82236 807.8772 -0.1340332
-106.49747 807.8772 -0.1340332
-101.17258 807.8772 -0.1340332
-95.847679 807.8772 -0.1340332
-90.522888 807.8772 -0.1340332
-84.440552 820.43152 -24.136719
-79.163002 820.43152 -24.136719
-73.885452 820.43152 -24.136719
-68.607895 820.43152 -24.136719
-63.330441 820.43152 -24.136719
-58.052891 820.43152 -24.136719
-52.775333 820.43152 -24.136719
-47.49778 820.43152 -24.136719
-42.22023 820.43152 -24.136719
-36.942772 820.43152 -24.136719
-31.66522 820.43152 -24.136719
-26.387667 820.43152 -24.136719
-20.927767 832.52075 -47.250488
-15.559041 844.60999 -70.364258
-10.37276 844.60999 -70.364258
-5.1863799 844.60999 -70.364258
0 844.60999 -70.364258
5.1862807 844.60999 -70.364258
10.37276 844.60999 -70.364258
15.559041 844.60999 -70.364258
20.74552 844.60999 -70.364258
25.931801 844.60999 -70.364258
31.118082 844.60999 -70.364258
36.304562 844.60999 -70.364258
41.140175 856.23438 -92.589111
46.282822 856.23438 -92.589111
51.42527 856.23438 -92.589111
57.049881 844.60999 -70.364258
62.236362 844.60999 -70.364258
67.422646 844.60999 -70.364258
72.609123 844.60999 -70.364258
77.795403 844.60999 -70.364258
82.981682 844.60999 -70.364258
88.943138 832.52075 -47.250488
94.175003 832.52075 -47.250488
99.407066 832.52075 -47.250488
105.55067 820.43152 -24.136719
109.8708 832.52075 -47.250488
115.10287 832.52075 -47.250488
120.33474 832.52075 -47.250488
126.66088 820.43152 -24.136719
131.93834 820.43152 -24.136719
137.21579 820.43152 -24.136719
142.49345 820.43152 -24.136719
147.7709 820.43152 -24.136719
154.42142 807.8772 -0.1340332
159.7462 807.8772 -0.1340332
165.071 807.8772 -0.1340332
171.91087 795.32288 23.868896
178.90309 782.30371 48.760498
185.9937 769.28455 73.6521
189.74574 782.30371 48.760498
195.16696 782.30371 48.760498
200.58839 782.30371 48.760498
206.00961 782.30371 48.760498
186.19882 953.87878 -279.27734
190.97307 953.87878 -279.27734
202.14523 912.49609 -200.15698
207.07573 912.49609 -200.15698
212.00603 912.49609 -200.15698
216.93652 912.49609 -200.15698
221.86681 912.49609 -200.15698
224.94208 923.19043 -220.60376
229.83223 923.19043 -220.60376
234.72221 923.19043 -220.60376
239.61238 923.19043 -220.60376
246.51868 912.49609 -200.15698
251.44896 912.49609 -200.15698
256.37946 912.49609 -200.15698
261.30975 912.49609 -200.15698
268.41788 901.80164 -179.71021
273.38852 901.80164 -179.71021
278.35913 901.80164 -179.71021
-248.45612 750.7179 97.275635
-242.93484 750.7179 97.275635
-237.41357 750.7179 97.275635
-231.89241 750.7179 97.275635
-226.37114 750.7179 97.275635
-220.84987 750.7179 97.275635
-215.3286 750.7179 97.275635
-209.80733 750.7179 97.275635
-204.28618 750.7179 97.275635
-198.76491 750.7179 97.275635
-193.24364 750.7179 97.275635
-187.72237 750.7179 97.275635
-182.2011 750.7179 97.275635
-176.67995 750.7179 97.275635
-174.36551 723.18933 149.68579
-168.7408 723.18933 149.68579
-163.1161 723.18933 149.68579
-154.59486 750.7179 97.275635
-147.70084 764.24902 71.514648
-140.95399 777.31348 46.642334
-135.53267 777.31348 46.642334
-130.11134 777.31348 46.642334
-123.56087 790.37781 21.769775
-118.18874 790.37781 21.769775
-112.81651 790.37781 21.769775
-107.44427 790.37781 21.769775
-101.17258 802.97571 -2.2145996
-95.847679 802.97571 -2.2145996
-90.522888 802.97571 -2.2145996
-85.197998 802.97571 -2.2145996
-79.8731 802.97571 -2.2145996
-73.885452 815.57349 -26.19873
-68.607895 815.57349 -26.19873
-63.330441 815.57349 -26.19873
-58.052891 815.57349 -26.19873
-52.775333 815.57349 -26.19873
-47.49778 815.57349 -26.19873
-42.22023 815.57349 -26.19873
-36.942772 815.57349 -26.19873
-31.66522 815.57349 -26.19873
-26.387667 815.57349 -26.19873
-20.927767 827.70483 -49.294678
-15.695801 827.70483 -49.294678
-10.37276 839.83606 -72.390625
-5.1863799 839.83606 -72.390625
0 839.83606 -72.390625
5.1862807 839.83606 -72.390625
10.37276 839.83606 -72.390625
15.559041 839.83606 -72.390625
20.74552 839.83606 -72.390625
25.931801 839.83606 -72.390625
31.118082 839.83606 -72.390625
35.997726 851.50073 -94.598389
41.140175 851.50073 -94.598389
46.282822 851.50073 -94.598389
51.42527 851.50073 -94.598389
57.049881 839.83606 -72.390625
62.236362 839.83606 -72.390625
67.422646 839.83606 -72.390625
72.609123 839.83606 -72.390625
77.795403 839.83606 -72.390625
83.711067 827.70483 -49.294678
88.943138 827.70483 -49.294678
94.175003 827.70483 -49.294678
99.407066 827.70483 -49.294678
105.55067 815.57349 -26.19873
109.8708 827.70483 -49.294678
115.10287 827.70483 -49.294678
120.33474 827.70483 -49.294678
126.66088 815.57349 -26.19873
131.93834 815.57349 -26.19873
137.21579 815.57349 -26.19873
142.49345 815.57349 -26.19873
147.7709 815.57349 -26.19873
154.42142 802.97571 -2.2145996
159.7462 802.97571 -2.2145996
165.071 802.97571 -2.2145996
171.91087 790.37781 21.769775
178.90309 777.31348 46.642334
184.32451 777.31348 46.642334
189.74574 777.31348 46.642334
195.16696 777.31348 46.642334
200.58839 777.31348 46.642334
179.9586 959.7489 -300.6853
184.69446 959.7489 -300.6853
192.44588 939.68555 -262.48828
202.14523 907.95776 -202.0835
207.07573 907.95776 -202.0835
212.00603 907.95776 -202.0835
216.93652 907.95776 -202.0835
220.05211 918.68921 -222.5144
224.94208 918.68921 -222.5144
229.83223 918.68921 -222.5144
234.72221 918.68921 -222.5144
239.61238 918.68921 -222.5144
244.50235 918.68921 -222.5144
251.44896 907.95776 -202.0835
256.37946 907.95776 -202.0835
261.30975 907.95776 -202.0835
268.41788 897.2262 -181.65234
273.38852 897.2262 -181.65234
278.35913 897.2262 -181.65234
-248.45612 745.6355 95.118408
-242.93484 745.6355 95.118408
-237.41357 745.6355 95.118408
-231.89241 745.6355 95.118408
-226.37114 745.6355 95.118408
-220.84987 745.6355 95.118408
-215.3286 745.6355 95.118408
-209.80733 745.6355 95.118408
-204.28618 745.6355 95.118408
-198.76491 745.6355 95.118408
-193.24364 745.6355 95.118408
-187.72237 745.6355 95.118408
-182.2011 745.6355 95.118408
-176.67995 745.6355 95.118408
-165.63741 745.6355 95.118408
-153.17117 759.2135 69.377197
-147.70084 759.2135 69.377197
-140.95399 772.323 44.523926
-135.53267 772.323 44.523926
-130.11134 772.323 44.523926
-123.56087 785.43262 19.670654
-118.18874 785.43262 19.670654
-112.81651 785.43262 19.670654
-107.44427 785.43262 19.670654
-101.17258 798.0741 -4.295166
-95.847679 798.0741 -4.295166
-90.522888 798.0741 -4.295166
-85.197998 798.0741 -4.295166
-79.8731 798.0741 -4.295166
-74.54821 798.0741 -4.295166
-68.607895 810.71545 -28.260986
-63.330441 810.71545 -28.260986
-58.052891 810.71545 -28.260986
-52.775333 810.71545 -28.260986
-47.49778 810.71545 -28.260986
-42.22023 810.71545 -28.260986
-36.942772 810.71545 -28.260986
-31.66522 810.71545 -28.260986
-26.387667 810.71545 -28.260986
-20.927767 822.88867 -51.339111
-15.695801 822.88867 -51.339111
-10.463933 822.88867 -51.339111
