ply
format ascii 1.0
comment PCL generated
element vertex 1578
property float x
property float y
property float z
element camera 0
property float view_px
property float view_py
property float view_pz
property float x_axisx
property float x_axisy
property float x_axisz
property float y_axisx
property float y_axisy
property float y_axisz
property float z_axisx
property float z_axisy
property float z_axisz
property float focal
property float scalex
property float scaley
property float centerx
property float centery
property int viewportx
property int viewporty
property float k1
property float k2
end_header
49.691303 461.0249 -25.69165
55.212467 461.0249 -25.69165
61.292946 444.82617 -1.0632324
66.255005 461.0249 -25.69165
71.776169 461.0249 -25.69165
77.297546 461.0249 -25.69165
82.818703 461.0249 -25.69165
108.90137 393.99512 76.218994
117.99934 340.37134 157.74756
125.1511 321.37939 186.62256
132.4223 302.38757 215.49707
137.0703 321.37939 186.62256
143.03001 321.37939 186.62256
148.9895 321.37939 186.62256
154.94899 321.37939 186.62256
160.90871 321.37939 186.62256
166.86819 321.37939 186.62256
172.82793 321.37939 186.62256
178.7874 321.37939 186.62256
184.74689 321.37939 186.62256
192.61424 302.38757 215.49707
198.63335 302.38757 215.49707
204.65266 302.38757 215.49707
210.67177 302.38757 215.49707
216.69087 302.38757 215.49707
-55.212467 455.9425 -27.848877
-49.6912 455.9425 -27.848877
-44.16993 455.9425 -27.848877
-38.648773 455.9425 -27.848877
-33.432583 439.69678 -3.2404785
-27.860468 439.69678 -3.2404785
-21.881578 472.18823 -52.457764
-16.41116 472.18823 -52.457764
-10.940842 472.18823 -52.457764
-5.4704208 472.18823 -52.457764
0 472.18823 -52.457764
5.4703169 472.18823 -52.457764
10.940842 472.18823 -52.457764
16.41116 472.18823 -52.457764
21.881683 472.18823 -52.457764
27.606234 455.9425 -27.848877
33.127396 455.9425 -27.848877
38.648773 455.9425 -27.848877
44.16993 455.9425 -27.848877
49.691303 455.9425 -27.848877
55.212467 455.9425 -27.848877
61.292946 439.69678 -3.2404785
66.255005 455.9425 -27.848877
71.776169 455.9425 -27.848877
77.297546 455.9425 -27.848877
82.818703 455.9425 -27.848877
108.90137 388.71899 73.979492
117.99934 334.94019 155.44214
125.1511 315.89355 184.29395
132.4223 296.8468 213.14526
138.44141 296.8468 213.14526
144.46074 296.8468 213.14526
148.9895 315.89355 184.29395
154.94899 315.89355 184.29395
162.51826 296.8468 213.14526
166.86819 315.89355 184.29395
172.82793 315.89355 184.29395
178.7874 315.89355 184.29395
184.74689 315.89355 184.29395
192.61424 296.8468 213.14526
198.63335 296.8468 213.14526
204.65266 296.8468 213.14526
210.67177 296.8468 213.14526
216.69087 296.8468 213.14526
-55.212467 450.86011 -30.006348
-49.6912 450.86011 -30.006348
-44.16993 450.86011 -30.006348
-38.648773 450.86011 -30.006348
-33.432583 434.56763 -5.4177246
-27.860468 434.56763 -5.4177246
-21.881578 467.15283 -54.595215
-16.41116 467.15283 -54.595215
-10.940842 467.15283 -54.595215
-5.4704208 467.15283 -54.595215
0 467.15283 -54.595215
5.4703169 467.15283 -54.595215
10.940842 467.15283 -54.595215
16.41116 467.15283 -54.595215
21.881683 467.15283 -54.595215
27.606234 450.86011 -30.006348
33.127396 450.86011 -30.006348
38.292843 467.15283 -54.595215
43.763157 467.15283 -54.595215
49.691303 450.86011 -30.006348
55.212467 450.86011 -30.006348
61.292946 434.56763 -5.4177246
66.865166 434.56763 -5.4177246
104.14796 366.02686 98.024414
109.93409 366.02686 98.024414
116.8772 347.48706 126.00464
125.1511 310.40771 181.96533
132.4223 291.30615 210.79321
138.44141 291.30615 210.79321
144.46074 291.30615 210.79321
150.47984 291.30615 210.79321
156.49895 291.30615 210.79321
162.51826 291.30615 210.79321
168.53737 291.30615 210.79321
174.5567 291.30615 210.79321
180.57581 291.30615 210.79321
186.59491 291.30615 210.79321
192.61424 291.30615 210.79321
198.63335 291.30615 210.79321
204.65266 291.30615 210.79321
210.67177 291.30615 210.79321
216.69087 291.30615 210.79321
-55.212467 445.77783 -32.163574
-49.6912 445.77783 -32.163574
-44.16993 445.77783 -32.163574
-39.0047 429.4386 -7.5949707
-33.432583 429.4386 -7.5949707
-27.860468 429.4386 -7.5949707
-22.084965 445.77783 -32.163574
-16.41116 462.11719 -56.732666
-10.940842 462.11719 -56.732666
-5.4704208 462.11719 -56.732666
0 462.11719 -56.732666
5.4703169 462.11719 -56.732666
10.940842 462.11719 -56.732666
16.41116 462.11719 -56.732666
21.881683 462.11719 -56.732666
27.606234 445.77783 -32.163574
33.127396 445.77783 -32.163574
38.292843 462.11719 -56.732666
43.763157 462.11719 -56.732666
49.691303 445.77783 -32.163574
55.212467 445.77783 -32.163574
61.292946 429.4386 -7.5949707
111.03343 342.10791 123.72119
132.4223 285.7655 208.44141
138.44141 285.7655 208.44141
144.46074 285.7655 208.44141
150.47984 285.7655 208.44141
156.49895 285.7655 208.44141
162.51826 285.7655 208.44141
168.53737 285.7655 208.44141
174.5567 285.7655 208.44141
180.57581 285.7655 208.44141
186.59491 285.7655 208.44141
192.61424 285.7655 208.44141
200.65845 266.04565 238.09326
206.73914 266.04565 238.09326
212.81961 266.04565 238.09326
218.90009 266.04565 238.09326
-55.212467 440.69543 -34.321045
-49.6912 440.69543 -34.321045
-44.16993 440.69543 -34.321045
-39.0047 424.30933 -9.7719727
-33.432583 424.30933 -9.7719727
-27.860468 424.30933 -9.7719727
-22.084965 440.69543 -34.321045
-16.563698 440.69543 -34.321045
-11.042537 440.69543 -34.321045
-5.5212684 440.69543 -34.321045
0 440.69543 -34.321045
5.4703169 457.08179 -58.870117
10.940842 457.08179 -58.870117
16.41116 457.08179 -58.870117
21.881683 457.08179 -58.870117
27.606234 440.69543 -34.321045
33.127396 440.69543 -34.321045
38.648773 440.69543 -34.321045
44.16993 440.69543 -34.321045
49.691303 440.69543 -34.321045
55.212467 440.69543 -34.321045
61.292946 424.30933 -9.7719727
133.77237 260.44836 235.71753
139.85284 260.44836 235.71753
145.93353 260.44836 235.71753
152.01401 260.44836 235.71753
158.09448 260.44836 235.71753
164.17517 260.44836 235.71753
170.25565 260.44836 235.71753
176.33633 260.44836 235.71753
182.41681 260.44836 235.71753
188.49728 260.44836 235.71753
194.57797 260.44836 235.71753
200.65845 260.44836 235.71753
206.73914 260.44836 235.71753
212.81961 260.44836 235.71753
218.90009 260.44836 235.71753
227.25134 240.67212 265.3457
-55.212467 435.61328 -36.478271
-49.6912 435.61328 -36.478271
-44.576702 419.18042 -11.949219
-39.0047 419.18042 -11.949219
-33.432583 419.18042 -11.949219
-27.860468 419.18042 -11.949219
-22.084965 435.61328 -36.478271
-16.563698 435.61328 -36.478271
-11.042537 435.61328 -36.478271
-5.5212684 435.61328 -36.478271
0 435.61328 -36.478271
5.4703169 452.04614 -61.007568
10.940842 452.04614 -61.007568
16.41116 452.04614 -61.007568
21.881683 452.04614 -61.007568
27.606234 435.61328 -36.478271
33.127396 435.61328 -36.478271
38.648773 435.61328 -36.478271
44.16993 435.61328 -36.478271
49.691303 435.61328 -36.478271
55.212467 435.61328 -36.478271
60.733631 435.61328 -36.478271
127.69167 254.85132 233.34155
133.77237 254.85132 233.34155
139.85284 254.85132 233.34155
145.93353 254.85132 233.34155
152.01401 254.85132 233.34155
158.09448 254.85132 233.34155
164.17517 254.85132 233.34155
170.25565 254.85132 233.34155
176.33633 254.85132 233.34155
182.41681 254.85132 233.34155
188.49728 254.85132 233.34155
194.57797 254.85132 233.34155
200.65845 254.85132 233.34155
206.73914 254.85132 233.34155
212.81961 254.85132 233.34155
221.10928 235.01855 262.9458
227.25134 235.01855 262.9458
-55.212467 430.53076 -38.635498
-49.6912 430.53076 -38.635498
-44.576702 414.05103 -14.126465
-39.0047 414.05103 -14.126465
-33.748184 397.00317 11.228027
-27.860468 414.05103 -14.126465
-22.084965 430.53076 -38.635498
-16.563698 430.53076 -38.635498
-11.042537 430.53076 -38.635498
-5.5212684 430.53076 -38.635498
0 430.53076 -38.635498
5.4703169 447.01062 -63.14502
10.940842 447.01062 -63.14502
16.41116 447.01062 -63.14502
21.881683 447.01062 -63.14502
27.606234 430.53076 -38.635498
33.127396 430.53076 -38.635498
38.648773 430.53076 -38.635498
44.16993 430.53076 -38.635498
49.691303 430.53076 -38.635498
55.212467 430.53076 -38.635498
60.733631 430.53076 -38.635498
128.98036 229.36487 260.5459
135.12244 229.36487 260.5459
139.85284 249.25415 230.96582
145.93353 249.25415 230.96582
152.01401 249.25415 230.96582
158.09448 249.25415 230.96582
164.17517 249.25415 230.96582
170.25565 249.25415 230.96582
176.33633 249.25415 230.96582
182.41681 249.25415 230.96582
188.49728 249.25415 230.96582
194.57797 249.25415 230.96582
200.65845 249.25415 230.96582
206.73914 249.25415 230.96582
212.81961 249.25415 230.96582
221.10928 229.36487 260.5459
227.25134 229.36487 260.5459
-61.293053 408.92212 -16.303711
-55.720936 408.92212 -16.303711
-50.148819 408.92212 -16.303711
-44.997505 391.82568 9.0302734
-39.0047 408.92212 -16.303711
-33.432583 408.92212 -16.303711
-27.860468 408.92212 -16.303711
-22.084965 425.44849 -40.792969
-16.563698 425.44849 -40.792969
-11.042537 425.44849 -40.792969
-5.5212684 425.44849 -40.792969
0 425.44849 -40.792969
5.4703169 441.9751 -65.282471
10.940842 441.9751 -65.282471
16.563698 425.44849 -40.792969
22.085073 425.44849 -40.792969
27.606234 425.44849 -40.792969
33.127396 425.44849 -40.792969
38.648773 425.44849 -40.792969
44.16993 425.44849 -40.792969
49.233688 441.9751 -65.282471
54.704002 441.9751 -65.282471
135.12244 223.71118 258.146
141.26427 223.71118 258.146
145.93353 243.65698 228.58984
152.01401 243.65698 228.58984
158.09448 243.65698 228.58984
164.17517 243.65698 228.58984
170.25565 243.65698 228.58984
176.33633 243.65698 228.58984
182.41681 243.65698 228.58984
188.49728 243.65698 228.58984
194.57797 243.65698 228.58984
200.65845 243.65698 228.58984
206.73914 243.65698 228.58984
212.81961 243.65698 228.58984
221.10928 223.71118 258.146
227.25134 223.71118 258.146
-61.293053 403.79285 -18.480957
-55.720936 403.79285 -18.480957
-50.148819 403.79285 -18.480957
-44.997505 386.64807 6.8325195
-39.0047 403.79285 -18.480957
-33.432583 403.79285 -18.480957
-27.860468 403.79285 -18.480957
-22.084965 420.36621 -42.950195
-16.563698 420.36621 -42.950195
-11.042537 420.36621 -42.950195
-5.5212684 420.36621 -42.950195
0 420.36621 -42.950195
5.4703169 436.93945 -67.419922
10.940842 436.93945 -67.419922
16.563698 420.36621 -42.950195
22.085073 420.36621 -42.950195
27.606234 420.36621 -42.950195
33.127396 420.36621 -42.950195
38.648773 420.36621 -42.950195
44.16993 420.36621 -42.950195
49.233688 436.93945 -67.419922
54.704002 436.93945 -67.419922
135.12244 218.0575 255.74634
141.26427 218.0575 255.74634
145.93353 238.05969 226.21387
152.01401 238.05969 226.21387
158.09448 238.05969 226.21387
164.17517 238.05969 226.21387
170.25565 238.05969 226.21387
176.33633 238.05969 226.21387
182.41681 238.05969 226.21387
188.49728 238.05969 226.21387
194.57797 238.05969 226.21387
200.65845 238.05969 226.21387
206.73914 238.05969 226.21387
212.81961 238.05969 226.21387
221.10928 218.0575 255.74634
227.25134 218.0575 255.74634
-55.720936 398.66382 -20.657959
-50.148819 398.66382 -20.657959
-44.997505 381.47058 4.6347656
-39.0047 398.66382 -20.657959
-33.432583 398.66382 -20.657959
-27.860468 398.66382 -20.657959
-22.084965 415.28394 -45.107422
-16.563698 415.28394 -45.107422
-11.042537 415.28394 -45.107422
-5.5212684 415.28394 -45.107422
0 415.28394 -45.107422
5.521163 415.28394 -45.107422
11.042537 415.28394 -45.107422
16.563698 415.28394 -45.107422
22.085073 415.28394 -45.107422
27.606234 415.28394 -45.107422
33.127396 415.28394 -45.107422
38.648773 415.28394 -45.107422
44.16993 415.28394 -45.107422
49.233688 431.90405 -69.557373
54.704002 431.90405 -69.557373
135.12244 212.40381 253.34644
141.26427 212.40381 253.34644
147.40634 212.40381 253.34644
153.54817 212.40381 253.34644
159.69002 212.40381 253.34644
164.17517 232.46265 223.83813
170.25565 232.46265 223.83813
176.33633 232.46265 223.83813
182.41681 232.46265 223.83813
188.49728 232.46265 223.83813
194.57797 232.46265 223.83813
200.65845 232.46265 223.83813
206.73914 232.46265 223.83813
212.81961 232.46265 223.83813
221.10928 212.40381 253.34644
227.25134 212.40381 253.34644
-61.871651 376.29297 2.4370117
-56.246937 376.29297 2.4370117
-50.622219 376.29297 2.4370117
-44.997505 376.29297 2.4370117
-39.0047 393.53455 -22.835205
-33.432583 393.53455 -22.835205
-27.860468 393.53455 -22.835205
-22.084965 410.20154 -47.264893
-16.563698 410.20154 -47.264893
-11.042537 410.20154 -47.264893
-5.5212684 410.20154 -47.264893
0 410.20154 -47.264893
5.521163 410.20154 -47.264893
11.042537 410.20154 -47.264893
16.563698 410.20154 -47.264893
22.28846 393.53455 -22.835205
27.860468 393.53455 -22.835205
33.432476 393.53455 -22.835205
39.0047 393.53455 -22.835205
44.576702 393.53455 -22.835205
49.233688 426.86841 -71.694824
54.704002 426.86841 -71.694824
142.71603 186.06006 281.27319
147.40634 206.75012 250.94653
153.54817 206.75012 250.94653
159.69002 206.75012 250.94653
165.83208 206.75012 250.94653
170.25565 226.86536 221.4624
176.33633 226.86536 221.4624
182.41681 226.86536 221.4624
188.49728 226.86536 221.4624
194.57797 226.86536 221.4624
200.65845 226.86536 221.4624
206.73914 226.86536 221.4624
214.96744 206.75012 250.94653
221.10928 206.75012 250.94653
227.25134 206.75012 250.94653
-61.871651 371.11548 0.23925781
-56.246937 371.11548 0.23925781
-50.622219 371.11548 0.23925781
-44.997505 371.11548 0.23925781
-39.0047 388.40552 -25.012451
-33.432583 388.40552 -25.012451
-27.860468 388.40552 -25.012451
-22.084965 405.11914 -49.422119
-16.563698 405.11914 -49.422119
-11.042537 405.11914 -49.422119
-5.5212684 405.11914 -49.422119
0 405.11914 -49.422119
5.521163 405.11914 -49.422119
11.042537 405.11914 -49.422119
16.563698 405.11914 -49.422119
22.28846 388.40552 -25.012451
27.860468 388.40552 -25.012451
33.432476 388.40552 -25.012451
39.0047 388.40552 -25.012451
44.576702 388.40552 -25.012451
49.233688 421.83301 -73.832275
54.704002 421.83301 -73.832275
136.51108 180.34839 278.84863
142.71603 180.34839 278.84863
147.40634 201.09644 248.54688
153.54817 201.09644 248.54688
159.69002 201.09644 248.54688
165.83208 201.09644 248.54688
171.97391 201.09644 248.54688
176.33633 221.26831 219.08643
182.41681 221.26831 219.08643
188.49728 221.26831 219.08643
194.57797 221.26831 219.08643
200.65845 221.26831 219.08643
208.82561 201.09644 248.54688
214.96744 201.09644 248.54688
223.38159 180.34839 278.84863
-61.293053 383.27637 -27.189697
-55.720936 383.27637 -27.189697
-50.622219 365.93787 -1.9584961
-44.997505 365.93787 -1.9584961
-39.0047 383.27637 -27.189697
-33.432583 383.27637 -27.189697
-27.860468 383.27637 -27.189697
-22.084965 400.03687 -51.57959
-16.563698 400.03687 -51.57959
-11.042537 400.03687 -51.57959
-5.5721149 383.27637 -27.189697
0 400.03687 -51.57959
5.521163 400.03687 -51.57959
11.14423 383.27637 -27.189697
16.716238 383.27637 -27.189697
22.28846 383.27637 -27.189697
28.123468 365.93787 -1.9584961
33.748077 365.93787 -1.9584961
39.372898 365.93787 -1.9584961
44.997505 365.93787 -1.9584961
50.622326 365.93787 -1.9584961
136.51108 174.63647 276.42407
141.26427 195.44287 246.14697
147.40634 195.44287 246.14697
153.54817 195.44287 246.14697
159.69002 195.44287 246.14697
165.83208 195.44287 246.14697
171.97391 195.44287 246.14697
176.33633 215.6709 216.71045
182.41681 215.6709 216.71045
188.49728 215.6709 216.71045
196.5417 195.44287 246.14697
202.68355 195.44287 246.14697
208.82561 195.44287 246.14697
217.17664 174.63647 276.42407
223.38159 174.63647 276.42407
-61.293053 378.14722 -29.366699
-55.720936 378.14722 -29.366699
-50.622219 360.76038 -4.15625
-44.997505 360.76038 -4.15625
-39.0047 378.14722 -29.366699
-33.432583 378.14722 -29.366699
-27.860468 378.14722 -29.366699
-22.084965 394.95459 -53.736816
-16.563698 394.95459 -53.736816
-11.042537 394.95459 -53.736816
-5.5721149 378.14722 -29.366699
0 378.14722 -29.366699
5.5720086 378.14722 -29.366699
11.14423 378.14722 -29.366699
16.716238 378.14722 -29.366699
22.28846 378.14722 -29.366699
28.123468 360.76038 -4.15625
33.748077 360.76038 -4.15625
39.372898 360.76038 -4.15625
44.997505 360.76038 -4.15625
50.622326 360.76038 -4.15625
133.06738 125.45752 337.02588
136.51108 168.9248 273.99976
141.26427 189.78918 243.74707
147.40634 189.78918 243.74707
153.54817 189.78918 243.74707
159.69002 189.78918 243.74707
165.83208 189.78918 243.74707
171.97391 189.78918 243.74707
178.11597 189.78918 243.74707
184.25781 189.78918 243.74707
190.39964 189.78918 243.74707
196.5417 189.78918 243.74707
202.68355 189.78918 243.74707
210.97169 168.9248 273.99976
217.17664 168.9248 273.99976
225.71704 147.48096 305.09253
-66.865166 373.01807 -31.543945
-61.293053 373.01807 -31.543945
-55.720936 373.01807 -31.543945
-50.622219 355.58276 -6.3540039
-44.997505 355.58276 -6.3540039
-39.0047 373.01807 -31.543945
-33.432583 373.01807 -31.543945
-27.860468 373.01807 -31.543945
-22.084965 389.87219 -55.894287
-16.563698 389.87219 -55.894287
-11.042537 389.87219 -55.894287
-5.5721149 373.01807 -31.543945
0 373.01807 -31.543945
5.5720086 373.01807 -31.543945
11.14423 373.01807 -31.543945
16.716238 373.01807 -31.543945
22.28846 373.01807 -31.543945
28.123468 355.58276 -6.3540039
33.748077 355.58276 -6.3540039
39.372898 355.58276 -6.3540039
45.418304 338.14746 18.835938
51.095726 338.14746 18.835938
133.06738 119.62476 334.55005
135.12244 184.1355 241.34717
141.26427 184.1355 241.34717
147.40634 184.1355 241.34717
153.54817 184.1355 241.34717
159.69002 184.1355 241.34717
165.83208 184.1355 241.34717
171.97391 184.1355 241.34717
178.11597 184.1355 241.34717
184.25781 184.1355 241.34717
190.39964 184.1355 241.34717
196.5417 184.1355 241.34717
202.68355 184.1355 241.34717
210.97169 163.21289 271.5752
217.17664 163.21289 271.5752
225.71704 141.70947 302.64258
-71.115158 401.69092 -82.38208
-65.644844 401.69092 -82.38208
-60.733734 384.78979 -58.051514
-55.720936 367.88892 -33.721191
-50.148819 367.88892 -33.721191
-44.997505 350.40527 -8.5517578
-39.372898 350.40527 -8.5517578
-33.748184 350.40527 -8.5517578
-28.123468 350.40527 -8.5517578
-22.084965 384.78979 -58.051514
-16.563698 384.78979 -58.051514
-11.042537 384.78979 -58.051514
-5.5721149 367.88892 -33.721191
0 367.88892 -33.721191
5.5720086 367.88892 -33.721191
11.14423 367.88892 -33.721191
16.874039 350.40527 -8.5517578
22.498859 350.40527 -8.5517578
28.123468 350.40527 -8.5517578
33.748077 350.40527 -8.5517578
39.7411 332.92151 16.617676
45.418304 332.92151 16.617676
51.095726 332.92151 16.617676
133.06738 113.79199 332.07422
135.12244 178.48193 238.94751
141.26427 178.48193 238.94751
147.40634 178.48193 238.94751
153.54817 178.48193 238.94751
159.69002 178.48193 238.94751
165.83208 178.48193 238.94751
171.97391 178.48193 238.94751
178.11597 178.48193 238.94751
184.25781 178.48193 238.94751
190.39964 178.48193 238.94751
196.5417 178.48193 238.94751
202.68355 178.48193 238.94751
210.97169 157.50122 269.15063
217.17664 157.50122 269.15063
225.71704 135.93799 300.19287
-71.115158 396.6554 -84.519531
-65.644844 396.6554 -84.519531
-60.733734 379.70752 -60.20874
-55.720936 362.75977 -35.898438
-50.148819 362.75977 -35.898438
-44.997505 345.22766 -10.749512
-39.372898 345.22766 -10.749512
-33.748184 345.22766 -10.749512
-28.123468 345.22766 -10.749512
-22.288351 362.75977 -35.898438
-16.716238 362.75977 -35.898438
-11.14423 362.75977 -35.898438
-5.6247149 345.22766 -10.749512
0 345.22766 -10.749512
5.6246076 345.22766 -10.749512
11.24943 345.22766 -10.749512
16.874039 345.22766 -10.749512
22.498859 345.22766 -10.749512
28.123468 345.22766 -10.749512
33.748077 345.22766 -10.749512
39.372898 345.22766 -10.749512
45.418304 327.69556 14.399414
134.50337 85.167236 362.29175
137.93829 130.1665 297.74292
142.71603 151.78955 266.72607
147.40634 172.82812 236.54761
153.54817 172.82812 236.54761
159.69002 172.82812 236.54761
167.53632 151.78955 266.72607
171.97391 172.82812 236.54761
178.11597 172.82812 236.54761
184.25781 172.82812 236.54761
190.39964 172.82812 236.54761
196.5417 172.82812 236.54761
204.76649 151.78955 266.72607
210.97169 151.78955 266.72607
219.4472 130.1665 297.74292
228.11559 107.95898 329.59814
236.98235 85.167236 362.29175
-71.115158 391.61987 -86.656982
-65.644844 391.61987 -86.656982
-60.733734 374.62512 -62.366211
-55.720936 357.63062 -38.075684
-50.622219 340.05005 -12.947266
-44.997505 340.05005 -12.947266
-39.7411 322.46948 12.180908
-33.748184 340.05005 -12.947266
-28.123468 340.05005 -12.947266
-22.288351 357.63062 -38.075684
-16.716238 357.63062 -38.075684
-11.14423 357.63062 -38.075684
-5.6247149 340.05005 -12.947266
0 340.05005 -12.947266
5.6246076 340.05005 -12.947266
11.24943 340.05005 -12.947266
16.874039 340.05005 -12.947266
22.498859 340.05005 -12.947266
28.123468 340.05005 -12.947266
33.748077 340.05005 -12.947266
39.372898 340.05005 -12.947266
45.418304 322.46948 12.180908
129.46614 56.416504 392.45581
134.50337 79.271484 359.78906
139.40408 102.12622 327.12231
144.20811 124.39502 295.29321
148.92122 146.07764 264.30176
155.12617 146.07764 264.30176
161.33112 146.07764 264.30176
167.53632 146.07764 264.30176
171.97391 167.17432 234.14771
178.11597 167.17432 234.14771
184.25781 167.17432 234.14771
190.39964 167.17432 234.14771
196.5417 167.17432 234.14771
204.76649 146.07764 264.30176
210.97169 146.07764 264.30176
219.4472 124.39502 295.29321
228.11559 102.12622 327.12231
236.98235 79.271484 359.78906
-71.776169 369.54285 -64.523438
-66.255005 369.54285 -64.523438
-61.293053 352.50146 -40.252686
-55.720936 352.50146 -40.252686
-50.622219 334.87256 -15.144775
-44.997505 334.87256 -15.144775
-39.7411 317.24353 9.9626465
-33.748184 334.87256 -15.144775
-28.123468 334.87256 -15.144775
-22.288351 352.50146 -40.252686
-16.716238 352.50146 -40.252686
-11.14423 352.50146 -40.252686
-5.6247149 334.87256 -15.144775
0 334.87256 -15.144775
5.6246076 334.87256 -15.144775
11.24943 334.87256 -15.144775
16.874039 334.87256 -15.144775
22.498859 334.87256 -15.144775
28.123468 334.87256 -15.144775
33.748077 334.87256 -15.144775
39.372898 334.87256 -15.144775
45.418304 317.24353 9.9626465
134.50337 73.375732 357.28662
139.40408 96.293457 324.64648
145.74052 96.293457 324.64648
148.92122 140.36597 261.8772
155.12617 140.36597 261.8772
161.33112 140.36597 261.8772
167.53632 140.36597 261.8772
171.97391 161.52075 231.7478
178.11597 161.52075 231.7478
184.25781 161.52075 231.7478
190.39964 161.52075 231.7478
196.5417 161.52075 231.7478
202.68355 161.52075 231.7478
210.97169 140.36597 261.8772
219.4472 118.62354 292.84326
228.11559 96.293457 324.64648
-66.865166 347.37231 -42.429932
-61.293053 347.37231 -42.429932
-56.246937 329.69482 -17.342773
-50.622219 329.69482 -17.342773
-44.997505 329.69482 -17.342773
-39.7411 312.01758 7.7443848
-34.063782 312.01758 7.7443848
-28.386467 312.01758 7.7443848
-22.288351 347.37231 -42.429932
-16.716238 347.37231 -42.429932
-11.24943 329.69482 -17.342773
-5.6247149 329.69482 -17.342773
0 329.69482 -17.342773
5.6246076 329.69482 -17.342773
11.24943 329.69482 -17.342773
16.874039 329.69482 -17.342773
22.498859 329.69482 -17.342773
28.123468 329.69482 -17.342773
33.748077 329.69482 -17.342773
39.372898 329.69482 -17.342773
45.418304 312.01758 7.7443848
135.93935 44.499268 387.39722
140.90845 67.47998 354.78394
145.74052 90.460449 322.17065
150.47818 112.85181 290.39331
155.12617 134.65405 259.45264
161.33112 134.65405 259.45264
167.53632 134.65405 259.45264
171.97391 155.86694 229.3479
178.11597 155.86694 229.3479
184.25781 155.86694 229.3479
190.39964 155.86694 229.3479
196.5417 155.86694 229.3479
202.68355 155.86694 229.3479
210.97169 134.65405 259.45264
219.4472 112.85181 290.39331
228.11559 90.460449 322.17065
239.51239 44.499268 387.39722
-61.871651 324.51733 -19.540283
-56.246937 324.51733 -19.540283
-51.095619 306.7915 5.526123
-45.418304 306.7915 5.526123
-39.7411 306.7915 5.526123
-34.063782 306.7915 5.526123
-28.386467 306.7915 5.526123
-22.498753 324.51733 -19.540283
-16.874039 324.51733 -19.540283
-11.24943 324.51733 -19.540283
-5.6247149 324.51733 -19.540283
0 324.51733 -19.540283
5.6246076 324.51733 -19.540283
11.24943 324.51733 -19.540283
16.874039 324.51733 -19.540283
22.498859 324.51733 -19.540283
28.123468 324.51733 -19.540283
33.748077 324.51733 -19.540283
39.7411 306.7915 5.526123
45.418304 306.7915 5.526123
129.46614 38.540527 384.86792
135.93935 38.540527 384.86792
140.90845 61.584229 352.28125
145.74052 84.62793 319.69482
152.07722 84.62793 319.69482
156.748 107.08057 287.9436
163.01784 107.08057 287.9436
167.53632 128.94238 257.02808
173.74127 128.94238 257.02808
179.94646 128.94238 257.02808
184.25781 150.21338 226.94824
190.39964 150.21338 226.94824
196.5417 150.21338 226.94824
202.68355 150.21338 226.94824
210.97169 128.94238 257.02808
219.4472 107.08057 287.9436
228.11559 84.62793 319.69482
239.51239 38.540527 384.86792
-62.450253 301.56555 3.3078613
-56.772934 301.56555 3.3078613
-51.095619 301.56555 3.3078613
-45.418304 301.56555 3.3078613
-39.7411 301.56555 3.3078613
-34.063782 301.56555 3.3078613
-28.386467 301.56555 3.3078613
-22.498753 319.33984 -21.738037
-16.874039 319.33984 -21.738037
-11.24943 319.33984 -21.738037
-5.6247149 319.33984 -21.738037
0 319.33984 -21.738037
5.6246076 319.33984 -21.738037
11.24943 319.33984 -21.738037
16.874039 319.33984 -21.738037
22.709261 301.56555 3.3078613
28.386467 301.56555 3.3078613
34.063675 301.56555 3.3078613
39.7411 301.56555 3.3078613
45.418304 301.56555 3.3078613
129.46614 32.581787 382.33862
134.50337 55.688477 349.77881
140.90845 55.688477 349.77881
145.74052 78.794922 317.21875
152.07722 78.794922 317.21875
156.748 101.30908 285.49365
163.01784 101.30908 285.49365
167.53632 123.23047 254.60352
173.74127 123.23047 254.60352
179.94646 123.23047 254.60352
186.15141 123.23047 254.60352
192.35635 123.23047 254.60352
196.5417 144.55981 224.54834
202.68355 144.55981 224.54834
210.97169 123.23047 254.60352
221.77914 78.794922 317.21875
230.57726 55.688477 349.77881
-56.772934 296.3396 1.0895996
-51.095619 296.3396 1.0895996
-45.418304 296.3396 1.0895996
-39.7411 296.3396 1.0895996
-34.063782 296.3396 1.0895996
-28.386467 296.3396 1.0895996
-22.498753 314.16235 -23.935791
-16.874039 314.16235 -23.935791
-11.24943 314.16235 -23.935791
-5.6247149 314.16235 -23.935791
0 314.16235 -23.935791
5.6246076 314.16235 -23.935791
11.24943 314.16235 -23.935791
16.874039 314.16235 -23.935791
22.709261 296.3396 1.0895996
28.386467 296.3396 1.0895996
34.063675 296.3396 1.0895996
39.7411 296.3396 1.0895996
45.418304 296.3396 1.0895996
51.095726 296.3396 1.0895996
129.46614 26.623047 379.80933
134.50337 49.792725 347.27612
140.90845 49.792725 347.27612
145.74052 72.962158 314.74292
152.07722 72.962158 314.74292
156.748 95.537598 283.04395
163.01784 95.537598 283.04395
169.2879 95.537598 283.04395
173.74127 117.5188 252.1792
179.94646 117.5188 252.1792
186.15141 117.5188 252.1792
192.35635 117.5188 252.1792
198.56155 117.5188 252.1792
204.76649 117.5188 252.1792
210.97169 117.5188 252.1792
224.17244 49.792725 347.27612
233.03896 26.623047 379.80933
-56.772934 291.11353 -1.1289062
-51.095619 291.11353 -1.1289062
-45.418304 291.11353 -1.1289062
-39.7411 291.11353 -1.1289062
-34.063782 291.11353 -1.1289062
-28.386467 291.11353 -1.1289062
-22.498753 308.98462 -26.133545
-16.874039 308.98462 -26.133545
-11.24943 308.98462 -26.133545
-5.6247149 308.98462 -26.133545
0 308.98462 -26.133545
5.6246076 308.98462 -26.133545
11.24943 308.98462 -26.133545
16.874039 308.98462 -26.133545
22.709261 291.11353 -1.1289062
28.386467 291.11353 -1.1289062
34.063675 291.11353 -1.1289062
39.7411 291.11353 -1.1289062
45.418304 291.11353 -1.1289062
57.64444 43.896973 344.77344
64.049271 43.896973 344.77344
71.206276 20.664551 377.28003
129.46614 20.664551 377.28003
134.50337 43.896973 344.77344
140.90845 43.896973 344.77344
145.74052 67.129395 312.26709
152.07722 67.129395 312.26709
156.748 89.765869 280.59399
163.01784 89.765869 280.59399
167.53632 111.80713 249.75464
173.74127 111.80713 249.75464
179.94646 111.80713 249.75464
186.15141 111.80713 249.75464
192.35635 111.80713 249.75464
198.56155 111.80713 249.75464
204.76649 111.80713 249.75464
213.17738 89.765869 280.59399
224.17244 43.896973 344.77344
-51.095619 285.8877 -3.347168
-45.418304 285.8877 -3.347168
-39.7411 285.8877 -3.347168
-34.063782 285.8877 -3.347168
-28.386467 285.8877 -3.347168
-22.498753 303.80725 -28.331299
-16.874039 303.80725 -28.331299
-11.24943 303.80725 -28.331299
-5.6247149 303.80725 -28.331299
0 285.8877 -3.347168
5.6772065 285.8877 -3.347168
11.35463 285.8877 -3.347168
17.031837 285.8877 -3.347168
22.709261 285.8877 -3.347168
28.386467 285.8877 -3.347168
34.063675 285.8877 -3.347168
40.121571 267.37085 22.470215
45.85313 267.37085 22.470215
57.64444 38.001221 342.271
64.049271 38.001221 342.271
71.206276 14.705811 374.75073
77.679733 14.705811 374.75073
129.46614 14.705811 374.75073
134.50337 38.001221 342.271
140.90845 38.001221 342.271
145.74052 61.296387 309.79126
152.07722 61.296387 309.79126
156.748 83.994629 278.14429
163.01784 83.994629 278.14429
167.53632 106.09521 247.33008
173.74127 106.09521 247.33008
179.94646 106.09521 247.33008
186.15141 106.09521 247.33008
192.35635 106.09521 247.33008
198.56155 106.09521 247.33008
204.76649 106.09521 247.33008
213.17738 83.994629 278.14429
224.17244 38.001221 342.271
230.57726 38.001221 342.271
-51.095619 280.66162 -5.5654297
-45.418304 280.66162 -5.5654297
-40.121571 262.09473 20.230713
-34.389904 262.09473 20.230713
-28.386467 280.66162 -5.5654297
-22.709152 280.66162 -5.5654297
-16.874039 298.62964 -30.529053
-11.24943 298.62964 -30.529053
-5.6773152 280.66162 -5.5654297
0 280.66162 -5.5654297
5.6772065 280.66162 -5.5654297
11.35463 280.66162 -5.5654297
17.031837 280.66162 -5.5654297
22.709261 280.66162 -5.5654297
28.386467 280.66162 -5.5654297
34.389793 262.09473 20.230713
40.121571 262.09473 20.230713
63.365467 55.463623 307.31519
70.454102 32.105469 339.76831
77.679733 8.7470703 372.22119
122.99293 8.7470703 372.22119
128.09854 32.105469 339.76831
134.50337 32.105469 339.76831
139.40408 55.463623 307.31519
145.74052 55.463623 307.31519
152.07722 55.463623 307.31519
156.748 78.223145 275.69434
163.01784 78.223145 275.69434
169.2879 78.223145 275.69434
173.74127 100.3833 244.90552
179.94646 100.3833 244.90552
186.15141 100.3833 244.90552
192.35635 100.3833 244.90552
200.6375 78.223145 275.69434
206.90732 78.223145 275.69434
215.44269 55.463623 307.31519
224.17244 32.105469 339.76831
230.57726 32.105469 339.76831
252.45908 8.7470703 372.22119
258.93228 8.7470703 372.22119
265.40549 8.7470703 372.22119
-45.418304 275.43579 -7.7836914
-39.7411 275.43579 -7.7836914
-34.389904 256.81885 17.991211
-28.658234 256.81885 17.991211
-22.709152 275.43579 -7.7836914
-16.874039 293.45215 -32.726807
-11.24943 293.45215 -32.726807
-5.6773152 275.43579 -7.7836914
0 275.43579 -7.7836914
5.6772065 275.43579 -7.7836914
11.35463 275.43579 -7.7836914
17.031837 275.43579 -7.7836914
22.709261 275.43579 -7.7836914
28.386467 275.43579 -7.7836914
34.389793 256.81885 17.991211
63.365467 49.630859 304.83936
70.454102 26.209717 337.26562
76.859177 26.209717 337.26562
90.626396 2.7883301 369.69189
97.099602 2.7883301 369.69189
121.69371 26.209717 337.26562
128.09854 26.209717 337.26562
134.50337 26.209717 337.26562
139.40408 49.630859 304.83936
145.74052 49.630859 304.83936
152.07722 49.630859 304.83936
156.748 72.45166 273.24438
163.01784 72.45166 273.24438
169.2879 72.45166 273.24438
175.55771 72.45166 273.24438
181.82777 72.45166 273.24438
188.09761 72.45166 273.24438
194.36743 72.45166 273.24438
200.6375 72.45166 273.24438
209.106 49.630859 304.83936
217.76762 26.209717 337.26562
224.17244 26.209717 337.26562
230.57726 26.209717 337.26562
236.98235 26.209717 337.26562
245.98563 2.7883301 369.69189
252.45908 2.7883301 369.69189
258.93228 2.7883301 369.69189
265.40549 2.7883301 369.69189
271.87894 2.7883301 369.69189
-45.418304 270.20972 -10.001953
-39.7411 270.20972 -10.001953
-34.389904 251.54272 15.751465
-28.658234 251.54272 15.751465
-22.709152 270.20972 -10.001953
-16.874039 288.27441 -34.924561
-11.24943 288.27441 -34.924561
-5.6773152 270.20972 -10.001953
0 270.20972 -10.001953
5.6772065 270.20972 -10.001953
11.35463 270.20972 -10.001953
17.031837 270.20972 -10.001953
22.709261 270.20972 -10.001953
28.386467 270.20972 -10.001953
34.389793 251.54272 15.751465
40.121571 251.54272 15.751465
46.750835 213.00464 68.920166
57.029018 43.797852 302.36353
63.365467 43.797852 302.36353
70.454102 20.313721 334.76318
76.859177 20.313721 334.76318
115.28863 20.313721 334.76318
121.69371 20.313721 334.76318
128.09854 20.313721 334.76318
133.06738 43.797852 302.36353
139.40408 43.797852 302.36353
145.74052 43.797852 302.36353
150.47818 66.679932 270.79468
156.748 66.679932 270.79468
163.01784 66.679932 270.79468
169.2879 66.679932 270.79468
175.55771 66.679932 270.79468
181.82777 66.679932 270.79468
188.09761 66.679932 270.79468
196.43286 43.797852 302.36353
202.76955 43.797852 302.36353
209.106 43.797852 302.36353
215.44269 43.797852 302.36353
224.17244 20.313721 334.76318
230.57726 20.313721 334.76318
236.98235 20.313721 334.76318
243.38718 20.313721 334.76318
-45.85313 246.26685 13.512207
-40.121571 246.26685 13.512207
-34.389904 246.26685 13.512207
-28.658234 246.26685 13.512207
-22.709152 264.98376 -12.220215
-16.874039 283.09692 -37.122314
-11.24943 283.09692 -37.122314
-5.6773152 264.98376 -12.220215
0 264.98376 -12.220215
5.6772065 264.98376 -12.220215
11.35463 264.98376 -12.220215
17.031837 264.98376 -12.220215
22.709261 264.98376 -12.220215
28.386467 264.98376 -12.220215
34.389793 246.26685 13.512207
40.121571 246.26685 13.512207
46.750835 207.62549 66.636963
57.029018 37.965332 299.8877
63.365467 37.965332 299.8877
70.454102 14.417969 332.2605
76.859177 14.417969 332.2605
96.073906 14.417969 332.2605
102.47873 14.417969 332.2605
108.88381 14.417969 332.2605
115.28863 14.417969 332.2605
120.39449 37.965332 299.8877
126.73093 37.965332 299.8877
133.06738 37.965332 299.8877
139.40408 37.965332 299.8877
145.74052 37.965332 299.8877
150.47818 60.908691 268.34473
156.748 60.908691 268.34473
163.01784 60.908691 268.34473
169.2879 60.908691 268.34473
175.55771 60.908691 268.34473
181.82777 60.908691 268.34473
188.09761 60.908691 268.34473
196.43286 37.965332 299.8877
202.76955 37.965332 299.8877
209.106 37.965332 299.8877
215.44269 37.965332 299.8877
221.77914 37.965332 299.8877
230.57726 14.417969 332.2605
236.98235 14.417969 332.2605
243.38718 14.417969 332.2605
249.79225 14.417969 332.2605
256.19708 14.417969 332.2605
-45.85313 240.99072 11.272461
-40.121571 240.99072 11.272461
-34.389904 240.99072 11.272461
-28.658234 240.99072 11.272461
-22.709152 259.75781 -14.438477
-17.031837 259.75781 -14.438477
-11.35463 259.75781 -14.438477
-5.6773152 259.75781 -14.438477
0 259.75781 -14.438477
5.6772065 259.75781 -14.438477
11.35463 259.75781 -14.438477
17.031837 259.75781 -14.438477
22.709261 259.75781 -14.438477
28.658234 240.99072 11.272461
34.389793 240.99072 11.272461
40.121571 240.99072 11.272461
57.029018 32.132324 297.41162
63.365467 32.132324 297.41162
69.70192 32.132324 297.41162
76.859177 8.5222168 329.75781
89.669075 8.5222168 329.75781
96.073906 8.5222168 329.75781
102.47873 8.5222168 329.75781
108.88381 8.5222168 329.75781
114.05779 32.132324 297.41162
120.39449 32.132324 297.41162
126.73093 32.132324 297.41162
133.06738 32.132324 297.41162
139.40408 32.132324 297.41162
145.74052 32.132324 297.41162
152.07722 32.132324 297.41162
158.41367 32.132324 297.41162
164.75012 32.132324 297.41162
171.08681 32.132324 297.41162
177.42326 32.132324 297.41162
183.75995 32.132324 297.41162
190.09641 32.132324 297.41162
196.43286 32.132324 297.41162
202.76955 32.132324 297.41162
209.106 32.132324 297.41162
215.44269 32.132324 297.41162
221.77914 32.132324 297.41162
228.11559 32.132324 297.41162
236.98235 8.5222168 329.75781
243.38718 8.5222168 329.75781
249.79225 8.5222168 329.75781
256.19708 8.5222168 329.75781
-45.85313 235.71484 9.032959
-40.121571 235.71484 9.032959
-34.389904 235.71484 9.032959
-28.658234 235.71484 9.032959
-22.709152 254.53186 -16.656738
-17.031837 254.53186 -16.656738
-11.35463 254.53186 -16.656738
-5.6773152 254.53186 -16.656738
0 254.53186 -16.656738
5.6772065 254.53186 -16.656738
11.35463 254.53186 -16.656738
17.031837 254.53186 -16.656738
22.709261 254.53186 -16.656738
28.386467 254.53186 -16.656738
34.389793 235.71484 9.032959
40.121571 235.71484 9.032959
62.699203 49.365723 263.44507
69.70192 26.299561 294.93579
76.859177 2.6264648 327.25537
89.669075 2.6264648 327.25537
96.073906 2.6264648 327.25537
102.47873 2.6264648 327.25537
108.88381 2.6264648 327.25537
114.05779 26.299561 294.93579
120.39449 26.299561 294.93579
126.73093 26.299561 294.93579
133.06738 26.299561 294.93579
139.40408 26.299561 294.93579
145.74052 26.299561 294.93579
152.07722 26.299561 294.93579
158.41367 26.299561 294.93579
164.75012 26.299561 294.93579
171.08681 26.299561 294.93579
177.42326 26.299561 294.93579
183.75995 26.299561 294.93579
190.09641 26.299561 294.93579
196.43286 26.299561 294.93579
202.76955 26.299561 294.93579
209.106 26.299561 294.93579
215.44269 26.299561 294.93579
221.77914 26.299561 294.93579
228.11559 26.299561 294.93579
236.98235 2.6264648 327.25537
243.38718 2.6264648 327.25537
249.79225 2.6264648 327.25537
256.19708 2.6264648 327.25537
-46.28796 211.57178 32.461914
-40.502045 211.57178 32.461914
-34.716022 211.57178 32.461914
-28.658234 230.43872 6.793457
-22.709152 249.30591 -18.875
-17.031837 249.30591 -18.875
-11.35463 249.30591 -18.875
-5.6773152 249.30591 -18.875
0 249.30591 -18.875
5.6772065 249.30591 -18.875
11.35463 249.30591 -18.875
17.031837 249.30591 -18.875
22.709261 249.30591 -18.875
28.386467 249.30591 -18.875
34.389793 230.43872 6.793457
40.907066 191.48743 59.786621
47.199688 172.01184 86.283203
62.699203 43.593994 260.99512
114.05779 20.466797 292.45996
120.39449 20.466797 292.45996
126.73093 20.466797 292.45996
133.06738 20.466797 292.45996
139.40408 20.466797 292.45996
145.74052 20.466797 292.45996
152.07722 20.466797 292.45996
158.41367 20.466797 292.45996
163.01784 43.593994 260.99512
169.2879 43.593994 260.99512
175.55771 43.593994 260.99512
181.82777 43.593994 260.99512
188.09761 43.593994 260.99512
194.36743 43.593994 260.99512
202.76955 20.466797 292.45996
209.106 20.466797 292.45996
215.44269 20.466797 292.45996
221.77914 20.466797 292.45996
228.11559 20.466797 292.45996
-46.28796 206.24561 30.201172
-40.502045 206.24561 30.201172
-34.716022 206.24561 30.201172
-28.658234 225.16272 4.5539551
-22.709152 244.07983 -21.093506
-17.031837 244.07983 -21.093506
-11.35463 244.07983 -21.093506
-5.6773152 244.07983 -21.093506
0 244.07983 -21.093506
5.6772065 244.07983 -21.093506
11.35463 244.07983 -21.093506
17.031837 244.07983 -21.093506
22.709261 244.07983 -21.093506
28.386467 244.07983 -21.093506
34.389793 225.16272 4.5539551
40.907066 186.10803 57.503418
47.199688 166.58081 83.977783
62.699203 37.82251 258.54541
114.05779 14.633789 289.98413
120.39449 14.633789 289.98413
126.73093 14.633789 289.98413
133.06738 14.633789 289.98413
139.40408 14.633789 289.98413
144.20811 37.82251 258.54541
150.47818 37.82251 258.54541
156.748 37.82251 258.54541
163.01784 37.82251 258.54541
169.2879 37.82251 258.54541
175.55771 37.82251 258.54541
181.82777 37.82251 258.54541
188.09761 37.82251 258.54541
194.36743 37.82251 258.54541
200.6375 37.82251 258.54541
206.90732 37.82251 258.54541
213.17738 37.82251 258.54541
221.77914 14.633789 289.98413
228.11559 14.633789 289.98413
-46.28796 200.91968 27.94043
-40.502045 200.91968 27.94043
-34.716022 200.91968 27.94043
-28.658234 219.88672 2.3144531
-22.709152 238.85388 -23.311768
-17.031837 238.85388 -23.311768
-11.35463 238.85388 -23.311768
-5.6773152 238.85388 -23.311768
0 238.85388 -23.311768
5.6772065 238.85388 -23.311768
11.35463 238.85388 -23.311768
17.031837 238.85388 -23.311768
22.709261 238.85388 -23.311768
28.658234 219.88672 2.3144531
34.389793 219.88672 2.3144531
40.907066 180.72876 55.219971
46.750835 180.72876 55.219971
57.029018 8.8010254 287.5083
63.365467 8.8010254 287.5083
114.05779 8.8010254 287.5083
120.39449 8.8010254 287.5083
126.73093 8.8010254 287.5083
133.06738 8.8010254 287.5083
139.40408 8.8010254 287.5083
144.20811 32.05127 256.09546
150.47818 32.05127 256.09546
156.748 32.05127 256.09546
163.01784 32.05127 256.09546
169.2879 32.05127 256.09546
175.55771 32.05127 256.09546
181.82777 32.05127 256.09546
188.09761 32.05127 256.09546
194.36743 32.05127 256.09546
200.6375 32.05127 256.09546
206.90732 32.05127 256.09546
213.17738 32.05127 256.09546
221.77914 8.8010254 287.5083
228.11559 8.8010254 287.5083
-40.907066 175.34937 52.936523
-34.716022 195.59351 25.679688
-28.658234 214.61072 0.074707031
-22.709152 233.62793 -25.530029
-17.031837 233.62793 -25.530029
-11.35463 233.62793 -25.530029
-5.6773152 233.62793 -25.530029
0 233.62793 -25.530029
5.6772065 233.62793 -25.530029
11.35463 233.62793 -25.530029
17.194897 214.61072 0.074707031
22.926674 214.61072 0.074707031
28.658234 214.61072 0.074707031
35.063072 175.34937 52.936523
41.299816 155.71899 79.367188
47.199688 155.71899 79.367188
57.029018 2.9682617 285.03223
63.365467 2.9682617 285.03223
107.72134 2.9682617 285.03223
114.05779 2.9682617 285.03223
120.39449 2.9682617 285.03223
126.73093 2.9682617 285.03223
133.06738 2.9682617 285.03223
139.40408 2.9682617 285.03223
144.20811 26.279541 253.64551
150.47818 26.279541 253.64551
156.748 26.279541 253.64551
163.01784 26.279541 253.64551
169.2879 26.279541 253.64551
175.55771 26.279541 253.64551
181.82777 26.279541 253.64551
188.09761 26.279541 253.64551
194.36743 26.279541 253.64551
200.6375 26.279541 253.64551
206.90732 26.279541 253.64551
215.44269 2.9682617 285.03223
221.77914 2.9682617 285.03223
228.11559 2.9682617 285.03223
234.45229 2.9682617 285.03223
-40.907066 169.97021 50.65332
-34.716022 190.26758 23.418945
-28.93 190.26758 23.418945
-22.926565 209.33472 -2.1645508
-17.194897 209.33472 -2.1645508
-11.35463 228.40186 -27.748291
-5.6773152 228.40186 -27.748291
0 228.40186 -27.748291
5.6772065 228.40186 -27.748291
11.35463 228.40186 -27.748291
17.194897 209.33472 -2.1645508
22.926674 209.33472 -2.1645508
28.658234 209.33472 -2.1645508
35.063072 169.97021 50.65332
40.907066 169.97021 50.65332
46.750835 169.97021 50.65332
137.93829 20.508301 251.1958
144.20811 20.508301 251.1958
150.47818 20.508301 251.1958
156.748 20.508301 251.1958
163.01784 20.508301 251.1958
169.2879 20.508301 251.1958
175.55771 20.508301 251.1958
181.82777 20.508301 251.1958
188.09761 20.508301 251.1958
194.36743 20.508301 251.1958
200.6375 20.508301 251.1958
-41.299816 144.85693 74.756592
-35.063183 164.59082 48.369873
-28.93 184.94141 21.158203
-22.926565 204.05872 -4.4042969
-17.194897 204.05872 -4.4042969
-11.35463 223.1759 -29.966553
-5.6773152 223.1759 -29.966553
0 223.1759 -29.966553
5.6772065 223.1759 -29.966553
11.35463 223.1759 -29.966553
17.194897 204.05872 -4.4042969
22.926674 204.05872 -4.4042969
28.658234 204.05872 -4.4042969
34.715912 184.94141 21.158203
40.907066 164.59082 48.369873
47.199688 144.85693 74.756592
137.93829 14.736572 248.74585
144.20811 14.736572 248.74585
150.47818 14.736572 248.74585
155.12617 37.553955 218.23608
161.33112 37.553955 218.23608
167.53632 37.553955 218.23608
173.74127 37.553955 218.23608
179.94646 37.553955 218.23608
188.09761 14.736572 248.74585
194.36743 14.736572 248.74585
200.6375 14.736572 248.74585
-41.299816 139.42627 72.451416
-35.063183 159.21167 46.086426
-29.219301 159.21167 46.086426
-22.926565 198.78271 -6.6437988
-17.194897 198.78271 -6.6437988
-11.463337 198.78271 -6.6437988
-5.6773152 217.94995 -32.184814
0 217.94995 -32.184814
5.6772065 217.94995 -32.184814
11.463337 198.78271 -6.6437988
17.194897 198.78271 -6.6437988
22.926674 198.78271 -6.6437988
28.658234 198.78271 -6.6437988
34.715912 179.61548 18.897461
40.907066 159.21167 46.086426
47.199688 139.42627 72.451416
131.66823 8.965332 246.29614
137.93829 8.965332 246.29614
144.20811 8.965332 246.29614
148.92122 31.842285 215.81152
155.12617 31.842285 215.81152
161.33112 31.842285 215.81152
167.53632 31.842285 215.81152
173.74127 31.842285 215.81152
179.94646 31.842285 215.81152
188.09761 8.965332 246.29614
194.36743 8.965332 246.29614
200.6375 8.965332 246.29614
-35.757504 112.91797 98.135742
-29.219301 153.83228 43.802979
-23.14398 174.28931 16.636719
-17.194897 193.50671 -8.8833008
-11.463337 193.50671 -8.8833008
-5.7316685 193.50671 -8.8833008
0 193.50671 -8.8833008
5.7315598 193.50671 -8.8833008
11.463337 193.50671 -8.8833008
17.194897 193.50671 -8.8833008
22.926674 193.50671 -8.8833008
28.93 174.28931 16.636719
34.715912 174.28931 16.636719
40.907066 153.83228 43.802979
47.199688 133.99512 70.145996
119.12858 3.1936035 243.84619
125.39841 3.1936035 243.84619
131.66823 3.1936035 243.84619
137.93829 3.1936035 243.84619
144.20811 3.1936035 243.84619
148.92122 26.130371 213.38696
155.12617 26.130371 213.38696
161.33112 26.130371 213.38696
167.53632 26.130371 213.38696
173.74127 26.130371 213.38696
179.94646 26.130371 213.38696
188.09761 3.1936035 243.84619
194.36743 3.1936035 243.84619
200.6375 3.1936035 243.84619
-35.757504 107.43237 95.807373
-29.499834 128.56421 67.84082
-23.14398 168.96338 14.375977
-17.357956 168.96338 14.375977
-11.463337 188.23071 -11.122803
-5.7316685 188.23071 -11.122803
0 188.23071 -11.122803
5.7315598 188.23071 -11.122803
11.463337 188.23071 -11.122803
17.357956 168.96338 14.375977
23.144089 168.96338 14.375977
28.93 168.96338 14.375977
34.715912 168.96338 14.375977
40.907066 148.45312 41.519775
47.199688 128.56421 67.84082
136.51108 20.418701 210.96265
142.71603 20.418701 210.96265
155.12617 20.418701 210.96265
161.33112 20.418701 210.96265
167.53632 20.418701 210.96265
173.74127 20.418701 210.96265
179.94646 20.418701 210.96265
-42.134399 80.759766 121.42163
-35.757504 101.94653 93.47876
-29.499834 123.1333 65.5354
-23.375418 143.07373 39.236328
-17.531536 143.07373 39.236328
-11.572044 163.63721 12.11499
-5.7860222 163.63721 12.11499
0 182.95471 -13.362305
5.7315598 182.95471 -13.362305
11.572044 163.63721 12.11499
17.357956 163.63721 12.11499
23.144089 163.63721 12.11499
28.93 163.63721 12.11499
34.715912 163.63721 12.11499
40.907066 143.07373 39.236328
47.199688 123.1333 65.5354
136.51108 14.706787 208.53809
142.71603 14.706787 208.53809
155.12617 14.706787 208.53809
161.33112 14.706787 208.53809
167.53632 14.706787 208.53809
-42.134399 75.218994 119.06982
-35.757504 96.460693 91.150146
-29.499834 117.70239 63.230225
-23.375418 137.69434 36.952881
-17.531536 137.69434 36.952881
-11.572044 158.31128 9.854248
-5.7860222 158.31128 9.854248
0 177.67871 -15.601807
5.7315598 177.67871 -15.601807
11.463337 177.67871 -15.601807
17.194897 177.67871 -15.601807
22.926674 177.67871 -15.601807
28.658234 177.67871 -15.601807
34.715912 158.31128 9.854248
40.502045 158.31128 9.854248
117.89599 8.9951172 206.11353
124.10094 8.9951172 206.11353
136.51108 8.9951172 206.11353
142.71603 8.9951172 206.11353
-35.757504 90.974854 88.821533
-29.499834 112.27148 60.924805
-23.375418 132.31494 34.669434
-17.357956 152.98535 7.5935059
-11.572044 152.98535 7.5935059
-5.7860222 152.98535 7.5935059
0 172.40259 -17.841309
5.7315598 172.40259 -17.841309
11.463337 172.40259 -17.841309
17.194897 172.40259 -17.841309
22.926674 172.40259 -17.841309
28.658234 172.40259 -17.841309
34.715912 152.98535 7.5935059
40.502045 152.98535 7.5935059
47.199688 112.27148 60.924805
61.41927 25.83252 174.15161
117.89599 3.2832031 203.68896
124.10094 3.2832031 203.68896
130.30589 3.2832031 203.68896
136.51108 3.2832031 203.68896
142.71603 3.2832031 203.68896
148.92122 3.2832031 203.68896
155.12617 3.2832031 203.68896
241.99692 3.2832031 203.68896
248.20187 3.2832031 203.68896
254.40683 3.2832031 203.68896
260.61203 3.2832031 203.68896
266.81696 3.2832031 203.68896
273.02216 3.2832031 203.68896
279.22711 3.2832031 203.68896
285.43207 3.2832031 203.68896
291.63724 3.2832031 203.68896
297.84219 3.2832031 203.68896
-35.757504 85.489014 86.49292
-29.499834 106.84058 58.619629
-23.375418 126.93604 32.38623
-17.357956 147.65918 5.3327637
-11.572044 147.65918 5.3327637
-5.7860222 147.65918 5.3327637
0 167.12671 -20.081055
5.7315598 167.12671 -20.081055
