ply
format ascii 1.0
comment PCL generated
element vertex 1550
property float x
property float y
property float z
element camera 0
property float view_px
property float view_py
property float view_pz
property float x_axisx
property float x_axisy
property float x_axisz
property float y_axisx
property float y_axisy
property float y_axisz
property float z_axisx
property float z_axisy
property float z_axisz
property float focal
property float scalex
property float scaley
property float centerx
property float centery
property int viewportx
property int viewporty
property float k1
property float k2
end_header
67.422646 763.45081 -104.81421
71.381783 788.07141 -148.68164
75.822906 800.38171 -170.61523
80.204407 812.19946 -191.67163
85.2173 812.19946 -191.67163
89.472572 824.01733 -212.72778
94.443382 824.01733 -212.72778
99.414001 824.01733 -212.72778
104.38463 824.01733 -212.72778
109.35544 824.01733 -212.72778
115.29391 812.19946 -191.67163
120.3068 812.19946 -191.67163
125.3195 812.19946 -191.67163
130.3322 812.19946 -191.67163
135.34511 812.19946 -191.67163
140.3578 812.19946 -191.67163
145.3707 812.19946 -191.67163
150.38341 812.19946 -191.67163
-147.60965 620.35022 138.62378
-141.93234 620.35022 138.62378
-136.25502 620.35022 138.62378
-130.57771 620.35022 138.62378
-124.90051 620.35022 138.62378
-119.22319 620.35022 138.62378
-113.54587 620.35022 138.62378
-107.86855 620.35022 138.62378
-102.19124 620.35022 138.62378
-96.514038 620.35022 138.62378
-90.836716 620.35022 138.62378
-85.159401 620.35022 138.62378
-79.482086 620.35022 138.62378
-73.120972 635.1709 112.32422
-67.496368 635.1709 112.32422
-61.293053 649.99158 86.024414
-54.704002 678.64502 35.177979
-48.349903 706.3103 -13.914795
-42.598946 719.64905 -37.584717
-37.274155 719.64905 -37.584717
-31.949263 719.64905 -37.584717
-26.387667 732.98755 -61.254395
-21.110115 732.98755 -61.254395
-15.695801 745.83228 -84.047607
-10.463933 745.83228 -84.047607
-5.2319665 745.83228 -84.047607
0 745.83228 -84.047607
5.2318668 745.83228 -84.047607
10.463933 745.83228 -84.047607
15.695801 745.83228 -84.047607
20.927866 745.83228 -84.047607
26.159735 745.83228 -84.047607
31.391602 745.83228 -84.047607
36.942772 732.98755 -61.254395
42.22023 732.98755 -61.254395
47.497883 732.98755 -61.254395
52.775333 732.98755 -61.254395
57.551338 745.83228 -84.047607
62.783401 745.83228 -84.047607
67.422646 758.67688 -106.84082
71.381783 783.37817 -150.67383
75.822906 795.72876 -172.59033
80.204407 807.58521 -193.63013
85.2173 807.58521 -193.63013
90.230003 807.58521 -193.63013
94.443382 819.44177 -214.66992
99.414001 819.44177 -214.66992
104.38463 819.44177 -214.66992
109.35544 819.44177 -214.66992
115.29391 807.58521 -193.63013
120.3068 807.58521 -193.63013
125.3195 807.58521 -193.63013
130.3322 807.58521 -193.63013
135.34511 807.58521 -193.63013
140.3578 807.58521 -193.63013
145.3707 807.58521 -193.63013
150.38341 807.58521 -193.63013
156.70059 795.72876 -172.59033
-147.60965 615.12415 136.40552
-141.93234 615.12415 136.40552
-136.25502 615.12415 136.40552
-130.57771 615.12415 136.40552
-124.90051 615.12415 136.40552
-119.22319 615.12415 136.40552
-113.54587 615.12415 136.40552
-107.86855 615.12415 136.40552
-102.19124 615.12415 136.40552
-96.514038 615.12415 136.40552
-90.836716 615.12415 136.40552
-85.159401 615.12415 136.40552
-79.482086 615.12415 136.40552
-73.120972 629.99329 110.12646
-67.496368 629.99329 110.12646
-61.293053 644.86243 83.847168
-54.704002 673.6095 33.040527
-48.349903 701.36511 -16.013916
-42.977669 701.36511 -16.013916
-37.274155 714.74731 -39.665283
-31.949263 714.74731 -39.665283
-26.624367 714.74731 -39.665283
-21.299473 714.74731 -39.665283
-15.83256 728.12964 -63.31665
-10.555108 728.12964 -63.31665
-5.2319665 741.01611 -86.091797
0 741.01611 -86.091797
5.2318668 741.01611 -86.091797
10.555108 728.12964 -63.31665
15.83256 728.12964 -63.31665
21.110216 728.12964 -63.31665
26.387667 728.12964 -63.31665
31.665119 728.12964 -63.31665
36.942772 728.12964 -63.31665
42.22023 728.12964 -63.31665
47.497883 728.12964 -63.31665
52.775333 728.12964 -63.31665
58.052788 728.12964 -63.31665
62.783401 741.01611 -86.091797
67.422646 753.90271 -108.86719
71.381783 778.68469 -152.66602
75.822906 791.07568 -174.56543
79.531128 814.86621 -216.61206
84.501938 814.86621 -216.61206
89.472572 814.86621 -216.61206
94.443382 814.86621 -216.61206
99.414001 814.86621 -216.61206
104.38463 814.86621 -216.61206
109.35544 814.86621 -216.61206
115.29391 802.97083 -195.58887
120.3068 802.97083 -195.58887
126.37151 791.07568 -174.56543
131.42628 791.07568 -174.56543
135.34511 802.97083 -195.58887
140.3578 802.97083 -195.58887
145.3707 802.97083 -195.58887
151.64581 791.07568 -174.56543
156.70059 791.07568 -174.56543
-147.60965 609.89819 134.18726
-141.93234 609.89819 134.18726
-136.25502 609.89819 134.18726
-130.57771 609.89819 134.18726
-124.90051 609.89819 134.18726
-119.22319 609.89819 134.18726
-113.54587 609.89819 134.18726
-107.86855 609.89819 134.18726
-102.19124 609.89819 134.18726
-96.514038 609.89819 134.18726
-90.836716 609.89819 134.18726
-85.159401 609.89819 134.18726
-78.745689 624.8158 107.92871
-73.120972 624.8158 107.92871
-67.496368 624.8158 107.92871
-61.293053 639.73328 81.669922
-55.212467 654.15356 56.286621
-48.79174 682.49707 6.3950195
-42.977669 696.42004 -18.113037
-37.605534 696.42004 -18.113037
-31.949263 709.84595 -41.74585
-26.624367 709.84595 -41.74585
-21.299473 709.84595 -41.74585
-15.83256 723.27161 -65.378662
-10.555108 723.27161 -65.378662
-5.2319665 736.2002 -88.13623
0 736.2002 -88.13623
5.2774534 723.27161 -65.378662
10.555108 723.27161 -65.378662
15.83256 723.27161 -65.378662
21.110216 723.27161 -65.378662
26.387667 723.27161 -65.378662
31.665119 723.27161 -65.378662
36.942772 723.27161 -65.378662
42.22023 723.27161 -65.378662
47.497883 723.27161 -65.378662
52.775333 723.27161 -65.378662
58.052788 723.27161 -65.378662
62.783401 736.2002 -88.13623
67.422646 749.12866 -110.89355
71.381783 773.99133 -154.6582
75.191704 798.35669 -197.54736
79.531128 810.29077 -218.5542
84.501938 810.29077 -218.5542
89.472572 810.29077 -218.5542
94.443382 810.29077 -218.5542
99.414001 810.29077 -218.5542
104.38463 810.29077 -218.5542
109.35544 810.29077 -218.5542
115.29391 798.35669 -197.54736
120.3068 798.35669 -197.54736
125.3195 798.35669 -197.54736
131.42628 786.42273 -176.54053
135.34511 798.35669 -197.54736
140.3578 798.35669 -197.54736
145.3707 798.35669 -197.54736
150.38341 798.35669 -197.54736
156.70059 786.42273 -176.54053
-147.60965 604.67212 131.96899
-141.93234 604.67212 131.96899
-136.25502 604.67212 131.96899
-130.57771 604.67212 131.96899
-124.90051 604.67212 131.96899
-119.22319 604.67212 131.96899
-113.54587 604.67212 131.96899
-107.86855 604.67212 131.96899
-102.19124 604.67212 131.96899
-96.514038 604.67212 131.96899
-90.836716 604.67212 131.96899
-85.159401 604.67212 131.96899
-78.745689 619.63818 105.73096
-73.120972 619.63818 105.73096
-67.496368 619.63818 105.73096
-61.293053 634.60413 79.492676
-55.212467 649.07117 54.12915
-49.233582 663.53833 28.765625
-43.370415 677.50659 4.2768555
-37.949188 677.50659 4.2768555
-32.233299 691.47485 -20.212158
-26.624367 704.94421 -43.82666
-21.299473 704.94421 -43.82666
-15.83256 718.41357 -67.440674
-10.555108 718.41357 -67.440674
-5.277554 718.41357 -67.440674
0 718.41357 -67.440674
5.2774534 718.41357 -67.440674
10.555108 718.41357 -67.440674
15.83256 718.41357 -67.440674
21.110216 718.41357 -67.440674
26.387667 718.41357 -67.440674
31.665119 718.41357 -67.440674
36.942772 718.41357 -67.440674
42.22023 718.41357 -67.440674
47.497883 718.41357 -67.440674
52.775333 718.41357 -67.440674
58.052788 718.41357 -67.440674
62.783401 731.38416 -90.18042
68.015266 731.38416 -90.18042
71.381783 769.29797 -156.65039
75.191704 793.74231 -199.5061
79.531128 805.71509 -220.49658
84.501938 805.71509 -220.49658
89.472572 805.71509 -220.49658
94.443382 805.71509 -220.49658
99.414001 805.71509 -220.49658
104.38463 805.71509 -220.49658
110.2812 793.74231 -199.5061
115.29391 793.74231 -199.5061
120.3068 793.74231 -199.5061
125.3195 793.74231 -199.5061
131.42628 781.76965 -178.51562
135.34511 793.74231 -199.5061
140.3578 793.74231 -199.5061
145.3707 793.74231 -199.5061
150.38341 793.74231 -199.5061
156.70059 781.76965 -178.51562
-147.60965 599.44629 129.75073
-141.93234 599.44629 129.75073
-136.25502 599.44629 129.75073
-130.57771 599.44629 129.75073
-124.90051 599.44629 129.75073
-119.22319 599.44629 129.75073
-113.54587 599.44629 129.75073
-107.86855 599.44629 129.75073
-102.19124 599.44629 129.75073
-96.514038 599.44629 129.75073
-90.836716 599.44629 129.75073
-85.159401 599.44629 129.75073
-78.745689 614.46069 103.5332
-73.120972 614.46069 103.5332
-67.496368 614.46069 103.5332
-61.871651 614.46069 103.5332
-56.246937 614.46069 103.5332
-50.622219 614.46069 103.5332
-44.997505 614.46069 103.5332
-38.648773 643.98901 51.971924
-32.822422 658.50293 26.628174
-26.861067 686.52979 -22.311035
-21.488834 686.52979 -22.311035
-15.83256 713.55566 -69.50293
-10.555108 713.55566 -69.50293
-5.277554 713.55566 -69.50293
0 713.55566 -69.50293
5.2774534 713.55566 -69.50293
10.555108 713.55566 -69.50293
15.83256 713.55566 -69.50293
21.110216 713.55566 -69.50293
26.387667 713.55566 -69.50293
31.665119 713.55566 -69.50293
36.942772 713.55566 -69.50293
42.22023 713.55566 -69.50293
47.497883 713.55566 -69.50293
52.775333 713.55566 -69.50293
58.052788 713.55566 -69.50293
62.783401 726.56812 -92.224609
67.422646 739.58057 -114.94653
70.76812 777.1167 -180.49072
74.560501 801.13965 -222.43872
79.531128 801.13965 -222.43872
84.501938 801.13965 -222.43872
89.472572 801.13965 -222.43872
94.443382 801.13965 -222.43872
99.414001 801.13965 -222.43872
104.38463 801.13965 -222.43872
109.35544 801.13965 -222.43872
115.29391 789.12805 -201.46484
121.31673 777.1167 -180.49072
126.37151 777.1167 -180.49072
131.42628 777.1167 -180.49072
136.48126 777.1167 -180.49072
140.3578 789.12805 -201.46484
145.3707 789.12805 -201.46484
150.38341 789.12805 -201.46484
158.05943 764.60461 -158.64258
-151.86678 609.28308 101.33545
-146.24205 609.28308 101.33545
-141.93234 594.22021 127.53223
-136.25502 594.22021 127.53223
-130.57771 594.22021 127.53223
-124.90051 594.22021 127.53223
-119.22319 594.22021 127.53223
-113.54587 594.22021 127.53223
-107.86855 594.22021 127.53223
-102.19124 594.22021 127.53223
-96.514038 594.22021 127.53223
-90.836716 594.22021 127.53223
-85.159401 594.22021 127.53223
-78.745689 609.28308 101.33545
-73.120972 609.28308 101.33545
-67.496368 609.28308 101.33545
-61.871651 609.28308 101.33545
-56.246937 609.28308 101.33545
-50.622219 609.28308 101.33545
-44.997505 609.28308 101.33545
-38.648773 638.90649 49.814697
-32.822422 653.46741 24.490723
-27.106535 667.52588 0.040283203
-21.488834 681.58447 -24.4104
-15.83256 708.69763 -71.564941
-10.555108 708.69763 -71.564941
-5.277554 708.69763 -71.564941
0 708.69763 -71.564941
5.2774534 708.69763 -71.564941
10.555108 708.69763 -71.564941
15.83256 708.69763 -71.564941
21.110216 708.69763 -71.564941
26.387667 708.69763 -71.564941
31.665119 708.69763 -71.564941
37.274155 695.14111 -47.987793
42.598946 695.14111 -47.987793
47.923943 695.14111 -47.987793
52.775333 708.69763 -71.564941
58.052788 708.69763 -71.564941
62.783401 721.75208 -94.269043
67.422646 734.8064 -116.97314
70.76812 772.46362 -182.46582
74.560501 796.56396 -224.38086
79.531128 796.56396 -224.38086
84.501938 796.56396 -224.38086
89.472572 796.56396 -224.38086
94.443382 796.56396 -224.38086
99.414001 796.56396 -224.38086
104.38463 796.56396 -224.38086
109.35544 796.56396 -224.38086
115.29391 784.51367 -203.42334
121.31673 772.46362 -182.46582
126.37151 772.46362 -182.46582
131.42628 772.46362 -182.46582
136.48126 772.46362 -182.46582
140.3578 784.51367 -203.42334
145.3707 784.51367 -203.42334
151.64581 772.46362 -182.46582
-151.86678 604.10559 99.137695
-146.24205 604.10559 99.137695
-141.93234 588.99438 125.31396
-136.25502 588.99438 125.31396
-130.57771 588.99438 125.31396
-124.90051 588.99438 125.31396
-119.22319 588.99438 125.31396
-113.54587 588.99438 125.31396
-107.86855 588.99438 125.31396
-102.19124 588.99438 125.31396
-96.514038 588.99438 125.31396
-90.836716 588.99438 125.31396
-85.159401 588.99438 125.31396
-79.482086 588.99438 125.31396
-73.120972 604.10559 99.137695
-67.496368 604.10559 99.137695
-62.450253 588.99438 125.31396
-56.246937 604.10559 99.137695
-50.622219 604.10559 99.137695
-44.997505 604.10559 99.137695
-38.648773 633.82422 47.657227
-32.822422 648.43188 22.353271
-27.106535 662.53564 -2.0778809
-21.488834 676.6394 -26.509277
-15.97458 690.23962 -50.068359
-10.649788 690.23962 -50.068359
-5.277554 703.83972 -73.626953
0 703.83972 -73.626953
5.2774534 703.83972 -73.626953
10.555108 703.83972 -73.626953
15.83256 703.83972 -73.626953
21.299576 690.23962 -50.068359
26.624367 690.23962 -50.068359
31.94916 690.23962 -50.068359
37.274155 690.23962 -50.068359
42.598946 690.23962 -50.068359
47.923943 690.23962 -50.068359
53.722134 676.6394 -26.509277
59.094265 676.6394 -26.509277
63.330441 703.83972 -73.626953
65.713142 767.81067 -184.44092
70.178993 779.89954 -205.38208
74.560501 791.98853 -226.32324
79.531128 791.98853 -226.32324
84.501938 791.98853 -226.32324
89.472572 791.98853 -226.32324
94.443382 791.98853 -226.32324
99.414001 791.98853 -226.32324
104.38463 791.98853 -226.32324
109.35544 791.98853 -226.32324
115.29391 779.89954 -205.38208
120.3068 779.89954 -205.38208
125.3195 779.89954 -205.38208
131.42628 767.81067 -184.44092
136.48126 767.81067 -184.44092
141.53606 767.81067 -184.44092
146.59102 767.81067 -184.44092
152.9608 755.2179 -162.6272
-153.28697 583.76831 123.0957
-147.60965 583.76831 123.0957
-141.93234 583.76831 123.0957
-136.25502 583.76831 123.0957
-130.57771 583.76831 123.0957
-124.90051 583.76831 123.0957
-119.22319 583.76831 123.0957
-113.54587 583.76831 123.0957
-107.86855 583.76831 123.0957
-102.19124 583.76831 123.0957
-96.514038 583.76831 123.0957
-90.836716 583.76831 123.0957
-85.159401 583.76831 123.0957
-79.482086 583.76831 123.0957
-73.804771 583.76831 123.0957
-68.127563 583.76831 123.0957
-62.450253 583.76831 123.0957
-56.772934 583.76831 123.0957
-50.622219 598.92798 96.939941
-44.997505 598.92798 96.939941
-39.0047 614.08765 70.783936
-33.127502 628.74194 45.5
-27.352001 643.39624 20.21582
-21.488834 671.69421 -28.608398
-15.97458 685.33801 -52.148926
-10.649788 685.33801 -52.148926
-5.324894 685.33801 -52.148926
0 685.33801 -52.148926
5.3247924 685.33801 -52.148926
10.649788 685.33801 -52.148926
15.97458 685.33801 -52.148926
21.299576 685.33801 -52.148926
26.624367 685.33801 -52.148926
31.94916 685.33801 -52.148926
37.605534 671.69421 -28.608398
42.598946 685.33801 -52.148926
47.923943 685.33801 -52.148926
53.722134 671.69421 -28.608398
59.094265 671.69421 -28.608398
62.783401 712.12 -98.357666
65.713142 763.15759 -186.41602
70.178993 775.28516 -207.34082
74.560501 787.41284 -228.26538
79.531128 787.41284 -228.26538
84.501938 787.41284 -228.26538
90.230003 775.28516 -207.34082
94.443382 787.41284 -228.26538
99.414001 787.41284 -228.26538
104.38463 787.41284 -228.26538
109.35544 787.41284 -228.26538
115.29391 775.28516 -207.34082
120.3068 775.28516 -207.34082
125.3195 775.28516 -207.34082
131.42628 763.15759 -186.41602
136.48126 763.15759 -186.41602
141.53606 763.15759 -186.41602
146.59102 763.15759 -186.41602
151.64581 763.15759 -186.41602
-154.75452 562.82739 147.88403
-149.02284 562.82739 147.88403
-143.29117 562.82739 147.88403
-136.25502 578.54248 120.87744
-130.57771 578.54248 120.87744
-124.90051 578.54248 120.87744
-119.22319 578.54248 120.87744
-113.54587 578.54248 120.87744
-107.86855 578.54248 120.87744
-102.19124 578.54248 120.87744
-96.514038 578.54248 120.87744
-90.836716 578.54248 120.87744
-85.159401 578.54248 120.87744
-79.482086 578.54248 120.87744
-73.804771 578.54248 120.87744
-68.127563 578.54248 120.87744
-62.450253 578.54248 120.87744
-56.772934 578.54248 120.87744
-51.095619 578.54248 120.87744
-45.418304 578.54248 120.87744
-39.372898 593.75049 94.742188
-33.127502 623.65967 43.342773
-27.352001 638.36084 18.078369
-21.685207 652.55505 -6.3144531
-15.97458 680.43652 -54.229492
-10.649788 680.43652 -54.229492
-5.324894 680.43652 -54.229492
0 680.43652 -54.229492
5.3247924 680.43652 -54.229492
10.649788 680.43652 -54.229492
15.97458 680.43652 -54.229492
21.299576 680.43652 -54.229492
26.624367 680.43652 -54.229492
32.233196 666.74915 -30.70752
37.605534 666.74915 -30.70752
42.977669 666.74915 -30.70752
48.350006 666.74915 -30.70752
53.722134 666.74915 -30.70752
58.573528 680.43652 -54.229492
61.184364 745.83118 -166.61157
65.1661 770.6709 -209.29932
70.178993 770.6709 -209.29932
74.560501 782.8374 -230.20752
79.531128 782.8374 -230.20752
84.501938 782.8374 -230.20752
90.230003 770.6709 -209.29932
94.443382 782.8374 -230.20752
99.414001 782.8374 -230.20752
104.38463 782.8374 -230.20752
109.35544 782.8374 -230.20752
115.29391 770.6709 -209.29932
120.3068 770.6709 -209.29932
126.37151 758.50464 -188.39111
131.42628 758.50464 -188.39111
136.48126 758.50464 -188.39111
141.53606 758.50464 -188.39111
146.59102 758.50464 -188.39111
-154.75452 557.55127 145.64453
-149.02284 557.55127 145.64453
-143.29117 557.55127 145.64453
-136.25502 573.31641 118.65918
-130.57771 573.31641 118.65918
-124.90051 573.31641 118.65918
-119.22319 573.31641 118.65918
-114.63293 557.55127 145.64453
-107.86855 573.31641 118.65918
-102.19124 573.31641 118.65918
-96.514038 573.31641 118.65918
-90.836716 573.31641 118.65918
-85.159401 573.31641 118.65918
-79.482086 573.31641 118.65918
-73.804771 573.31641 118.65918
-68.127563 573.31641 118.65918
-62.450253 573.31641 118.65918
-56.772934 573.31641 118.65918
-51.095619 573.31641 118.65918
-44.997505 588.57288 92.544434
-39.0047 603.82935 66.429688
-33.127502 618.57715 41.185303
-27.352001 633.3252 15.940918
-21.685207 647.56458 -8.4328613
-16.116598 661.80396 -32.806641
-10.744469 661.80396 -32.806641
-5.324894 675.53491 -56.310059
0 675.53491 -56.310059
5.3247924 675.53491 -56.310059
10.649788 675.53491 -56.310059
15.97458 675.53491 -56.310059
21.488937 661.80396 -32.806641
26.861067 661.80396 -32.806641
32.233196 661.80396 -32.806641
37.605534 661.80396 -32.806641
42.977669 661.80396 -32.806641
48.350006 661.80396 -32.806641
53.722134 661.80396 -32.806641
58.052788 689.26562 -79.813232
60.658363 753.85156 -190.36621
65.1661 766.05664 -211.25806
70.178993 766.05664 -211.25806
75.191704 766.05664 -211.25806
80.204407 766.05664 -211.25806
85.2173 766.05664 -211.25806
90.230003 766.05664 -211.25806
94.443382 778.26184 -232.1499
99.414001 778.26184 -232.1499
104.38463 778.26184 -232.1499
110.2812 766.05664 -211.25806
115.29391 766.05664 -211.25806
120.3068 766.05664 -211.25806
126.37151 753.85156 -190.36621
131.42628 753.85156 -190.36621
136.48126 753.85156 -190.36621
141.53606 753.85156 -190.36621
146.59102 753.85156 -190.36621
-154.75452 552.27539 143.40503
-149.02284 552.27539 143.40503
-143.29117 552.27539 143.40503
-137.55949 552.27539 143.40503
-131.82784 552.27539 143.40503
-126.09628 552.27539 143.40503
-120.36461 552.27539 143.40503
-114.63293 552.27539 143.40503
-108.90127 552.27539 143.40503
-102.19124 568.09045 116.44092
-96.514038 568.09045 116.44092
-90.836716 568.09045 116.44092
-85.159401 568.09045 116.44092
-79.482086 568.09045 116.44092
-73.804771 568.09045 116.44092
-68.127563 568.09045 116.44092
-62.450253 568.09045 116.44092
-56.772934 568.09045 116.44092
-51.095619 568.09045 116.44092
-44.997505 583.39539 90.34668
-39.0047 598.7002 64.252441
-33.127502 613.495 39.028076
-27.606234 613.495 39.028076
-21.881578 628.28979 13.803467
-16.116598 656.85889 -34.905762
-10.744469 656.85889 -34.905762
-5.3722343 656.85889 -34.905762
0 656.85889 -34.905762
5.3247924 670.6333 -58.390625
10.649788 670.6333 -58.390625
16.116598 656.85889 -34.905762
21.488937 656.85889 -34.905762
26.861067 656.85889 -34.905762
32.233196 656.85889 -34.905762
37.605534 656.85889 -34.905762
42.977669 656.85889 -34.905762
48.350006 656.85889 -34.905762
53.722134 656.85889 -34.905762
56.567715 723.69031 -148.85059
60.658363 749.19849 -192.34131
65.713142 749.19849 -192.34131
70.178993 761.44238 -213.21655
75.191704 761.44238 -213.21655
80.204407 761.44238 -213.21655
85.2173 761.44238 -213.21655
90.230003 761.44238 -213.21655
95.242905 761.44238 -213.21655
99.414001 773.68628 -234.09204
104.38463 773.68628 -234.09204
110.2812 761.44238 -213.21655
115.29391 761.44238 -213.21655
120.3068 761.44238 -213.21655
126.37151 749.19849 -192.34131
131.42628 749.19849 -192.34131
136.48126 749.19849 -192.34131
142.76338 736.44446 -170.59595
147.86218 736.44446 -170.59595
-154.75452 546.99927 141.16553
-149.02284 546.99927 141.16553
-143.29117 546.99927 141.16553
-137.55949 546.99927 141.16553
-131.82784 546.99927 141.16553
-126.09628 546.99927 141.16553
-120.36461 546.99927 141.16553
-114.63293 546.99927 141.16553
-108.90127 546.99927 141.16553
-102.19124 562.86438 114.22266
-96.514038 562.86438 114.22266
-90.836716 562.86438 114.22266
-85.159401 562.86438 114.22266
-79.482086 562.86438 114.22266
-73.804771 562.86438 114.22266
-68.127563 562.86438 114.22266
-62.450253 562.86438 114.22266
-56.772934 562.86438 114.22266
-51.095619 562.86438 114.22266
-44.997505 578.21777 88.148926
-39.0047 593.57104 62.075195
-33.127502 608.4126 36.870605
-27.606234 608.4126 36.870605
-21.881578 623.25415 11.666016
-16.116598 651.9137 -37.004883
-10.744469 651.9137 -37.004883
-5.3722343 651.9137 -37.004883
0 651.9137 -37.004883
5.3247924 665.73169 -60.471191
10.649788 665.73169 -60.471191
16.116598 651.9137 -37.004883
21.488937 651.9137 -37.004883
26.861067 651.9137 -37.004883
32.233196 651.9137 -37.004883
37.949188 637.58398 -12.669434
43.370415 637.58398 -12.669434
48.350006 651.9137 -37.004883
53.722134 651.9137 -37.004883
56.085552 731.75098 -172.58813
60.658363 744.54541 -194.31641
65.1661 756.828 -215.17529
70.178993 756.828 -215.17529
75.191704 756.828 -215.17529
80.204407 756.828 -215.17529
85.2173 756.828 -215.17529
90.230003 756.828 -215.17529
95.242905 756.828 -215.17529
99.414001 769.11072 -236.03418
104.38463 769.11072 -236.03418
109.35544 769.11072 -236.03418
114.32607 769.11072 -236.03418
120.3068 756.828 -215.17529
126.37151 744.54541 -194.31641
131.42628 744.54541 -194.31641
136.48126 744.54541 -194.31641
142.76338 731.75098 -172.58813
147.86218 731.75098 -172.58813
-154.75452 541.72327 138.92578
-149.02284 541.72327 138.92578
-143.29117 541.72327 138.92578
-137.55949 541.72327 138.92578
-131.82784 541.72327 138.92578
-126.09628 541.72327 138.92578
-120.36461 541.72327 138.92578
-114.63293 541.72327 138.92578
-108.90127 541.72327 138.92578
-102.19124 557.63843 112.00415
-96.514038 557.63843 112.00415
-90.836716 557.63843 112.00415
-85.159401 557.63843 112.00415
-79.482086 557.63843 112.00415
-73.804771 557.63843 112.00415
-68.127563 557.63843 112.00415
-62.450253 557.63843 112.00415
-56.772934 557.63843 112.00415
-51.095619 557.63843 112.00415
-44.997505 573.04016 85.951172
-39.0047 588.44189 59.897949
-33.127502 603.33008 34.713379
-27.606234 603.33008 34.713379
-21.881578 618.21863 9.5283203
-16.26388 632.59351 -14.787598
-10.842655 632.59351 -14.787598
-5.3722343 646.96851 -39.104004
0 646.96851 -39.104004
5.3247924 660.83008 -62.552002
10.649788 660.83008 -62.552002
16.116598 646.96851 -39.104004
21.488937 646.96851 -39.104004
26.861067 646.96851 -39.104004
32.233196 646.96851 -39.104004
37.605534 646.96851 -39.104004
42.977669 646.96851 -39.104004
48.350006 646.96851 -39.104004
53.722134 646.96851 -39.104004
56.085552 727.05762 -174.58057
60.658363 739.89246 -196.2915
65.1661 752.21362 -217.13403
70.178993 752.21362 -217.13403
75.191704 752.21362 -217.13403
80.204407 752.21362 -217.13403
85.2173 752.21362 -217.13403
90.230003 752.21362 -217.13403
95.242905 752.21362 -217.13403
99.414001 764.53503 -237.97656
104.38463 764.53503 -237.97656
109.35544 764.53503 -237.97656
114.32607 764.53503 -237.97656
120.3068 752.21362 -217.13403
125.3195 752.21362 -217.13403
130.3322 752.21362 -217.13403
136.48126 739.89246 -196.2915
141.53606 739.89246 -196.2915
146.59102 739.89246 -196.2915
-154.75452 536.44727 136.68628
-149.02284 536.44727 136.68628
-143.29117 536.44727 136.68628
-137.55949 536.44727 136.68628
-131.82784 536.44727 136.68628
-126.09628 536.44727 136.68628
-120.36461 536.44727 136.68628
-114.63293 536.44727 136.68628
-108.90127 536.44727 136.68628
-103.16959 536.44727 136.68628
-96.514038 552.41248 109.78613
-90.836716 552.41248 109.78613
-85.159401 552.41248 109.78613
-79.482086 552.41248 109.78613
-73.804771 552.41248 109.78613
-68.127563 552.41248 109.78613
-62.450253 552.41248 109.78613
-56.772934 552.41248 109.78613
-51.095619 552.41248 109.78613
-44.997505 567.86267 83.753662
-39.0047 583.31274 57.720947
-33.127502 598.24792 32.556152
-27.606234 598.24792 32.556152
-21.881578 613.18311 7.3911133
-16.26388 627.60327 -16.905762
-10.842655 627.60327 -16.905762
-5.3722343 642.02344 -41.203125
0 642.02344 -41.203125
5.3721313 642.02344 -41.203125
10.744469 642.02344 -41.203125
16.116598 642.02344 -41.203125
21.488937 642.02344 -41.203125
26.861067 642.02344 -41.203125
32.233196 642.02344 -41.203125
37.605534 642.02344 -41.203125
42.977669 642.02344 -41.203125
48.350006 642.02344 -41.203125
52.775333 669.83374 -88.061768
56.085552 722.36426 -176.57275
60.658363 735.2395 -198.2666
65.1661 747.59949 -219.09253
70.178993 747.59949 -219.09253
75.191704 747.59949 -219.09253
80.204407 747.59949 -219.09253
85.2173 747.59949 -219.09253
90.230003 747.59949 -219.09253
95.242905 747.59949 -219.09253
100.2556 747.59949 -219.09253
104.38463 759.95959 -239.9187
109.35544 759.95959 -239.9187
114.32607 759.95959 -239.9187
120.3068 747.59949 -219.09253
125.3195 747.59949 -219.09253
130.3322 747.59949 -219.09253
136.48126 735.2395 -198.2666
141.53606 735.2395 -198.2666
146.59102 735.2395 -198.2666
-143.29117 531.17114 134.44678
-137.55949 531.17114 134.44678
-131.82784 531.17114 134.44678
-126.09628 531.17114 134.44678
-120.36461 531.17114 134.44678
-114.63293 531.17114 134.44678
-108.90127 531.17114 134.44678
-103.16959 531.17114 134.44678
-96.514038 547.1864 107.56763
-90.836716 547.1864 107.56763
-85.159401 547.1864 107.56763
-79.482086 547.1864 107.56763
-74.51136 531.17114 134.44678
-68.127563 547.1864 107.56763
-62.450253 547.1864 107.56763
-56.772934 547.1864 107.56763
-51.095619 547.1864 107.56763
-44.997505 562.68506 81.555664
-39.372898 562.68506 81.555664
-33.432583 578.18359 55.543701
-27.606234 593.16553 30.398682
-21.881578 608.14758 5.253418
-16.26388 622.61292 -19.02417
-10.842655 622.61292 -19.02417
-5.4213276 622.61292 -19.02417
0 622.61292 -19.02417
5.3721313 637.07812 -43.302246
10.744469 637.07812 -43.302246
16.116598 637.07812 -43.302246
21.488937 637.07812 -43.302246
26.861067 637.07812 -43.302246
32.233196 637.07812 -43.302246
37.605534 637.07812 -43.302246
42.977669 637.07812 -43.302246
47.923943 651.02698 -66.713135
52.775333 664.97559 -90.123779
56.567715 704.75537 -156.88818
60.658363 730.5863 -200.2417
65.713142 730.5863 -200.2417
70.178993 742.98511 -221.05127
75.191704 742.98511 -221.05127
80.204407 742.98511 -221.05127
85.2173 742.98511 -221.05127
90.230003 742.98511 -221.05127
95.242905 742.98511 -221.05127
100.2556 742.98511 -221.05127
104.38463 755.38403 -241.86084
109.35544 755.38403 -241.86084
114.32607 755.38403 -241.86084
120.3068 742.98511 -221.05127
125.3195 742.98511 -221.05127
130.3322 742.98511 -221.05127
136.48126 730.5863 -200.2417
141.53606 730.5863 -200.2417
146.59102 730.5863 -200.2417
-154.75452 525.89526 132.20728
-149.02284 525.89526 132.20728
-143.29117 525.89526 132.20728
-136.25502 541.96045 105.34937
-130.57771 541.96045 105.34937
-126.09628 525.89526 132.20728
-120.36461 525.89526 132.20728
-114.63293 525.89526 132.20728
-108.90127 525.89526 132.20728
-103.16959 525.89526 132.20728
-97.438042 525.89526 132.20728
-91.706375 525.89526 132.20728
-85.159401 541.96045 105.34937
-79.482086 541.96045 105.34937
-74.51136 525.89526 132.20728
-68.127563 541.96045 105.34937
-62.450253 541.96045 105.34937
-56.772934 541.96045 105.34937
-51.095619 541.96045 105.34937
-45.418304 541.96045 105.34937
-39.372898 557.50757 79.358154
-33.432583 573.05444 53.366455
-27.606234 588.08325 28.241455
-22.084965 588.08325 28.241455
-16.26388 617.62256 -21.142334
-10.842655 617.62256 -21.142334
-5.4213276 617.62256 -21.142334
0 617.62256 -21.142334
5.3721313 632.13306 -45.401123
10.744469 632.13306 -45.401123
16.116598 632.13306 -45.401123
21.488937 632.13306 -45.401123
26.861067 632.13306 -45.401123
32.233196 632.13306 -45.401123
37.605534 632.13306 -45.401123
42.977669 632.13306 -45.401123
47.923943 646.12549 -68.793701
56.567715 700.02173 -158.89746
60.658363 725.93335 -202.2168
65.713142 725.93335 -202.2168
70.178993 738.37085 -223.00977
75.191704 738.37085 -223.00977
80.204407 738.37085 -223.00977
85.2173 738.37085 -223.00977
90.230003 738.37085 -223.00977
95.242905 738.37085 -223.00977
100.2556 738.37085 -223.00977
105.2683 738.37085 -223.00977
110.2812 738.37085 -223.00977
115.29391 738.37085 -223.00977
120.3068 738.37085 -223.00977
125.3195 738.37085 -223.00977
130.3322 738.37085 -223.00977
135.34511 738.37085 -223.00977
140.3578 738.37085 -223.00977
146.59102 725.93335 -202.2168
-154.75452 520.61926 129.96777
-149.02284 520.61926 129.96777
-143.29117 520.61926 129.96777
-136.25502 536.7345 103.1311
-130.57771 536.7345 103.1311
-126.09628 520.61926 129.96777
-120.36461 520.61926 129.96777
-114.63293 520.61926 129.96777
-108.90127 520.61926 129.96777
-103.16959 520.61926 129.96777
-97.438042 520.61926 129.96777
-91.706375 520.61926 129.96777
-85.974701 520.61926 129.96777
-80.243034 520.61926 129.96777
-74.51136 520.61926 129.96777
-68.779808 520.61926 129.96777
-62.450253 536.7345 103.1311
-56.772934 536.7345 103.1311
-51.095619 536.7345 103.1311
-45.418304 536.7345 103.1311
-39.372898 552.32983 77.1604
-33.432583 567.92529 51.189209
-27.606234 583.00085 26.083984
-22.084965 583.00085 26.083984
-16.26388 612.6322 -23.260742
-10.842655 612.6322 -23.260742
-5.4213276 612.6322 -23.260742
0 612.6322 -23.260742
5.3721313 627.18787 -47.500244
10.744469 627.18787 -47.500244
16.116598 627.18787 -47.500244
21.488937 627.18787 -47.500244
26.861067 627.18787 -47.500244
32.233196 627.18787 -47.500244
37.605534 627.18787 -47.500244
42.977669 627.18787 -47.500244
47.923943 641.22388 -70.874268
56.567715 695.28784 -160.90674
60.658363 721.28027 -204.19189
65.713142 721.28027 -204.19189
70.178993 733.75659 -224.96851
75.191704 733.75659 -224.96851
80.877686 721.28027 -204.19189
85.932655 721.28027 -204.19189
90.98745 721.28027 -204.19189
95.242905 733.75659 -224.96851
100.2556 733.75659 -224.96851
105.2683 733.75659 -224.96851
110.2812 733.75659 -224.96851
115.29391 733.75659 -224.96851
120.3068 733.75659 -224.96851
125.3195 733.75659 -224.96851
130.3322 733.75659 -224.96851
135.34511 733.75659 -224.96851
140.3578 733.75659 -224.96851
-153.28697 531.50854 100.91284
-147.60965 531.50854 100.91284
-141.93234 531.50854 100.91284
-136.25502 531.50854 100.91284
-131.82784 515.34326 127.72827
-126.09628 515.34326 127.72827
-120.36461 515.34326 127.72827
-114.63293 515.34326 127.72827
-108.90127 515.34326 127.72827
-103.16959 515.34326 127.72827
-97.438042 515.34326 127.72827
-91.706375 515.34326 127.72827
-85.974701 515.34326 127.72827
-80.243034 515.34326 127.72827
-74.51136 515.34326 127.72827
-68.779808 515.34326 127.72827
-63.048141 515.34326 127.72827
-57.316467 515.34326 127.72827
-51.095619 531.50854 100.91284
-45.418304 531.50854 100.91284
-39.7411 531.50854 100.91284
-33.748184 547.15234 74.962646
-27.860468 562.79626 49.012207
-22.084965 577.91858 23.926758
-16.41116 593.04102 -1.1586914
-10.842655 607.64185 -25.378906
-5.4213276 607.64185 -25.378906
0 607.64185 -25.378906
5.4212241 607.64185 -25.378906
10.744469 622.2428 -49.599365
16.116598 622.2428 -49.599365
21.68531 607.64185 -25.378906
27.106535 607.64185 -25.378906
32.52776 607.64185 -25.378906
37.949188 607.64185 -25.378906
42.977669 622.2428 -49.599365
48.350006 622.2428 -49.599365
53.722134 622.2428 -49.599365
61.184364 703.59082 -184.5415
66.282974 703.59082 -184.5415
70.76812 716.62732 -206.16699
75.822906 716.62732 -206.16699
80.877686 716.62732 -206.16699
85.932655 716.62732 -206.16699
90.98745 716.62732 -206.16699
96.042427 716.62732 -206.16699
100.2556 729.14233 -226.92725
105.2683 729.14233 -226.92725
110.2812 729.14233 -226.92725
115.29391 729.14233 -226.92725
120.3068 729.14233 -226.92725
125.3195 729.14233 -226.92725
130.3322 729.14233 -226.92725
135.34511 729.14233 -226.92725
140.3578 729.14233 -226.92725
-153.28697 526.28259 98.69458
-147.60965 526.28259 98.69458
-141.93234 526.28259 98.69458
-136.25502 526.28259 98.69458
-131.82784 510.06714 125.48877
-126.09628 510.06714 125.48877
-120.36461 510.06714 125.48877
-114.63293 510.06714 125.48877
-108.90127 510.06714 125.48877
-103.16959 510.06714 125.48877
-97.438042 510.06714 125.48877
-91.706375 510.06714 125.48877
-85.974701 510.06714 125.48877
-80.243034 510.06714 125.48877
-74.51136 510.06714 125.48877
-68.779808 510.06714 125.48877
-63.048141 510.06714 125.48877
-57.316467 510.06714 125.48877
-51.584797 510.06714 125.48877
-45.85313 510.06714 125.48877
-39.7411 526.28259 98.69458
-34.063782 526.28259 98.69458
-28.123468 541.97485 72.764893
-22.288351 557.66699 46.834961
-16.41116 588.00549 -3.2963867
-10.940842 588.00549 -3.2963867
-5.4213276 602.65149 -27.497314
0 602.65149 -27.497314
5.4212241 602.65149 -27.497314
10.842655 602.65149 -27.497314
16.26388 602.65149 -27.497314
21.68531 602.65149 -27.497314
27.106535 602.65149 -27.497314
32.52776 602.65149 -27.497314
37.949188 602.65149 -27.497314
43.370415 602.65149 -27.497314
48.350006 617.29761 -51.698486
53.722134 617.29761 -51.698486
58.052788 645.5437 -98.372314
61.710361 685.82043 -164.92554
66.282974 698.89734 -186.53369
70.76812 711.97424 -208.14209
75.822906 711.97424 -208.14209
80.877686 711.97424 -208.14209
85.932655 711.97424 -208.14209
90.98745 711.97424 -208.14209
96.042427 711.97424 -208.14209
101.09721 711.97424 -208.14209
105.2683 724.52795 -228.88574
110.2812 724.52795 -228.88574
116.26175 711.97424 -208.14209
121.31673 711.97424 -208.14209
126.37151 711.97424 -208.14209
130.3322 724.52795 -228.88574
134.20894 737.08179 -249.62964
139.17957 737.08179 -249.62964
-153.28697 521.05664 96.476318
-147.60965 521.05664 96.476318
-141.93234 521.05664 96.476318
-136.25502 521.05664 96.476318
-131.82784 504.79126 123.24927
-126.09628 504.79126 123.24927
-120.36461 504.79126 123.24927
-114.63293 504.79126 123.24927
-108.90127 504.79126 123.24927
-103.16959 504.79126 123.24927
-97.438042 504.79126 123.24927
-91.706375 504.79126 123.24927
-85.974701 504.79126 123.24927
-80.243034 504.79126 123.24927
-74.51136 504.79126 123.24927
-68.779808 504.79126 123.24927
-63.048141 504.79126 123.24927
-57.316467 504.79126 123.24927
-51.584797 504.79126 123.24927
-45.85313 504.79126 123.24927
-39.7411 521.05664 96.476318
-34.063782 521.05664 96.476318
-28.386467 521.05664 96.476318
-22.288351 552.53796 44.657715
-16.41116 582.96997 -5.4335938
-10.940842 582.96997 -5.4335938
-5.4704208 582.96997 -5.4335938
0 597.66125 -29.615479
5.4212241 597.66125 -29.615479
10.842655 597.66125 -29.615479
16.26388 597.66125 -29.615479
21.68531 597.66125 -29.615479
27.106535 597.66125 -29.615479
32.52776 597.66125 -29.615479
37.949188 597.66125 -29.615479
43.370415 597.66125 -29.615479
48.350006 612.35254 -53.797607
53.722134 612.35254 -53.797607
58.052788 640.68567 -100.43433
61.710361 681.08679 -166.93481
66.282974 694.2041 -188.52588
70.76812 707.32129 -210.11719
75.822906 707.32129 -210.11719
80.877686 707.32129 -210.11719
85.932655 707.32129 -210.11719
90.98745 707.32129 -210.11719
96.042427 707.32129 -210.11719
101.09721 707.32129 -210.11719
106.15199 707.32129 -210.11719
111.20696 707.32129 -210.11719
116.26175 707.32129 -210.11719
121.31673 707.32129 -210.11719
126.37151 707.32129 -210.11719
130.3322 719.91382 -230.84448
134.20894 732.50635 -251.57178
139.17957 732.50635 -251.57178
-153.28697 515.83057 94.257812
-147.60965 515.83057 94.257812
-141.93234 515.83057 94.257812
-136.25502 515.83057 94.257812
-131.82784 499.51514 121.00952
-126.09628 499.51514 121.00952
-120.36461 499.51514 121.00952
-114.63293 499.51514 121.00952
-108.90127 499.51514 121.00952
-103.16959 499.51514 121.00952
-97.438042 499.51514 121.00952
-91.706375 499.51514 121.00952
-85.974701 499.51514 121.00952
-80.243034 499.51514 121.00952
-74.51136 499.51514 121.00952
-68.779808 499.51514 121.00952
-63.048141 499.51514 121.00952
-57.316467 499.51514 121.00952
-51.584797 499.51514 121.00952
-45.85313 499.51514 121.00952
-40.121571 499.51514 121.00952
-34.389904 499.51514 121.00952
-28.386467 515.83057 94.257812
-22.498753 531.61963 68.369385
-16.563698 562.67151 17.454834
-10.940842 577.93433 -7.5712891
-5.4704208 577.93433 -7.5712891
0 577.93433 -7.5712891
5.4212241 592.6709 -31.733887
10.842655 592.6709 -31.733887
16.26388 592.6709 -31.733887
21.68531 592.6709 -31.733887
27.106535 592.6709 -31.733887
32.52776 592.6709 -31.733887
37.949188 592.6709 -31.733887
43.370415 592.6709 -31.733887
48.791843 592.6709 -31.733887
53.722134 607.40735 -55.896729
58.573528 621.61755 -79.196777
61.710361 676.35303 -168.94409
66.282974 689.51062 -190.51831
70.76812 702.66821 -212.09229
75.822906 702.66821 -212.09229
80.877686 702.66821 -212.09229
85.932655 702.66821 -212.09229
90.98745 702.66821 -212.09229
96.042427 702.66821 -212.09229
101.09721 702.66821 -212.09229
106.15199 702.66821 -212.09229
111.20696 702.66821 -212.09229
116.26175 702.66821 -212.09229
121.31673 702.66821 -212.09229
126.37151 702.66821 -212.09229
131.42628 702.66821 -212.09229
136.48126 702.66821 -212.09229
141.53606 702.66821 -212.09229
-153.28697 510.60474 92.039551
-147.60965 510.60474 92.039551
-141.93234 510.60474 92.039551
-136.25502 510.60474 92.039551
-131.82784 494.23926 118.77002
-126.09628 494.23926 118.77002
-120.36461 494.23926 118.77002
-114.63293 494.23926 118.77002
-108.90127 494.23926 118.77002
-103.16959 494.23926 118.77002
-97.438042 494.23926 118.77002
-91.706375 494.23926 118.77002
-85.974701 494.23926 118.77002
-80.243034 494.23926 118.77002
-74.51136 494.23926 118.77002
-68.779808 494.23926 118.77002
-63.048141 494.23926 118.77002
-57.316467 494.23926 118.77002
-51.584797 494.23926 118.77002
-45.85313 494.23926 118.77002
-40.121571 494.23926 118.77002
-34.389904 494.23926 118.77002
-28.658234 494.23926 118.77002
-22.709152 510.60474 92.039551
-16.563698 557.58923 15.297363
-10.940842 572.89893 -9.7084961
-5.4704208 572.89893 -9.7084961
0 572.89893 -9.7084961
5.4212241 587.68054 -33.852051
10.842655 587.68054 -33.852051
16.26388 587.68054 -33.852051
21.68531 587.68054 -33.852051
27.106535 587.68054 -33.852051
32.52776 587.68054 -33.852051
37.949188 587.68054 -33.852051
43.370415 587.68054 -33.852051
48.791843 587.68054 -33.852051
54.21307 587.68054 -33.852051
58.573528 616.71606 -81.2771
61.710361 671.61938 -170.95361
66.282974 684.81738 -192.5105
70.76812 698.01526 -214.06738
75.822906 698.01526 -214.06738
80.877686 698.01526 -214.06738
86.677826 684.81738 -192.5105
91.776451 684.81738 -192.5105
96.042427 698.01526 -214.06738
101.09721 698.01526 -214.06738
106.15199 698.01526 -214.06738
111.20696 698.01526 -214.06738
116.26175 698.01526 -214.06738
122.36873 684.81738 -192.5105
127.46734 684.81738 -192.5105
132.56595 684.81738 -192.5105
137.66476 684.81738 -192.5105
-160.48607 488.96313 116.53052
-153.28697 505.37866 89.821289
-147.60965 505.37866 89.821289
-141.93234 505.37866 89.821289
-137.55949 488.96313 116.53052
-131.82784 488.96313 116.53052
-126.09628 488.96313 116.53052
-120.36461 488.96313 116.53052
-114.63293 488.96313 116.53052
-108.90127 488.96313 116.53052
-103.16959 488.96313 116.53052
-97.438042 488.96313 116.53052
-91.706375 488.96313 116.53052
-85.974701 488.96313 116.53052
-80.243034 488.96313 116.53052
-74.51136 488.96313 116.53052
-68.779808 488.96313 116.53052
-63.048141 488.96313 116.53052
-57.316467 488.96313 116.53052
-51.584797 488.96313 116.53052
-45.85313 488.96313 116.53052
-40.121571 488.96313 116.53052
-34.389904 488.96313 116.53052
-28.658234 488.96313 116.53052
-22.926565 488.96313 116.53052
-16.563698 552.50684 13.140137
-10.940842 567.8634 -11.846191
-5.4704208 567.8634 -11.846191
0 567.8634 -11.846191
5.4703169 567.8634 -11.846191
10.940842 567.8634 -11.846191
16.26388 582.69019 -35.970215
21.68531 582.69019 -35.970215
27.106535 582.69019 -35.970215
32.52776 582.69019 -35.970215
37.949188 582.69019 -35.970215
43.370415 582.69019 -35.970215
48.791843 582.69019 -35.970215
54.21307 582.69019 -35.970215
58.573528 611.81445 -83.35791
61.184364 680.1239 -194.50269
66.282974 680.1239 -194.50269
71.381783 680.1239 -194.50269
75.822906 693.36218 -216.04248
80.877686 693.36218 -216.04248
86.677826 680.1239 -194.50269
91.776451 680.1239 -194.50269
96.875259 680.1239 -194.50269
101.97387 680.1239 -194.50269
107.07249 680.1239 -194.50269
112.1713 680.1239 -194.50269
117.26991 680.1239 -194.50269
122.36873 680.1239 -194.50269
138.03117 552.50684 13.140137
144.87434 537.15051 38.126221
151.86678 521.26465 63.973877
157.49138 521.26465 63.973877
-160.48607 483.68726 114.29102
-154.75452 483.68726 114.29102
-149.02284 483.68726 114.29102
-143.29117 483.68726 114.29102
-137.55949 483.68726 114.29102
-131.82784 483.68726 114.29102
-126.09628 483.68726 114.29102
-120.36461 483.68726 114.29102
-114.63293 483.68726 114.29102
-108.90127 483.68726 114.29102
-103.16959 483.68726 114.29102
-97.438042 483.68726 114.29102
-91.706375 483.68726 114.29102
-85.974701 483.68726 114.29102
-80.243034 483.68726 114.29102
-74.51136 483.68726 114.29102
-68.779808 483.68726 114.29102
-63.048141 483.68726 114.29102
-57.316467 483.68726 114.29102
-51.584797 483.68726 114.29102
-45.85313 483.68726 114.29102
-40.502045 467.22168 140.979
-34.716022 467.22168 140.979
-28.93 467.22168 140.979
-22.926565 483.68726 114.29102
-16.563698 547.42456 10.98291
-11.042537 547.42456 10.98291
-5.4704208 562.82788 -13.983398
0 562.82788 -13.983398
5.4703169 562.82788 -13.983398
10.940842 562.82788 -13.983398
16.26388 577.69995 -38.088623
21.68531 577.69995 -38.088623
27.106535 577.69995 -38.088623
32.52776 577.69995 -38.088623
38.292843 562.82788 -13.983398
43.763157 562.82788 -13.983398
48.791843 577.69995 -38.088623
54.21307 577.69995 -38.088623
59.634293 577.69995 -38.088623
61.184364 675.43054 -196.49487
66.282974 675.43054 -196.49487
71.381783 675.43054 -196.49487
75.822906 688.70923 -218.01758
80.877686 688.70923 -218.01758
86.677826 675.43054 -196.49487
91.776451 675.43054 -196.49487
96.875259 675.43054 -196.49487
101.97387 675.43054 -196.49487
107.07249 675.43054 -196.49487
112.1713 675.43054 -196.49487
117.26991 675.43054 -196.49487
123.42072 662.15186 -174.97217
138.03117 547.42456 10.98291
144.87434 532.02148 35.948975
151.86678 516.08716 61.776123
157.49138 516.08716 61.776123
-162.00795 461.89563 138.71826
-154.75452 478.41113 112.05151
-149.02284 478.41113 112.05151
-143.29117 478.41113 112.05151
-137.55949 478.41113 112.05151
-131.82784 478.41113 112.05151
-126.09628 478.41113 112.05151
-120.36461 478.41113 112.05151
-114.63293 478.41113 112.05151
-108.90127 478.41113 112.05151
-103.16959 478.41113 112.05151
-97.438042 478.41113 112.05151
-91.706375 478.41113 112.05151
-85.974701 478.41113 112.05151
-80.243034 478.41113 112.05151
-74.51136 478.41113 112.05151
-68.779808 478.41113 112.05151
-63.048141 478.41113 112.05151
-57.316467 478.41113 112.05151
-51.584797 478.41113 112.05151
-45.85313 478.41113 112.05151
-40.502045 461.89563 138.71826
-34.716022 461.89563 138.71826
-28.93 461.89563 138.71826
-23.14398 461.89563 138.71826
-16.874039 510.90942 59.578369
-5.4704208 557.79236 -16.121094
0 557.79236 -16.121094
5.4703169 557.79236 -16.121094
10.940842 557.79236 -16.121094
16.26388 572.70947 -40.206787
21.68531 572.70947 -40.206787
27.106535 572.70947 -40.206787
32.52776 572.70947 -40.206787
38.292843 557.79236 -16.121094
43.763157 557.79236 -16.121094
48.791843 572.70947 -40.206787
53.248734 602.01123 -87.519043
58.573528 602.01123 -87.519043
61.710361 657.41821 -176.98145
66.282974 670.73718 -198.48706
71.381783 670.73718 -198.48706
75.822906 684.05615 -219.99268
80.877686 684.05615 -219.99268
86.677826 670.73718 -198.48706
91.776451 670.73718 -198.48706
96.875259 670.73718 -198.48706
101.97387 670.73718 -198.48706
107.07249 670.73718 -198.48706
112.1713 670.73718 -198.48706
117.26991 670.73718 -198.48706
131.28969 557.79236 -16.121094
138.03117 542.34229 8.8254395
144.87434 526.89221 33.771729
151.86678 510.90942 59.578369
157.49138 510.90942 59.578369
163.1162 510.90942 59.578369
168.7408 510.90942 59.578369
174.36542 510.90942 59.578369
-162.00795 456.5697 136.45752
-154.75452 473.13525 109.81201
-149.02284 473.13525 109.81201
-143.29117 473.13525 109.81201
-137.55949 473.13525 109.81201
-131.82784 473.13525 109.81201
-126.09628 473.13525 109.81201
-120.36461 473.13525 109.81201
-114.63293 473.13525 109.81201
-108.90127 473.13525 109.81201
-103.16959 473.13525 109.81201
-97.438042 473.13525 109.81201
-91.706375 473.13525 109.81201
-85.974701 473.13525 109.81201
-80.243034 473.13525 109.81201
-74.51136 473.13525 109.81201
-68.779808 473.13525 109.81201
-63.048141 473.13525 109.81201
-57.316467 473.13525 109.81201
-51.584797 473.13525 109.81201
-45.85313 473.13525 109.81201
-40.502045 456.5697 136.45752
-34.716022 456.5697 136.45752
-28.93 456.5697 136.45752
-23.14398 456.5697 136.45752
-5.4704208 552.75684 -18.258301
0 552.75684 -18.258301
5.4703169 552.75684 -18.258301
10.940842 552.75684 -18.258301
16.41116 552.75684 -18.258301
21.881683 552.75684 -18.258301
27.106535 567.71924 -42.325195
32.52776 567.71924 -42.325195
38.292843 552.75684 -18.258301
43.763157 552.75684 -18.258301
48.791843 567.71924 -42.325195
53.248734 597.10974 -89.599609
58.573528 597.10974 -89.599609
61.710361 652.68457 -178.99097
66.282974 666.04382 -200.47925
71.381783 666.04382 -200.47925
75.822906 679.4032 -221.96777
80.877686 679.4032 -221.96777
86.677826 666.04382 -200.47925
91.776451 666.04382 -200.47925
96.875259 666.04382 -200.47925
101.97387 666.04382 -200.47925
107.07249 666.04382 -200.47925
113.13563 652.68457 -178.99097
118.27808 652.68457 -178.99097
131.28969 552.75684 -18.258301
138.03117 537.25989 6.6682129
144.87434 521.76318 31.594482
151.86678 505.73193 57.380615
157.49138 505.73193 57.380615
163.1162 505.73193 57.380615
168.7408 505.73193 57.380615
174.36542 505.73193 57.380615
-156.22206 451.24365 134.19678
-150.43602 451.24365 134.19678
-143.29117 467.85913 107.57251
-137.55949 467.85913 107.57251
-131.82784 467.85913 107.57251
-126.09628 467.85913 107.57251
-120.36461 467.85913 107.57251
-114.63293 467.85913 107.57251
-108.90127 467.85913 107.57251
-103.16959 467.85913 107.57251
-97.438042 467.85913 107.57251
-91.706375 467.85913 107.57251
-85.974701 467.85913 107.57251
-80.243034 467.85913 107.57251
-74.51136 467.85913 107.57251
-68.779808 467.85913 107.57251
-63.048141 467.85913 107.57251
-57.316467 467.85913 107.57251
-51.584797 467.85913 107.57251
-45.85313 467.85913 107.57251
-40.121571 467.85913 107.57251
-34.389904 467.85913 107.57251
-28.93 451.24365 134.19678
-23.14398 451.24365 134.19678
-17.357956 451.24365 134.19678
-11.042537 532.17749 4.5107422
-5.5212684 532.17749 4.5107422
0 547.72119 -20.395996
5.4703169 547.72119 -20.395996
10.940842 547.72119 -20.395996
16.41116 547.72119 -20.395996
21.881683 547.72119 -20.395996
27.352001 547.72119 -20.395996
32.822319 547.72119 -20.395996
38.292843 547.72119 -20.395996
43.370415 562.72888 -44.443359
48.791843 562.72888 -44.443359
53.248734 592.20813 -91.680176
58.573528 592.20813 -91.680176
66.282974 661.35046 -202.47144
71.381783 661.35046 -202.47144
75.822906 674.75012 -223.94287
80.877686 674.75012 -223.94287
86.677826 661.35046 -202.47144
91.776451 661.35046 -202.47144
96.875259 661.35046 -202.47144
101.97387 661.35046 -202.47144
107.07249 661.35046 -202.47144
113.13563 647.95068 -181.00024
125.81916 547.72119 -20.395996
132.51001 532.17749 4.5107422
