ply
format ascii 1.0
comment PCL generated
element vertex 1565
property float x
property float y
property float z
element camera 0
property float view_px
property float view_py
property float view_pz
property float x_axisx
property float x_axisy
property float x_axisz
property float y_axisx
property float y_axisy
property float y_axisz
property float z_axisx
property float z_axisy
property float z_axisz
property float focal
property float scalex
property float scaley
property float centerx
property float centery
property int viewportx
property int viewporty
property float k1
property float k2
end_header
-32.527863 1216.4634 233.05029
-27.106535 1216.4634 233.05029
-21.881578 1207.3757 259.61084
-16.41116 1207.3757 259.61084
-10.940842 1207.3757 259.61084
-5.0987129 1276.1821 58.509033
0 1284.2961 34.794189
5.0127034 1292.0854 12.028076
10.025599 1292.0854 12.028076
15.038302 1292.0854 12.028076
20.051197 1292.0854 12.028076
25.0639 1292.0854 12.028076
30.076605 1292.0854 12.028076
35.089497 1292.0854 12.028076
40.102203 1292.0854 12.028076
45.115097 1292.0854 12.028076
50.1278 1292.0854 12.028076
55.140507 1292.0854 12.028076
60.1534 1292.0854 12.028076
65.1661 1292.0854 12.028076
69.589882 1299.875 -10.738037
74.560501 1299.875 -10.738037
79.531128 1299.875 -10.738037
84.501938 1299.875 -10.738037
89.472572 1299.875 -10.738037
94.443382 1299.875 -10.738037
99.414001 1299.875 -10.738037
104.38463 1299.875 -10.738037
109.35544 1299.875 -10.738037
114.32607 1299.875 -10.738037
119.29688 1299.875 -10.738037
124.2675 1299.875 -10.738037
129.23813 1299.875 -10.738037
134.20894 1299.875 -10.738037
139.17957 1299.875 -10.738037
144.15038 1299.875 -10.738037
149.121 1299.875 -10.738037
154.09164 1299.875 -10.738037
159.06244 1299.875 -10.738037
164.03307 1299.875 -10.738037
170.4346 1292.0854 12.028076
176.9201 1284.2961 34.794189
181.9749 1284.2961 34.794189
188.6517 1276.1821 58.509033
193.75031 1276.1821 58.509033
198.84912 1276.1821 58.509033
202.19441 1284.2961 34.794189
207.24919 1284.2961 34.794189
210.5368 1292.0854 12.028076
213.74007 1299.875 -10.738037
218.71088 1299.875 -10.738037
223.6815 1299.875 -10.738037
226.7971 1307.3398 -32.555908
231.7276 1307.3398 -32.555908
236.65788 1307.3398 -32.555908
241.58838 1307.3398 -32.555908
246.51868 1307.3398 -32.555908
251.44896 1307.3398 -32.555908
256.37946 1307.3398 -32.555908
261.30975 1307.3398 -32.555908
266.24026 1307.3398 -32.555908
271.17053 1307.3398 -32.555908
276.10083 1307.3398 -32.555908
281.03134 1307.3398 -32.555908
285.96161 1307.3398 -32.555908
290.89212 1307.3398 -32.555908
295.82242 1307.3398 -32.555908
300.75272 1307.3398 -32.555908
305.6832 1307.3398 -32.555908
310.61349 1307.3398 -32.555908
315.54398 1307.3398 -32.555908
323.09552 1299.875 -10.738037
328.06613 1299.875 -10.738037
333.03696 1299.875 -10.738037
338.00757 1299.875 -10.738037
342.97839 1299.875 -10.738037
347.94901 1299.875 -10.738037
352.91965 1299.875 -10.738037
360.92023 1292.0854 12.028076
365.93289 1292.0854 12.028076
374.05975 1284.2961 34.794189
-206.33931 1153.7404 398.71167
-198.70528 1163.8517 369.32666
-193.02797 1163.8517 369.32666
-187.35065 1163.8517 369.32666
-181.67343 1163.8517 369.32666
-174.36551 1173.6368 340.8894
-168.7408 1173.6368 340.8894
-163.1161 1173.6368 340.8894
-157.49138 1173.6368 340.8894
-151.86678 1173.6368 340.8894
-146.24205 1173.6368 340.8894
-140.61734 1173.6368 340.8894
-134.99263 1173.6368 340.8894
-128.15811 1183.4221 312.45215
-122.58611 1183.4221 312.45215
-115.94621 1192.8811 284.96289
-108.42614 1211.4729 230.93213
-101.17258 1229.4125 178.79688
-95.847679 1229.4125 178.79688
-90.522888 1229.4125 178.79688
-84.440552 1238.2191 153.20361
-79.163002 1238.2191 153.20361
-73.885452 1238.2191 153.20361
-68.607895 1238.2191 153.20361
-63.330441 1238.2191 153.20361
-58.573627 1229.4125 178.79688
-53.722134 1220.6057 204.39062
-48.349903 1220.6057 204.39062
-42.977669 1220.6057 204.39062
-37.949188 1211.4729 230.93213
-32.527863 1211.4729 230.93213
-27.106535 1211.4729 230.93213
-21.685207 1211.4729 230.93213
-16.41116 1202.3401 257.47339
-5.1425467 1263.3345 80.2146
0 1279.6432 32.819092
5.0547829 1279.6432 32.819092
10.109758 1279.6432 32.819092
15.164542 1279.6432 32.819092
20.219517 1279.6432 32.819092
25.0639 1287.4712 10.069336
30.076605 1287.4712 10.069336
35.089497 1287.4712 10.069336
40.102203 1287.4712 10.069336
45.115097 1287.4712 10.069336
50.1278 1287.4712 10.069336
54.677624 1295.2993 -12.68042
59.648441 1295.2993 -12.68042
64.619064 1295.2993 -12.68042
69.589882 1295.2993 -12.68042
74.560501 1295.2993 -12.68042
79.531128 1295.2993 -12.68042
84.501938 1295.2993 -12.68042
89.472572 1295.2993 -12.68042
94.443382 1295.2993 -12.68042
99.414001 1295.2993 -12.68042
104.38463 1295.2993 -12.68042
109.35544 1295.2993 -12.68042
114.32607 1295.2993 -12.68042
119.29688 1295.2993 -12.68042
124.2675 1295.2993 -12.68042
129.23813 1295.2993 -12.68042
134.20894 1295.2993 -12.68042
139.17957 1295.2993 -12.68042
144.15038 1295.2993 -12.68042
149.121 1295.2993 -12.68042
154.09164 1295.2993 -12.68042
160.409 1287.4712 10.069336
165.42172 1287.4712 10.069336
171.86531 1279.6432 32.819092
176.9201 1279.6432 32.819092
181.9749 1279.6432 32.819092
187.02988 1279.6432 32.819092
193.75031 1271.4888 56.516846
198.84912 1271.4888 56.516846
202.19441 1279.6432 32.819092
207.24919 1279.6432 32.819092
210.5368 1287.4712 10.069336
215.54951 1287.4712 10.069336
218.71088 1295.2993 -12.68042
223.6815 1295.2993 -12.68042
226.7971 1302.8014 -34.482178
231.7276 1302.8014 -34.482178
236.65788 1302.8014 -34.482178
241.58838 1302.8014 -34.482178
246.51868 1302.8014 -34.482178
251.44896 1302.8014 -34.482178
256.37946 1302.8014 -34.482178
261.30975 1302.8014 -34.482178
266.24026 1302.8014 -34.482178
271.17053 1302.8014 -34.482178
276.10083 1302.8014 -34.482178
281.03134 1302.8014 -34.482178
285.96161 1302.8014 -34.482178
290.89212 1302.8014 -34.482178
295.82242 1302.8014 -34.482178
300.75272 1302.8014 -34.482178
305.6832 1302.8014 -34.482178
310.61349 1302.8014 -34.482178
315.54398 1302.8014 -34.482178
323.09552 1295.2993 -12.68042
328.06613 1295.2993 -12.68042
333.03696 1295.2993 -12.68042
338.00757 1295.2993 -12.68042
342.97839 1295.2993 -12.68042
347.94901 1295.2993 -12.68042
352.91965 1295.2993 -12.68042
360.92023 1287.4712 10.069336
369.00476 1279.6432 32.819092
374.05975 1279.6432 32.819092
379.1145 1279.6432 32.819092
-204.38258 1158.6257 367.10815
-198.70528 1158.6257 367.10815
-193.02797 1158.6257 367.10815
-187.35065 1158.6257 367.10815
-181.67343 1158.6257 367.10815
-175.99611 1158.6257 367.10815
-170.3188 1158.6257 367.10815
-163.1161 1168.4594 338.69165
-157.49138 1168.4594 338.69165
-151.86678 1168.4594 338.69165
-146.24205 1168.4594 338.69165
-140.61734 1168.4594 338.69165
-134.99263 1168.4594 338.69165
-128.15811 1178.293 310.2749
-122.58611 1178.293 310.2749
-115.94621 1187.7987 282.80542
-108.42614 1206.4827 228.81372
-101.17258 1224.511 176.71631
-94.99556 1233.3611 151.1416
-89.718109 1233.3611 151.1416
-84.440552 1233.3611 151.1416
-79.163002 1233.3611 151.1416
-73.885452 1233.3611 151.1416
-68.607895 1233.3611 151.1416
-63.330441 1233.3611 151.1416
-58.573627 1224.511 176.71631
-53.722134 1215.6606 202.2915
-48.349903 1215.6606 202.2915
-43.370415 1206.4827 228.81372
-37.949188 1206.4827 228.81372
-32.527863 1206.4827 228.81372
-27.106535 1206.4827 228.81372
-21.685207 1206.4827 228.81372
-16.41116 1197.3047 255.33594
-5.1425467 1258.6007 78.205322
0 1274.9902 30.843994
5.0547829 1274.9902 30.843994
10.109758 1274.9902 30.843994
15.164542 1274.9902 30.843994
20.219517 1274.9902 30.843994
25.274302 1274.9902 30.843994
30.076605 1282.8569 8.1108398
35.089497 1282.8569 8.1108398
40.102203 1282.8569 8.1108398
45.115097 1282.8569 8.1108398
50.1278 1282.8569 8.1108398
54.677624 1290.7239 -14.622559
59.648441 1290.7239 -14.622559
64.619064 1290.7239 -14.622559
69.589882 1290.7239 -14.622559
74.560501 1290.7239 -14.622559
79.531128 1290.7239 -14.622559
84.501938 1290.7239 -14.622559
89.472572 1290.7239 -14.622559
94.443382 1290.7239 -14.622559
99.414001 1290.7239 -14.622559
104.38463 1290.7239 -14.622559
109.35544 1290.7239 -14.622559
114.32607 1290.7239 -14.622559
119.29688 1290.7239 -14.622559
124.2675 1290.7239 -14.622559
129.23813 1290.7239 -14.622559
134.20894 1290.7239 -14.622559
139.17957 1290.7239 -14.622559
144.15038 1290.7239 -14.622559
149.121 1290.7239 -14.622559
155.3961 1282.8569 8.1108398
160.409 1282.8569 8.1108398
165.42172 1282.8569 8.1108398
171.86531 1274.9902 30.843994
176.9201 1274.9902 30.843994
181.9749 1274.9902 30.843994
187.02988 1274.9902 30.843994
193.75031 1266.7954 54.524658
198.84912 1266.7954 54.524658
203.94774 1266.7954 54.524658
209.04636 1266.7954 54.524658
212.30417 1274.9902 30.843994
215.54951 1282.8569 8.1108398
220.56241 1282.8569 8.1108398
223.6815 1290.7239 -14.622559
228.65215 1290.7239 -14.622559
231.7276 1298.2629 -36.408691
236.65788 1298.2629 -36.408691
241.58838 1298.2629 -36.408691
246.51868 1298.2629 -36.408691
251.44896 1298.2629 -36.408691
256.37946 1298.2629 -36.408691
261.30975 1298.2629 -36.408691
266.24026 1298.2629 -36.408691
271.17053 1298.2629 -36.408691
276.10083 1298.2629 -36.408691
281.03134 1298.2629 -36.408691
285.96161 1298.2629 -36.408691
290.89212 1298.2629 -36.408691
295.82242 1298.2629 -36.408691
300.75272 1298.2629 -36.408691
308.18344 1290.7239 -14.622559
313.15408 1290.7239 -14.622559
318.12488 1290.7239 -14.622559
323.09552 1290.7239 -14.622559
328.06613 1290.7239 -14.622559
333.03696 1290.7239 -14.622559
338.00757 1290.7239 -14.622559
342.97839 1290.7239 -14.622559
347.94901 1290.7239 -14.622559
355.90732 1282.8569 8.1108398
360.92023 1282.8569 8.1108398
369.00476 1274.9902 30.843994
374.05975 1274.9902 30.843994
382.40201 1266.7954 54.524658
387.50061 1266.7954 54.524658
-212.07098 1143.1884 394.23267
-204.38258 1153.3998 364.88989
-198.70528 1153.3998 364.88989
-193.02797 1153.3998 364.88989
-187.35065 1153.3998 364.88989
-181.67343 1153.3998 364.88989
-175.99611 1153.3998 364.88989
-170.3188 1153.3998 364.88989
-163.1161 1163.2817 336.4939
-157.49138 1163.2817 336.4939
-151.86678 1163.2817 336.4939
-146.24205 1163.2817 336.4939
-140.61734 1163.2817 336.4939
-134.99263 1163.2817 336.4939
-128.15811 1173.1638 308.09766
-122.58611 1173.1638 308.09766
-115.94621 1182.7164 280.64819
-108.42614 1201.4923 226.69556
-101.17258 1219.6094 174.63574
-94.99556 1228.5032 149.07935
-89.718109 1228.5032 149.07935
-85.197998 1219.6094 174.63574
-79.8731 1219.6094 174.63574
-74.54821 1219.6094 174.63574
-69.223312 1219.6094 174.63574
-63.898525 1219.6094 174.63574
-59.094368 1210.7155 200.19238
-53.722134 1210.7155 200.19238
-48.349903 1210.7155 200.19238
-43.370415 1201.4923 226.69556
-37.949188 1201.4923 226.69556
-32.527863 1201.4923 226.69556
-27.106535 1201.4923 226.69556
-21.685207 1201.4923 226.69556
-16.41116 1192.2692 253.19849
-10.285093 1253.8669 76.196045
-5.0987129 1262.1021 52.532471
0 1270.3372 28.868896
5.0547829 1270.3372 28.868896
10.109758 1270.3372 28.868896
15.164542 1270.3372 28.868896
20.219517 1270.3372 28.868896
25.274302 1270.3372 28.868896
30.076605 1278.2427 6.1520996
35.089497 1278.2427 6.1520996
40.102203 1278.2427 6.1520996
45.115097 1278.2427 6.1520996
50.1278 1278.2427 6.1520996
54.677624 1286.1483 -16.564697
59.648441 1286.1483 -16.564697
64.619064 1286.1483 -16.564697
69.589882 1286.1483 -16.564697
74.560501 1286.1483 -16.564697
79.531128 1286.1483 -16.564697
84.501938 1286.1483 -16.564697
89.472572 1286.1483 -16.564697
94.443382 1286.1483 -16.564697
99.414001 1286.1483 -16.564697
104.38463 1286.1483 -16.564697
109.35544 1286.1483 -16.564697
114.32607 1286.1483 -16.564697
119.29688 1286.1483 -16.564697
124.2675 1286.1483 -16.564697
129.23813 1286.1483 -16.564697
135.34511 1278.2427 6.1520996
139.17957 1286.1483 -16.564697
144.15038 1286.1483 -16.564697
149.121 1286.1483 -16.564697
155.3961 1278.2427 6.1520996
160.409 1278.2427 6.1520996
165.42172 1278.2427 6.1520996
171.86531 1270.3372 28.868896
176.9201 1270.3372 28.868896
181.9749 1270.3372 28.868896
187.02988 1270.3372 28.868896
193.75031 1262.1021 52.532471
198.84912 1262.1021 52.532471
203.94774 1262.1021 52.532471
209.04636 1262.1021 52.532471
212.30417 1270.3372 28.868896
217.35895 1270.3372 28.868896
222.41393 1270.3372 28.868896
223.6815 1286.1483 -16.564697
228.65215 1286.1483 -16.564697
231.7276 1293.7245 -38.335205
236.65788 1293.7245 -38.335205
241.58838 1293.7245 -38.335205
246.51868 1293.7245 -38.335205
251.44896 1293.7245 -38.335205
256.37946 1293.7245 -38.335205
261.30975 1293.7245 -38.335205
266.24026 1293.7245 -38.335205
271.17053 1293.7245 -38.335205
276.10083 1293.7245 -38.335205
281.03134 1293.7245 -38.335205
285.96161 1293.7245 -38.335205
290.89212 1293.7245 -38.335205
295.82242 1293.7245 -38.335205
300.75272 1293.7245 -38.335205
308.18344 1286.1483 -16.564697
313.15408 1286.1483 -16.564697
318.12488 1286.1483 -16.564697
323.09552 1286.1483 -16.564697
328.06613 1286.1483 -16.564697
333.03696 1286.1483 -16.564697
338.00757 1286.1483 -16.564697
342.97839 1286.1483 -16.564697
347.94901 1286.1483 -16.564697
355.90732 1278.2427 6.1520996
360.92023 1278.2427 6.1520996
369.00476 1270.3372 28.868896
374.05975 1270.3372 28.868896
382.40201 1262.1021 52.532471
387.50061 1262.1021 52.532471
-215.73711 1148.1737 362.67163
-210.05991 1148.1737 362.67163
-204.38258 1148.1737 362.67163
-198.70528 1148.1737 362.67163
-193.02797 1148.1737 362.67163
-187.35065 1148.1737 362.67163
-181.67343 1148.1737 362.67163
-175.99611 1148.1737 362.67163
-170.3188 1148.1737 362.67163
-163.1161 1158.1041 334.29614
-157.49138 1158.1041 334.29614
-151.86678 1158.1041 334.29614
-146.24205 1158.1041 334.29614
-140.61734 1158.1041 334.29614
-134.99263 1158.1041 334.29614
-128.15811 1168.0345 305.92041
-122.58611 1168.0345 305.92041
-115.94621 1177.634 278.49097
-108.42614 1196.502 224.57715
-102.07204 1205.7703 198.09326
-94.99556 1223.645 147.01733
-89.718109 1223.645 147.01733
-85.197998 1214.7078 172.55518
-79.8731 1214.7078 172.55518
-74.54821 1214.7078 172.55518
-69.223312 1214.7078 172.55518
-63.898525 1214.7078 172.55518
-59.094368 1205.7703 198.09326
-53.722134 1205.7703 198.09326
-48.349903 1205.7703 198.09326
-43.370415 1196.502 224.57715
-37.949188 1196.502 224.57715
-32.527863 1196.502 224.57715
-27.106535 1196.502 224.57715
-21.685207 1196.502 224.57715
-16.41116 1187.2335 251.06104
-10.285093 1249.1333 74.186523
-5.0987129 1257.4087 50.540283
0 1265.6841 26.893799
5.0547829 1265.6841 26.893799
10.109758 1265.6841 26.893799
15.164542 1265.6841 26.893799
20.219517 1265.6841 26.893799
25.274302 1265.6841 26.893799
30.076605 1273.6283 4.1933594
35.089497 1273.6283 4.1933594
40.102203 1273.6283 4.1933594
45.115097 1273.6283 4.1933594
50.1278 1273.6283 4.1933594
54.677624 1281.5726 -18.50708
59.648441 1281.5726 -18.50708
64.619064 1281.5726 -18.50708
69.589882 1281.5726 -18.50708
74.560501 1281.5726 -18.50708
79.531128 1281.5726 -18.50708
84.501938 1281.5726 -18.50708
89.472572 1281.5726 -18.50708
94.443382 1281.5726 -18.50708
99.414001 1281.5726 -18.50708
104.38463 1281.5726 -18.50708
109.35544 1281.5726 -18.50708
114.32607 1281.5726 -18.50708
119.29688 1281.5726 -18.50708
124.2675 1281.5726 -18.50708
129.23813 1281.5726 -18.50708
134.20894 1281.5726 -18.50708
139.17957 1281.5726 -18.50708
144.15038 1281.5726 -18.50708
150.38341 1273.6283 4.1933594
155.3961 1273.6283 4.1933594
160.409 1273.6283 4.1933594
166.81035 1265.6841 26.893799
171.86531 1265.6841 26.893799
176.9201 1265.6841 26.893799
181.9749 1265.6841 26.893799
188.6517 1257.4087 50.540283
193.75031 1257.4087 50.540283
198.84912 1257.4087 50.540283
203.94774 1257.4087 50.540283
209.04636 1257.4087 50.540283
214.14517 1257.4087 50.540283
217.35895 1265.6841 26.893799
222.41393 1265.6841 26.893799
225.5751 1273.6283 4.1933594
228.65215 1281.5726 -18.50708
233.62294 1281.5726 -18.50708
238.59357 1281.5726 -18.50708
241.58838 1289.186 -40.261719
246.51868 1289.186 -40.261719
251.44896 1289.186 -40.261719
256.37946 1289.186 -40.261719
261.30975 1289.186 -40.261719
266.24026 1289.186 -40.261719
271.17053 1289.186 -40.261719
276.10083 1289.186 -40.261719
281.03134 1289.186 -40.261719
285.96161 1289.186 -40.261719
290.89212 1289.186 -40.261719
295.82242 1289.186 -40.261719
303.21265 1281.5726 -18.50708
308.18344 1281.5726 -18.50708
313.15408 1281.5726 -18.50708
318.12488 1281.5726 -18.50708
323.09552 1281.5726 -18.50708
328.06613 1281.5726 -18.50708
333.03696 1281.5726 -18.50708
338.00757 1281.5726 -18.50708
345.8819 1273.6283 4.1933594
350.89462 1273.6283 4.1933594
355.90732 1273.6283 4.1933594
360.92023 1273.6283 4.1933594
369.00476 1265.6841 26.893799
374.05975 1265.6841 26.893799
382.40201 1257.4087 50.540283
387.50061 1257.4087 50.540283
-227.09174 1142.9478 360.45337
-221.41443 1142.9478 360.45337
-215.73711 1142.9478 360.45337
-210.05991 1142.9478 360.45337
-204.38258 1142.9478 360.45337
-198.70528 1142.9478 360.45337
-193.02797 1142.9478 360.45337
-187.35065 1142.9478 360.45337
-181.67343 1142.9478 360.45337
-175.99611 1142.9478 360.45337
-170.3188 1142.9478 360.45337
-163.1161 1152.9266 332.09839
-157.49138 1152.9266 332.09839
-151.86678 1152.9266 332.09839
-146.24205 1152.9266 332.09839
-140.61734 1152.9266 332.09839
-134.99263 1152.9266 332.09839
-128.15811 1162.9054 303.74341
-121.46747 1172.5516 276.3335
-114.87842 1182.198 248.92358
-108.42614 1191.5116 222.45898
-103.00481 1191.5116 222.45898
-94.99556 1218.7871 144.95508
-89.718109 1218.7871 144.95508
-85.197998 1209.8062 170.47461
-79.8731 1209.8062 170.47461
-74.54821 1209.8062 170.47461
-69.223312 1209.8062 170.47461
-63.898525 1209.8062 170.47461
-59.094368 1200.8252 195.99414
-53.722134 1200.8252 195.99414
-48.349903 1200.8252 195.99414
-43.370415 1191.5116 222.45898
-37.949188 1191.5116 222.45898
-32.527863 1191.5116 222.45898
-27.106535 1191.5116 222.45898
-22.084965 1172.5516 276.3335
-16.563698 1172.5516 276.3335
-10.285093 1244.3995 72.177246
-5.0987129 1252.7153 48.547852
0 1252.7153 48.547852
5.0547829 1261.031 24.918701
10.109758 1261.031 24.918701
15.164542 1261.031 24.918701
20.219517 1261.031 24.918701
25.274302 1261.031 24.918701
30.076605 1269.014 2.2348633
35.089497 1269.014 2.2348633
40.102203 1269.014 2.2348633
45.115097 1269.014 2.2348633
50.1278 1269.014 2.2348633
54.677624 1276.9971 -20.449219
59.648441 1276.9971 -20.449219
64.619064 1276.9971 -20.449219
69.589882 1276.9971 -20.449219
74.560501 1276.9971 -20.449219
79.531128 1276.9971 -20.449219
84.501938 1276.9971 -20.449219
89.472572 1276.9971 -20.449219
94.443382 1276.9971 -20.449219
99.414001 1276.9971 -20.449219
104.38463 1276.9971 -20.449219
109.35544 1276.9971 -20.449219
114.32607 1276.9971 -20.449219
119.29688 1276.9971 -20.449219
124.2675 1276.9971 -20.449219
129.23813 1276.9971 -20.449219
134.20894 1276.9971 -20.449219
139.17957 1276.9971 -20.449219
144.15038 1276.9971 -20.449219
150.38341 1269.014 2.2348633
155.3961 1269.014 2.2348633
160.409 1269.014 2.2348633
166.81035 1261.031 24.918701
171.86531 1261.031 24.918701
176.9201 1261.031 24.918701
181.9749 1261.031 24.918701
188.6517 1252.7153 48.547852
193.75031 1252.7153 48.547852
198.84912 1252.7153 48.547852
203.94774 1252.7153 48.547852
209.04636 1252.7153 48.547852
214.14517 1252.7153 48.547852
219.24377 1252.7153 48.547852
224.34259 1252.7153 48.547852
227.4687 1261.031 24.918701
230.58781 1269.014 2.2348633
233.62294 1276.9971 -20.449219
238.59357 1276.9971 -20.449219
243.56438 1276.9971 -20.449219
246.51868 1284.6476 -42.187988
251.44896 1284.6476 -42.187988
256.37946 1284.6476 -42.187988
261.30975 1284.6476 -42.187988
266.24026 1284.6476 -42.187988
271.17053 1284.6476 -42.187988
276.10083 1284.6476 -42.187988
281.03134 1284.6476 -42.187988
285.96161 1284.6476 -42.187988
290.89212 1284.6476 -42.187988
295.82242 1284.6476 -42.187988
303.21265 1276.9971 -20.449219
308.18344 1276.9971 -20.449219
313.15408 1276.9971 -20.449219
318.12488 1276.9971 -20.449219
323.09552 1276.9971 -20.449219
328.06613 1276.9971 -20.449219
333.03696 1276.9971 -20.449219
338.00757 1276.9971 -20.449219
345.8819 1269.014 2.2348633
350.89462 1269.014 2.2348633
355.90732 1269.014 2.2348633
360.92023 1269.014 2.2348633
369.00476 1261.031 24.918701
377.30341 1252.7153 48.547852
382.40201 1252.7153 48.547852
390.83194 1244.3995 72.177246
-230.61244 1147.749 329.90063
-224.98775 1147.749 329.90063
-219.36304 1147.749 329.90063
-215.73711 1137.7218 358.23511
-210.05991 1137.7218 358.23511
-204.38258 1137.7218 358.23511
-198.70528 1137.7218 358.23511
-193.02797 1137.7218 358.23511
-187.35065 1137.7218 358.23511
-181.67343 1137.7218 358.23511
-175.99611 1137.7218 358.23511
-170.3188 1137.7218 358.23511
-164.64149 1137.7218 358.23511
-158.96417 1137.7218 358.23511
-151.86678 1147.749 329.90063
-146.24205 1147.749 329.90063
-140.61734 1147.749 329.90063
-134.99263 1147.749 329.90063
-128.15811 1157.7764 301.56616
-121.46747 1167.4694 274.17627
-114.87842 1177.1625 246.78613
-108.42614 1186.5212 220.34082
-103.00481 1186.5212 220.34082
-95.847679 1204.9045 168.39404
-90.522888 1204.9045 168.39404
-85.197998 1204.9045 168.39404
-79.8731 1204.9045 168.39404
-74.54821 1204.9045 168.39404
-69.223312 1204.9045 168.39404
-63.898525 1204.9045 168.39404
-59.094368 1195.88 193.89526
-53.722134 1195.88 193.89526
-48.349903 1195.88 193.89526
-43.370415 1186.5212 220.34082
-37.949188 1186.5212 220.34082
-32.527863 1186.5212 220.34082
-27.106535 1186.5212 220.34082
-21.685207 1186.5212 220.34082
-16.41116 1177.1625 246.78613
-10.285093 1239.6658 70.167969
-5.1425467 1239.6658 70.167969
0 1248.022 46.555664
5.0986156 1248.022 46.555664
10.109758 1256.3779 22.943604
15.164542 1256.3779 22.943604
20.219517 1256.3779 22.943604
25.274302 1256.3779 22.943604
30.076605 1264.3997 0.27612305
35.089497 1264.3997 0.27612305
40.102203 1264.3997 0.27612305
45.115097 1264.3997 0.27612305
50.1278 1264.3997 0.27612305
54.677624 1272.4216 -22.391357
59.648441 1272.4216 -22.391357
64.619064 1272.4216 -22.391357
69.589882 1272.4216 -22.391357
74.560501 1272.4216 -22.391357
79.531128 1272.4216 -22.391357
84.501938 1272.4216 -22.391357
89.472572 1272.4216 -22.391357
94.443382 1272.4216 -22.391357
99.414001 1272.4216 -22.391357
104.38463 1272.4216 -22.391357
109.35544 1272.4216 -22.391357
114.32607 1272.4216 -22.391357
119.29688 1272.4216 -22.391357
124.2675 1272.4216 -22.391357
129.23813 1272.4216 -22.391357
134.20894 1272.4216 -22.391357
139.17957 1272.4216 -22.391357
144.15038 1272.4216 -22.391357
150.38341 1264.3997 0.27612305
155.3961 1264.3997 0.27612305
160.409 1264.3997 0.27612305
166.81035 1256.3779 22.943604
171.86531 1256.3779 22.943604
176.9201 1256.3779 22.943604
181.9749 1256.3779 22.943604
188.6517 1248.022 46.555664
193.75031 1248.022 46.555664
198.84912 1248.022 46.555664
203.94774 1248.022 46.555664
209.04636 1248.022 46.555664
214.14517 1248.022 46.555664
219.24377 1248.022 46.555664
224.34259 1248.022 46.555664
229.44121 1248.022 46.555664
230.58781 1264.3997 0.27612305
233.62294 1272.4216 -22.391357
238.59357 1272.4216 -22.391357
243.56438 1272.4216 -22.391357
248.535 1272.4216 -22.391357
251.44896 1280.1091 -44.114502
256.37946 1280.1091 -44.114502
261.30975 1280.1091 -44.114502
266.24026 1280.1091 -44.114502
271.17053 1280.1091 -44.114502
276.10083 1280.1091 -44.114502
281.03134 1280.1091 -44.114502
285.96161 1280.1091 -44.114502
290.89212 1280.1091 -44.114502
298.242 1272.4216 -22.391357
303.21265 1272.4216 -22.391357
308.18344 1272.4216 -22.391357
313.15408 1272.4216 -22.391357
318.12488 1272.4216 -22.391357
323.09552 1272.4216 -22.391357
328.06613 1272.4216 -22.391357
333.03696 1272.4216 -22.391357
338.00757 1272.4216 -22.391357
345.8819 1264.3997 0.27612305
350.89462 1264.3997 0.27612305
355.90732 1264.3997 0.27612305
360.92023 1264.3997 0.27612305
369.00476 1256.3779 22.943604
377.30341 1248.022 46.555664
382.40201 1248.022 46.555664
387.50061 1248.022 46.555664
392.59943 1248.022 46.555664
-249.8009 1132.4958 356.01685
-241.86177 1142.5715 327.70288
-236.23717 1142.5715 327.70288
-230.61244 1142.5715 327.70288
-224.98775 1142.5715 327.70288
-219.36304 1142.5715 327.70288
-215.73711 1132.4958 356.01685
-210.05991 1132.4958 356.01685
-204.38258 1132.4958 356.01685
-198.70528 1132.4958 356.01685
-193.02797 1132.4958 356.01685
-187.35065 1132.4958 356.01685
-181.67343 1132.4958 356.01685
-175.99611 1132.4958 356.01685
-170.3188 1132.4958 356.01685
-164.64149 1132.4958 356.01685
-158.96417 1132.4958 356.01685
-153.28697 1132.4958 356.01685
-146.24205 1142.5715 327.70288
-140.61734 1142.5715 327.70288
-134.99263 1142.5715 327.70288
-128.15811 1152.6472 299.38892
-121.46747 1162.387 272.0188
-114.87842 1172.127 244.64868
-108.42614 1181.5309 218.22241
-103.00481 1181.5309 218.22241
-96.699806 1190.9348 191.79614
-91.327667 1190.9348 191.79614
-85.955437 1190.9348 191.79614
-80.583206 1190.9348 191.79614
-75.210968 1190.9348 191.79614
-69.838737 1190.9348 191.79614
-64.466599 1190.9348 191.79614
-59.094368 1190.9348 191.79614
-53.722134 1190.9348 191.79614
-48.349903 1190.9348 191.79614
-43.370415 1181.5309 218.22241
-37.949188 1181.5309 218.22241
-32.527863 1181.5309 218.22241
-27.106535 1181.5309 218.22241
-21.685207 1181.5309 218.22241
-16.41116 1172.127 244.64868
-10.285093 1234.9321 68.158447
-5.0987129 1243.3286 44.563477
0 1243.3286 44.563477
5.0547829 1251.725 20.968506
10.109758 1251.725 20.968506
15.164542 1251.725 20.968506
20.219517 1251.725 20.968506
25.274302 1251.725 20.968506
30.076605 1259.7854 -1.6826172
35.089497 1259.7854 -1.6826172
40.102203 1259.7854 -1.6826172
45.115097 1259.7854 -1.6826172
50.1278 1259.7854 -1.6826172
55.140507 1259.7854 -1.6826172
60.1534 1259.7854 -1.6826172
64.619064 1267.8459 -24.333496
69.589882 1267.8459 -24.333496
74.560501 1267.8459 -24.333496
79.531128 1267.8459 -24.333496
84.501938 1267.8459 -24.333496
89.472572 1267.8459 -24.333496
94.443382 1267.8459 -24.333496
99.414001 1267.8459 -24.333496
104.38463 1267.8459 -24.333496
109.35544 1267.8459 -24.333496
114.32607 1267.8459 -24.333496
119.29688 1267.8459 -24.333496
124.2675 1267.8459 -24.333496
129.23813 1267.8459 -24.333496
134.20894 1267.8459 -24.333496
139.17957 1267.8459 -24.333496
145.3707 1259.7854 -1.6826172
150.38341 1259.7854 -1.6826172
155.3961 1259.7854 -1.6826172
160.409 1259.7854 -1.6826172
166.81035 1251.725 20.968506
171.86531 1251.725 20.968506
176.9201 1251.725 20.968506
181.9749 1251.725 20.968506
188.6517 1243.3286 44.563477
193.75031 1243.3286 44.563477
198.84912 1243.3286 44.563477
203.94774 1243.3286 44.563477
209.04636 1243.3286 44.563477
214.14517 1243.3286 44.563477
219.24377 1243.3286 44.563477
224.34259 1243.3286 44.563477
229.44121 1243.3286 44.563477
232.5235 1251.725 20.968506
235.60069 1259.7854 -1.6826172
238.59357 1267.8459 -24.333496
243.56438 1267.8459 -24.333496
248.535 1267.8459 -24.333496
253.50565 1267.8459 -24.333496
256.37946 1275.5708 -46.041016
261.30975 1275.5708 -46.041016
266.24026 1275.5708 -46.041016
271.17053 1275.5708 -46.041016
276.10083 1275.5708 -46.041016
281.03134 1275.5708 -46.041016
285.96161 1275.5708 -46.041016
290.89212 1275.5708 -46.041016
298.242 1267.8459 -24.333496
303.21265 1267.8459 -24.333496
308.18344 1267.8459 -24.333496
313.15408 1267.8459 -24.333496
318.12488 1267.8459 -24.333496
323.09552 1267.8459 -24.333496
328.06613 1267.8459 -24.333496
333.03696 1267.8459 -24.333496
338.00757 1267.8459 -24.333496
345.8819 1259.7854 -1.6826172
350.89462 1259.7854 -1.6826172
355.90732 1259.7854 -1.6826172
360.92023 1259.7854 -1.6826172
369.00476 1251.725 20.968506
377.30341 1243.3286 44.563477
382.40201 1243.3286 44.563477
387.50061 1243.3286 44.563477
392.59943 1243.3286 44.563477
397.69806 1243.3286 44.563477
-249.8009 1127.2698 353.79858
-241.86177 1137.3939 325.50513
-236.23717 1137.3939 325.50513
-230.61244 1137.3939 325.50513
-227.09174 1127.2698 353.79858
-221.41443 1127.2698 353.79858
-215.73711 1127.2698 353.79858
-210.05991 1127.2698 353.79858
-204.38258 1127.2698 353.79858
-198.70528 1127.2698 353.79858
-193.02797 1127.2698 353.79858
-187.35065 1127.2698 353.79858
-179.99023 1137.3939 325.50513
-174.36551 1137.3939 325.50513
-168.7408 1137.3939 325.50513
-163.1161 1137.3939 325.50513
-157.49138 1137.3939 325.50513
-153.28697 1127.2698 353.79858
-147.60965 1127.2698 353.79858
-141.93234 1127.2698 353.79858
-136.25502 1127.2698 353.79858
-129.3679 1137.3939 325.50513
-122.58611 1147.5181 297.21167
-114.87842 1167.0914 242.51123
-109.408 1167.0914 242.51123
-103.00481 1176.5405 216.10425
-96.699806 1185.9897 189.69702
-91.327667 1185.9897 189.69702
-85.197998 1195.1014 164.23291
-79.8731 1195.1014 164.23291
-75.210968 1185.9897 189.69702
-69.838737 1185.9897 189.69702
-64.466599 1185.9897 189.69702
-59.094368 1185.9897 189.69702
-53.722134 1185.9897 189.69702
-48.79174 1176.5405 216.10425
-43.370415 1176.5405 216.10425
-37.949188 1176.5405 216.10425
-32.527863 1176.5405 216.10425
-27.352001 1167.0914 242.51123
-21.881578 1167.0914 242.51123
-16.563698 1157.3047 269.86157
-10.197426 1238.6353 42.571289
-5.0987129 1238.6353 42.571289
0 1238.6353 42.571289
5.0547829 1247.072 18.993408
10.109758 1247.072 18.993408
15.164542 1247.072 18.993408
20.219517 1247.072 18.993408
25.274302 1247.072 18.993408
30.076605 1255.1711 -3.6411133
35.089497 1255.1711 -3.6411133
40.102203 1255.1711 -3.6411133
45.115097 1255.1711 -3.6411133
50.1278 1255.1711 -3.6411133
55.140507 1255.1711 -3.6411133
60.1534 1255.1711 -3.6411133
65.1661 1255.1711 -3.6411133
70.178993 1255.1711 -3.6411133
75.191704 1255.1711 -3.6411133
80.204407 1255.1711 -3.6411133
85.2173 1255.1711 -3.6411133
89.472572 1263.2705 -26.275879
94.443382 1263.2705 -26.275879
99.414001 1263.2705 -26.275879
104.38463 1263.2705 -26.275879
109.35544 1263.2705 -26.275879
114.32607 1263.2705 -26.275879
119.29688 1263.2705 -26.275879
124.2675 1263.2705 -26.275879
129.23813 1263.2705 -26.275879
134.20894 1263.2705 -26.275879
140.3578 1255.1711 -3.6411133
145.3707 1255.1711 -3.6411133
150.38341 1255.1711 -3.6411133
155.3961 1255.1711 -3.6411133
160.409 1255.1711 -3.6411133
166.81035 1247.072 18.993408
171.86531 1247.072 18.993408
176.9201 1247.072 18.993408
181.9749 1247.072 18.993408
188.6517 1238.6353 42.571289
193.75031 1238.6353 42.571289
198.84912 1238.6353 42.571289
203.94774 1238.6353 42.571289
209.04636 1238.6353 42.571289
214.14517 1238.6353 42.571289
219.24377 1238.6353 42.571289
224.34259 1238.6353 42.571289
229.44121 1238.6353 42.571289
234.53983 1238.6353 42.571289
237.57848 1247.072 18.993408
242.63324 1247.072 18.993408
245.62631 1255.1711 -3.6411133
248.535 1263.2705 -26.275879
253.50565 1263.2705 -26.275879
258.47644 1263.2705 -26.275879
263.44708 1263.2705 -26.275879
266.24026 1271.0322 -47.967529
271.17053 1271.0322 -47.967529
278.35913 1263.2705 -26.275879
283.32996 1263.2705 -26.275879
288.30057 1263.2705 -26.275879
293.27139 1263.2705 -26.275879
298.242 1263.2705 -26.275879
303.21265 1263.2705 -26.275879
308.18344 1263.2705 -26.275879
313.15408 1263.2705 -26.275879
318.12488 1263.2705 -26.275879
323.09552 1263.2705 -26.275879
328.06613 1263.2705 -26.275879
333.03696 1263.2705 -26.275879
338.00757 1263.2705 -26.275879
345.8819 1255.1711 -3.6411133
350.89462 1255.1711 -3.6411133
355.90732 1255.1711 -3.6411133
360.92023 1255.1711 -3.6411133
369.00476 1247.072 18.993408
377.30341 1238.6353 42.571289
382.40201 1238.6353 42.571289
387.50061 1238.6353 42.571289
392.59943 1238.6353 42.571289
401.11707 1230.1984 66.14917
-249.8009 1122.0438 351.58008
-244.12358 1122.0438 351.58008
-238.44638 1122.0438 351.58008
-232.76904 1122.0438 351.58008
-227.09174 1122.0438 351.58008
-221.41443 1122.0438 351.58008
-215.73711 1122.0438 351.58008
-210.05991 1122.0438 351.58008
-204.38258 1122.0438 351.58008
-198.70528 1122.0438 351.58008
-193.02797 1122.0438 351.58008
-187.35065 1122.0438 351.58008
-179.99023 1132.2163 323.30762
-174.36551 1132.2163 323.30762
-168.7408 1132.2163 323.30762
-163.1161 1132.2163 323.30762
-157.49138 1132.2163 323.30762
-153.28697 1122.0438 351.58008
-147.60965 1122.0438 351.58008
-141.93234 1122.0438 351.58008
-136.25502 1122.0438 351.58008
-129.3679 1132.2163 323.30762
-122.58611 1142.3889 295.03467
-114.87842 1162.0559 240.37378
-109.408 1162.0559 240.37378
-103.00481 1171.5502 213.98584
-96.699806 1181.0446 187.5979
-91.327667 1181.0446 187.5979
-85.197998 1190.2 162.15234
-79.8731 1190.2 162.15234
-75.210968 1181.0446 187.5979
-69.223312 1190.2 162.15234
-63.898525 1190.2 162.15234
-59.094368 1181.0446 187.5979
-53.722134 1181.0446 187.5979
-48.349903 1181.0446 187.5979
-43.370415 1171.5502 213.98584
-37.949188 1171.5502 213.98584
-32.822422 1162.0559 240.37378
-27.352001 1162.0559 240.37378
-22.084965 1152.2223 267.70435
-16.563698 1152.2223 267.70435
-10.197426 1233.9418 40.579102
-5.0987129 1233.9418 40.579102
0 1233.9418 40.579102
5.0547829 1242.4189 17.018311
10.109758 1242.4189 17.018311
15.164542 1242.4189 17.018311
20.219517 1242.4189 17.018311
25.274302 1242.4189 17.018311
30.076605 1250.5569 -5.5998535
35.089497 1250.5569 -5.5998535
40.102203 1250.5569 -5.5998535
45.115097 1250.5569 -5.5998535
50.1278 1250.5569 -5.5998535
55.140507 1250.5569 -5.5998535
60.1534 1250.5569 -5.5998535
65.1661 1250.5569 -5.5998535
70.178993 1250.5569 -5.5998535
75.191704 1250.5569 -5.5998535
80.204407 1250.5569 -5.5998535
85.2173 1250.5569 -5.5998535
89.472572 1258.6949 -28.218018
94.443382 1258.6949 -28.218018
99.414001 1258.6949 -28.218018
104.38463 1258.6949 -28.218018
109.35544 1258.6949 -28.218018
114.32607 1258.6949 -28.218018
119.29688 1258.6949 -28.218018
124.2675 1258.6949 -28.218018
129.23813 1258.6949 -28.218018
134.20894 1258.6949 -28.218018
140.3578 1250.5569 -5.5998535
145.3707 1250.5569 -5.5998535
150.38341 1250.5569 -5.5998535
155.3961 1250.5569 -5.5998535
160.409 1250.5569 -5.5998535
166.81035 1242.4189 17.018311
171.86531 1242.4189 17.018311
176.9201 1242.4189 17.018311
181.9749 1242.4189 17.018311
188.6517 1233.9418 40.579102
193.75031 1233.9418 40.579102
198.84912 1233.9418 40.579102
205.70108 1225.4646 64.139893
210.84354 1225.4646 64.139893
215.98618 1225.4646 64.139893
221.12862 1225.4646 64.139893
226.27126 1225.4646 64.139893
231.41371 1225.4646 64.139893
236.55617 1225.4646 64.139893
239.63864 1233.9418 40.579102
242.63324 1242.4189 17.018311
245.62631 1250.5569 -5.5998535
248.535 1258.6949 -28.218018
253.50565 1258.6949 -28.218018
258.47644 1258.6949 -28.218018
263.44708 1258.6949 -28.218018
266.24026 1266.4939 -49.893799
271.17053 1266.4939 -49.893799
278.35913 1258.6949 -28.218018
283.32996 1258.6949 -28.218018
288.30057 1258.6949 -28.218018
293.27139 1258.6949 -28.218018
298.242 1258.6949 -28.218018
303.21265 1258.6949 -28.218018
308.18344 1258.6949 -28.218018
313.15408 1258.6949 -28.218018
318.12488 1258.6949 -28.218018
323.09552 1258.6949 -28.218018
328.06613 1258.6949 -28.218018
333.03696 1258.6949 -28.218018
338.00757 1258.6949 -28.218018
345.8819 1250.5569 -5.5998535
350.89462 1250.5569 -5.5998535
355.90732 1250.5569 -5.5998535
360.92023 1250.5569 -5.5998535
369.00476 1242.4189 17.018311
377.30341 1233.9418 40.579102
382.40201 1233.9418 40.579102
387.50061 1233.9418 40.579102
392.59943 1233.9418 40.579102
401.11707 1225.4646 64.139893
-249.8009 1116.8179 349.36182
-244.12358 1116.8179 349.36182
-238.44638 1116.8179 349.36182
-232.76904 1116.8179 349.36182
-227.09174 1116.8179 349.36182
-221.41443 1116.8179 349.36182
-215.73711 1116.8179 349.36182
-210.05991 1116.8179 349.36182
-204.38258 1116.8179 349.36182
-198.70528 1116.8179 349.36182
-193.02797 1116.8179 349.36182
-185.61484 1127.0388 321.10986
-179.99023 1127.0388 321.10986
-174.36551 1127.0388 321.10986
-168.7408 1127.0388 321.10986
-163.1161 1127.0388 321.10986
-157.49138 1127.0388 321.10986
-153.28697 1116.8179 349.36182
-147.60965 1116.8179 349.36182
-141.93234 1116.8179 349.36182
-136.25502 1116.8179 349.36182
-130.57771 1116.8179 349.36182
-123.7433 1127.0388 321.10986
-115.94621 1147.14 265.54688
-109.408 1157.0204 238.23633
-103.00481 1166.5599 211.86768
-96.699806 1176.0994 185.49878
-91.327667 1176.0994 185.49878
-85.955437 1176.0994 185.49878
-80.583206 1176.0994 185.49878
-75.210968 1176.0994 185.49878
-69.223312 1185.2983 160.07153
-63.898525 1185.2983 160.07153
-59.094368 1176.0994 185.49878
-53.722134 1176.0994 185.49878
-48.349903 1176.0994 185.49878
-43.370415 1166.5599 211.86768
-37.949188 1166.5599 211.86768
-32.822422 1157.0204 238.23633
-27.352001 1157.0204 238.23633
-22.084965 1147.14 265.54688
-16.563698 1147.14 265.54688
-10.197426 1229.2484 38.586914
-5.0548792 1237.7659 15.043213
0 1237.7659 15.043213
5.0547829 1237.7659 15.043213
10.109758 1237.7659 15.043213
15.164542 1237.7659 15.043213
20.219517 1237.7659 15.043213
25.274302 1237.7659 15.043213
30.076605 1245.9426 -7.5585938
35.089497 1245.9426 -7.5585938
40.102203 1245.9426 -7.5585938
45.115097 1245.9426 -7.5585938
50.1278 1245.9426 -7.5585938
55.140507 1245.9426 -7.5585938
60.1534 1245.9426 -7.5585938
65.1661 1245.9426 -7.5585938
70.178993 1245.9426 -7.5585938
75.191704 1245.9426 -7.5585938
80.204407 1245.9426 -7.5585938
85.2173 1245.9426 -7.5585938
90.230003 1245.9426 -7.5585938
94.443382 1254.1194 -30.160156
99.414001 1254.1194 -30.160156
104.38463 1254.1194 -30.160156
109.35544 1254.1194 -30.160156
114.32607 1254.1194 -30.160156
119.29688 1254.1194 -30.160156
124.2675 1254.1194 -30.160156
129.23813 1254.1194 -30.160156
134.20894 1254.1194 -30.160156
140.3578 1245.9426 -7.5585938
145.3707 1245.9426 -7.5585938
150.38341 1245.9426 -7.5585938
156.70059 1237.7659 15.043213
161.75557 1237.7659 15.043213
166.81035 1237.7659 15.043213
171.86531 1237.7659 15.043213
178.45427 1229.2484 38.586914
183.5529 1229.2484 38.586914
188.6517 1229.2484 38.586914
193.75031 1229.2484 38.586914
198.84912 1229.2484 38.586914
205.70108 1220.731 62.130615
210.84354 1220.731 62.130615
215.98618 1220.731 62.130615
221.12862 1220.731 62.130615
226.27126 1220.731 62.130615
233.38622 1212.2134 85.674072
236.55617 1220.731 62.130615
241.69881 1220.731 62.130615
244.73724 1229.2484 38.586914
245.62631 1245.9426 -7.5585938
248.535 1254.1194 -30.160156
253.50565 1254.1194 -30.160156
258.47644 1254.1194 -30.160156
263.44708 1254.1194 -30.160156
266.24026 1261.9554 -51.820312
271.17053 1261.9554 -51.820312
276.10083 1261.9554 -51.820312
281.03134 1261.9554 -51.820312
288.30057 1254.1194 -30.160156
293.27139 1254.1194 -30.160156
298.242 1254.1194 -30.160156
303.21265 1254.1194 -30.160156
308.18344 1254.1194 -30.160156
313.15408 1254.1194 -30.160156
318.12488 1254.1194 -30.160156
323.09552 1254.1194 -30.160156
328.06613 1254.1194 -30.160156
333.03696 1254.1194 -30.160156
338.00757 1254.1194 -30.160156
345.8819 1245.9426 -7.5585938
350.89462 1245.9426 -7.5585938
355.90732 1245.9426 -7.5585938
363.94995 1237.7659 15.043213
369.00476 1237.7659 15.043213
377.30341 1229.2484 38.586914
382.40201 1229.2484 38.586914
387.50061 1229.2484 38.586914
392.59943 1229.2484 38.586914
397.69806 1229.2484 38.586914
-255.47821 1111.5919 347.14355
-249.8009 1111.5919 347.14355
-244.12358 1111.5919 347.14355
-238.44638 1111.5919 347.14355
-232.76904 1111.5919 347.14355
-227.09174 1111.5919 347.14355
-221.41443 1111.5919 347.14355
-215.73711 1111.5919 347.14355
-210.05991 1111.5919 347.14355
-204.38258 1111.5919 347.14355
-198.70528 1111.5919 347.14355
-193.02797 1111.5919 347.14355
-185.61484 1121.8613 318.91211
-179.99023 1121.8613 318.91211
-174.36551 1121.8613 318.91211
-168.7408 1121.8613 318.91211
-163.1161 1121.8613 318.91211
-157.49138 1121.8613 318.91211
-153.28697 1111.5919 347.14355
-147.60965 1111.5919 347.14355
-141.93234 1111.5919 347.14355
-136.25502 1111.5919 347.14355
-130.57771 1111.5919 347.14355
-123.7433 1121.8613 318.91211
-118.11858 1121.8613 318.91211
-108.42614 1161.5696 209.74927
-102.07204 1171.1543 183.39966
-96.699806 1171.1543 183.39966
-91.327667 1171.1543 183.39966
-85.955437 1171.1543 183.39966
-80.583206 1171.1543 183.39966
-75.210968 1171.1543 183.39966
-69.838737 1171.1543 183.39966
-64.466599 1171.1543 183.39966
-59.094368 1171.1543 183.39966
-53.722134 1171.1543 183.39966
-48.79174 1161.5696 209.74927
-43.370415 1161.5696 209.74927
-37.949188 1161.5696 209.74927
-32.822422 1151.9849 236.09888
-27.352001 1151.9849 236.09888
-22.084965 1142.0576 263.38965
-16.563698 1142.0576 263.38965
-10.109758 1233.1129 13.068115
-5.0548792 1233.1129 13.068115
0 1233.1129 13.068115
5.0547829 1233.1129 13.068115
10.109758 1233.1129 13.068115
15.164542 1233.1129 13.068115
20.219517 1233.1129 13.068115
25.274302 1233.1129 13.068115
30.329084 1233.1129 13.068115
35.089497 1241.3284 -9.5170898
40.102203 1241.3284 -9.5170898
45.115097 1241.3284 -9.5170898
50.1278 1241.3284 -9.5170898
55.603386 1233.1129 13.068115
60.658363 1233.1129 13.068115
65.1661 1241.3284 -9.5170898
70.178993 1241.3284 -9.5170898
75.191704 1241.3284 -9.5170898
80.204407 1241.3284 -9.5170898
85.2173 1241.3284 -9.5170898
90.230003 1241.3284 -9.5170898
94.443382 1249.5438 -32.102539
99.414001 1249.5438 -32.102539
104.38463 1249.5438 -32.102539
109.35544 1249.5438 -32.102539
114.32607 1249.5438 -32.102539
119.29688 1249.5438 -32.102539
124.2675 1249.5438 -32.102539
129.23813 1249.5438 -32.102539
134.20894 1249.5438 -32.102539
140.3578 1241.3284 -9.5170898
145.3707 1241.3284 -9.5170898
150.38341 1241.3284 -9.5170898
156.70059 1233.1129 13.068115
161.75557 1233.1129 13.068115
166.81035 1233.1129 13.068115
173.35565 1224.5551 36.594727
178.45427 1224.5551 36.594727
183.5529 1224.5551 36.594727
188.6517 1224.5551 36.594727
193.75031 1224.5551 36.594727
198.84912 1224.5551 36.594727
205.70108 1215.9972 60.121094
210.84354 1215.9972 60.121094
215.98618 1215.9972 60.121094
221.12862 1215.9972 60.121094
228.19992 1207.4395 83.647705
233.38622 1207.4395 83.647705
238.57249 1207.4395 83.647705
241.69881 1215.9972 60.121094
244.73724 1224.5551 36.594727
247.68822 1233.1129 13.068115
250.63901 1241.3284 -9.5170898
253.50565 1249.5438 -32.102539
258.47644 1249.5438 -32.102539
263.44708 1249.5438 -32.102539
266.24026 1257.417 -53.746826
271.17053 1257.417 -53.746826
276.10083 1257.417 -53.746826
281.03134 1257.417 -53.746826
288.30057 1249.5438 -32.102539
293.27139 1249.5438 -32.102539
298.242 1249.5438 -32.102539
303.21265 1249.5438 -32.102539
308.18344 1249.5438 -32.102539
313.15408 1249.5438 -32.102539
318.12488 1249.5438 -32.102539
323.09552 1249.5438 -32.102539
328.06613 1249.5438 -32.102539
333.03696 1249.5438 -32.102539
338.00757 1249.5438 -32.102539
345.8819 1241.3284 -9.5170898
350.89462 1241.3284 -9.5170898
355.90732 1241.3284 -9.5170898
363.94995 1233.1129 13.068115
369.00476 1233.1129 13.068115
377.30341 1224.5551 36.594727
382.40201 1224.5551 36.594727
387.50061 1224.5551 36.594727
392.59943 1224.5551 36.594727
397.69806 1224.5551 36.594727
-255.47821 1106.366 344.92529
-249.8009 1106.366 344.92529
-244.12358 1106.366 344.92529
-238.44638 1106.366 344.92529
-232.76904 1106.366 344.92529
-227.09174 1106.366 344.92529
-221.41443 1106.366 344.92529
-215.73711 1106.366 344.92529
-210.05991 1106.366 344.92529
-202.48898 1116.6837 316.71436
-196.86427 1116.6837 316.71436
-191.23956 1116.6837 316.71436
-185.61484 1116.6837 316.71436
-179.99023 1116.6837 316.71436
-174.36551 1116.6837 316.71436
-168.7408 1116.6837 316.71436
-163.1161 1116.6837 316.71436
-158.96417 1106.366 344.92529
-153.28697 1106.366 344.92529
-147.60965 1106.366 344.92529
-141.93234 1106.366 344.92529
-136.25502 1106.366 344.92529
-130.57771 1106.366 344.92529
-123.7433 1116.6837 316.71436
-118.11858 1116.6837 316.71436
-108.42614 1156.5792 207.6311
-102.07204 1166.2091 181.30054
-96.699806 1166.2091 181.30054
-91.327667 1166.2091 181.30054
-85.955437 1166.2091 181.30054
-80.583206 1166.2091 181.30054
-75.210968 1166.2091 181.30054
-69.838737 1166.2091 181.30054
-64.466599 1166.2091 181.30054
-59.094368 1166.2091 181.30054
-53.722134 1166.2091 181.30054
-48.79174 1156.5792 207.6311
-43.370415 1156.5792 207.6311
-37.949188 1156.5792 207.6311
-32.822422 1146.9493 233.96143
-27.352001 1146.9493 233.96143
-22.084965 1136.9753 261.23218
-16.563698 1136.9753 261.23218
-10.285093 1211.2634 58.111816
-5.0987129 1219.8617 34.602539
0 1219.8617 34.602539
5.0986156 1219.8617 34.602539
10.197426 1219.8617 34.602539
15.164542 1228.46 11.093018
20.219517 1228.46 11.093018
25.274302 1228.46 11.093018
30.329084 1228.46 11.093018
35.089497 1236.7141 -11.47583
40.102203 1236.7141 -11.47583
45.115097 1236.7141 -11.47583
50.548603 1228.46 11.093018
55.603386 1228.46 11.093018
60.658363 1228.46 11.093018
65.713142 1228.46 11.093018
70.76812 1228.46 11.093018
75.822906 1228.46 11.093018
80.877686 1228.46 11.093018
85.932655 1228.46 11.093018
90.230003 1236.7141 -11.47583
95.242905 1236.7141 -11.47583
99.414001 1244.9683 -34.044678
104.38463 1244.9683 -34.044678
109.35544 1244.9683 -34.044678
114.32607 1244.9683 -34.044678
119.29688 1244.9683 -34.044678
124.2675 1244.9683 -34.044678
129.23813 1244.9683 -34.044678
134.20894 1244.9683 -34.044678
140.3578 1236.7141 -11.47583
145.3707 1236.7141 -11.47583
150.38341 1236.7141 -11.47583
156.70059 1228.46 11.093018
161.75557 1228.46 11.093018
166.81035 1228.46 11.093018
173.35565 1219.8617 34.602539
178.45427 1219.8617 34.602539
183.5529 1219.8617 34.602539
188.6517 1219.8617 34.602539
193.75031 1219.8617 34.602539
198.84912 1219.8617 34.602539
205.70108 1211.2634 58.111816
210.84354 1211.2634 58.111816
215.98618 1211.2634 58.111816
221.12862 1211.2634 58.111816
228.19992 1202.6653 81.621094
233.38622 1202.6653 81.621094
238.57249 1202.6653 81.621094
241.69881 1211.2634 58.111816
244.73724 1219.8617 34.602539
247.68822 1228.46 11.093018
250.63901 1236.7141 -11.47583
253.50565 1244.9683 -34.044678
258.47644 1244.9683 -34.044678
263.44708 1244.9683 -34.044678
268.41788 1244.9683 -34.044678
273.38852 1244.9683 -34.044678
278.35913 1244.9683 -34.044678
283.32996 1244.9683 -34.044678
288.30057 1244.9683 -34.044678
293.27139 1244.9683 -34.044678
298.242 1244.9683 -34.044678
303.21265 1244.9683 -34.044678
308.18344 1244.9683 -34.044678
313.15408 1244.9683 -34.044678
318.12488 1244.9683 -34.044678
323.09552 1244.9683 -34.044678
328.06613 1244.9683 -34.044678
333.03696 1244.9683 -34.044678
338.00757 1244.9683 -34.044678
345.8819 1236.7141 -11.47583
350.89462 1236.7141 -11.47583
358.89499 1228.46 11.093018
363.94995 1228.46 11.093018
369.00476 1228.46 11.093018
377.30341 1219.8617 34.602539
382.40201 1219.8617 34.602539
387.50061 1219.8617 34.602539
392.59943 1219.8617 34.602539
397.69806 1219.8617 34.602539
402.79688 1219.8617 34.602539
-266.83286 1101.1399 342.70703
-261.15552 1101.1399 342.70703
-255.47821 1101.1399 342.70703
-249.8009 1101.1399 342.70703
-244.12358 1101.1399 342.70703
-238.44638 1101.1399 342.70703
-232.76904 1101.1399 342.70703
-227.09174 1101.1399 342.70703
-221.41443 1101.1399 342.70703
-213.73831 1111.5061 314.5166
-208.11371 1111.5061 314.5166
-202.48898 1111.5061 314.5166
-196.86427 1111.5061 314.5166
-191.23956 1111.5061 314.5166
-185.61484 1111.5061 314.5166
-179.99023 1111.5061 314.5166
-174.36551 1111.5061 314.5166
-168.7408 1111.5061 314.5166
-163.1161 1111.5061 314.5166
-157.49138 1111.5061 314.5166
-153.28697 1101.1399 342.70703
-147.60965 1101.1399 342.70703
-141.93234 1101.1399 342.70703
-136.25502 1101.1399 342.70703
-130.57771 1101.1399 342.70703
-123.7433 1111.5061 314.5166
-118.11858 1111.5061 314.5166
-108.42614 1151.5889 205.51294
-101.17258 1170.5936 153.82983
-95.847679 1170.5936 153.82983
-91.327667 1161.264 179.20166
-85.955437 1161.264 179.20166
-80.583206 1161.264 179.20166
-75.210968 1161.264 179.20166
-69.838737 1161.264 179.20166
-64.466599 1161.264 179.20166
-59.094368 1161.264 179.20166
-54.21307 1151.5889 205.51294
-48.79174 1151.5889 205.51294
-43.370415 1151.5889 205.51294
-37.949188 1151.5889 205.51294
-32.527863 1151.5889 205.51294
-27.352001 1141.9138 231.82397
-22.084965 1131.8931 259.07495
-16.563698 1131.8931 259.07495
-10.285093 1206.5298 56.102539
-5.1425467 1206.5298 56.102539
0 1215.1683 32.610352
5.0986156 1215.1683 32.610352
10.197426 1215.1683 32.610352
15.296041 1215.1683 32.610352
20.219517 1223.8069 9.1179199
25.274302 1223.8069 9.1179199
30.329084 1223.8069 9.1179199
35.38406 1223.8069 9.1179199
