ply
format ascii 1.0
comment PCL generated
element vertex 1578
property float x
property float y
property float z
element camera 0
property float view_px
property float view_py
property float view_pz
property float x_axisx
property float x_axisy
property float x_axisz
property float y_axisx
property float y_axisy
property float y_axisz
property float z_axisx
property float z_axisy
property float z_axisz
property float focal
property float scalex
property float scaley
property float centerx
property float centery
property int viewportx
property int viewporty
property float k1
property float k2
end_header
119.28625 1341.1133 140.38892
123.42072 1348.5414 116.38281
128.56317 1348.5414 116.38281
134.84529 1341.1133 140.38892
140.03175 1341.1133 140.38892
145.21805 1341.1133 140.38892
150.40451 1341.1133 140.38892
155.59081 1341.1133 140.38892
160.7771 1341.1133 140.38892
165.96358 1341.1133 140.38892
171.14984 1341.1133 140.38892
176.33632 1341.1133 140.38892
181.52261 1341.1133 140.38892
186.70889 1341.1133 140.38892
191.89537 1341.1133 140.38892
197.08165 1341.1133 140.38892
202.26811 1341.1133 140.38892
209.27788 1333.3882 165.35522
214.50974 1333.3882 165.35522
219.74182 1333.3882 165.35522
224.97366 1333.3882 165.35522
230.20573 1333.3882 165.35522
237.48901 1325.6631 190.32129
242.76645 1325.6631 190.32129
250.2691 1317.6409 216.2478
255.59389 1317.6409 216.2478
263.23856 1309.6184 242.17432
-198.81393 1328.5723 163.31079
-193.58208 1328.5723 163.31079
-188.35011 1328.5723 163.31079
-183.11813 1328.5723 163.31079
-177.88617 1328.5723 163.31079
-172.65421 1328.5723 163.31079
-167.42235 1328.5723 163.31079
-162.19038 1328.5723 163.31079
-156.9584 1328.5723 163.31079
-151.72644 1328.5723 163.31079
-146.49446 1328.5723 163.31079
-140.03175 1336.3392 138.36255
-134.84538 1336.3392 138.36255
-129.65901 1336.3392 138.36255
-124.47263 1336.3392 138.36255
-119.28625 1336.3392 138.36255
-114.09996 1336.3392 138.36255
-108.91359 1336.3392 138.36255
-102.85054 1343.8076 114.37354
-97.707985 1343.8076 114.37354
-92.565445 1343.8076 114.37354
-87.422989 1343.8076 114.37354
-82.280449 1343.8076 114.37354
-77.137901 1343.8076 114.37354
-71.381691 1351.2761 90.384521
-66.282974 1351.2761 90.384521
-61.184364 1351.2761 90.384521
-56.085648 1351.2761 90.384521
-50.986935 1351.2761 90.384521
-45.888226 1351.2761 90.384521
-40.789509 1351.2761 90.384521
-35.690891 1351.2761 90.384521
-30.592182 1351.2761 90.384521
-25.712635 1343.8076 114.37354
-20.570087 1343.8076 114.37354
-15.559041 1336.3392 138.36255
-10.37276 1336.3392 138.36255
-5.1863799 1336.3392 138.36255
0 1336.3392 138.36255
5.1862807 1336.3392 138.36255
10.37276 1336.3392 138.36255
15.559041 1336.3392 138.36255
20.570187 1343.8076 114.37354
25.712635 1343.8076 114.37354
30.855083 1343.8076 114.37354
35.997726 1343.8076 114.37354
41.140175 1343.8076 114.37354
46.282822 1343.8076 114.37354
51.42527 1343.8076 114.37354
56.567715 1343.8076 114.37354
61.710361 1343.8076 114.37354
66.852806 1343.8076 114.37354
71.995453 1343.8076 114.37354
77.137901 1343.8076 114.37354
82.981682 1336.3392 138.36255
88.168159 1336.3392 138.36255
93.354446 1336.3392 138.36255
98.540924 1336.3392 138.36255
103.7272 1336.3392 138.36255
108.91348 1336.3392 138.36255
114.09996 1336.3392 138.36255
119.28625 1336.3392 138.36255
124.47272 1336.3392 138.36255
129.65901 1336.3392 138.36255
134.84529 1336.3392 138.36255
140.03175 1336.3392 138.36255
145.21805 1336.3392 138.36255
150.40451 1336.3392 138.36255
155.59081 1336.3392 138.36255
160.7771 1336.3392 138.36255
165.96358 1336.3392 138.36255
171.14984 1336.3392 138.36255
176.33632 1336.3392 138.36255
181.52261 1336.3392 138.36255
186.70889 1336.3392 138.36255
191.89537 1336.3392 138.36255
197.08165 1336.3392 138.36255
202.26811 1336.3392 138.36255
209.27788 1328.5723 163.31079
214.50974 1328.5723 163.31079
219.74182 1328.5723 163.31079
224.97366 1328.5723 163.31079
230.20573 1328.5723 163.31079
237.48901 1320.8051 188.25928
242.76645 1320.8051 188.25928
250.2691 1312.7393 214.16699
255.59389 1312.7393 214.16699
260.91888 1312.7393 214.16699
266.24368 1312.7393 214.16699
-204.0459 1323.7562 161.2666
-198.81393 1323.7562 161.2666
-193.58208 1323.7562 161.2666
-188.35011 1323.7562 161.2666
-183.11813 1323.7562 161.2666
-177.88617 1323.7562 161.2666
-172.65421 1323.7562 161.2666
-167.42235 1323.7562 161.2666
-162.19038 1323.7562 161.2666
-156.9584 1323.7562 161.2666
-151.72644 1323.7562 161.2666
-146.49446 1323.7562 161.2666
-140.03175 1331.5652 136.33594
-134.84538 1331.5652 136.33594
-129.65901 1331.5652 136.33594
-124.47263 1331.5652 136.33594
-119.28625 1331.5652 136.33594
-114.09996 1331.5652 136.33594
-108.91359 1331.5652 136.33594
-102.85054 1339.074 112.36426
-97.707985 1339.074 112.36426
-92.565445 1339.074 112.36426
-87.422989 1339.074 112.36426
-82.280449 1339.074 112.36426
-77.137901 1339.074 112.36426
-71.995354 1339.074 112.36426
-66.852806 1339.074 112.36426
-61.710361 1339.074 112.36426
-56.567814 1339.074 112.36426
-50.986935 1346.5828 88.392334
-45.888226 1346.5828 88.392334
-40.789509 1346.5828 88.392334
-35.690891 1346.5828 88.392334
-30.592182 1346.5828 88.392334
-25.712635 1339.074 112.36426
-20.570087 1339.074 112.36426
-15.427542 1339.074 112.36426
-10.285093 1339.074 112.36426
-5.1863799 1331.5652 136.33594
0 1331.5652 136.33594
5.1862807 1331.5652 136.33594
10.37276 1331.5652 136.33594
15.559041 1331.5652 136.33594
20.570187 1339.074 112.36426
25.712635 1339.074 112.36426
30.855083 1339.074 112.36426
35.997726 1339.074 112.36426
41.140175 1339.074 112.36426
46.282822 1339.074 112.36426
51.42527 1339.074 112.36426
56.567715 1339.074 112.36426
61.710361 1339.074 112.36426
66.852806 1339.074 112.36426
71.995453 1339.074 112.36426
77.137901 1339.074 112.36426
82.981682 1331.5652 136.33594
88.168159 1331.5652 136.33594
93.354446 1331.5652 136.33594
98.540924 1331.5652 136.33594
103.7272 1331.5652 136.33594
108.91348 1331.5652 136.33594
114.09996 1331.5652 136.33594
119.28625 1331.5652 136.33594
124.47272 1331.5652 136.33594
129.65901 1331.5652 136.33594
134.84529 1331.5652 136.33594
140.03175 1331.5652 136.33594
145.21805 1331.5652 136.33594
150.40451 1331.5652 136.33594
155.59081 1331.5652 136.33594
160.7771 1331.5652 136.33594
165.96358 1331.5652 136.33594
171.14984 1331.5652 136.33594
176.33632 1331.5652 136.33594
181.52261 1331.5652 136.33594
186.70889 1331.5652 136.33594
191.89537 1331.5652 136.33594
198.81393 1323.7562 161.2666
202.26811 1331.5652 136.33594
207.45441 1331.5652 136.33594
212.6407 1331.5652 136.33594
217.82718 1331.5652 136.33594
224.97366 1323.7562 161.2666
230.20573 1323.7562 161.2666
235.43761 1323.7562 161.2666
240.66948 1323.7562 161.2666
248.04411 1315.947 186.19702
255.59389 1307.8376 212.08643
258.59924 1315.947 186.19702
263.87668 1315.947 186.19702
-204.0459 1318.9402 159.22217
-198.81393 1318.9402 159.22217
-195.26877 1311.0891 184.13501
-188.35011 1318.9402 159.22217
-183.11813 1318.9402 159.22217
-177.88617 1318.9402 159.22217
-172.65421 1318.9402 159.22217
-167.42235 1318.9402 159.22217
-162.19038 1318.9402 159.22217
-156.9584 1318.9402 159.22217
-150.40443 1326.7911 134.30957
-145.21805 1326.7911 134.30957
-140.03175 1326.7911 134.30957
-134.84538 1326.7911 134.30957
-129.65901 1326.7911 134.30957
-124.47263 1326.7911 134.30957
-119.28625 1326.7911 134.30957
-114.09996 1326.7911 134.30957
-108.91359 1326.7911 134.30957
-102.85054 1334.3403 110.35474
-97.707985 1334.3403 110.35474
-92.565445 1334.3403 110.35474
-87.422989 1334.3403 110.35474
-82.280449 1334.3403 110.35474
-77.137901 1334.3403 110.35474
-71.995354 1334.3403 110.35474
-66.852806 1334.3403 110.35474
-61.184364 1341.8894 86.400146
-56.085648 1341.8894 86.400146
-50.986935 1341.8894 86.400146
-45.888226 1341.8894 86.400146
-40.789509 1341.8894 86.400146
-35.690891 1341.8894 86.400146
-30.592182 1341.8894 86.400146
-25.712635 1334.3403 110.35474
-20.570087 1334.3403 110.35474
-15.427542 1334.3403 110.35474
-10.285093 1334.3403 110.35474
-5.1425467 1334.3403 110.35474
0 1334.3403 110.35474
5.1862807 1326.7911 134.30957
10.37276 1326.7911 134.30957
15.559041 1326.7911 134.30957
20.570187 1334.3403 110.35474
25.712635 1334.3403 110.35474
30.855083 1334.3403 110.35474
35.997726 1334.3403 110.35474
41.140175 1334.3403 110.35474
46.282822 1334.3403 110.35474
51.42527 1334.3403 110.35474
56.567715 1334.3403 110.35474
61.710361 1334.3403 110.35474
66.852806 1334.3403 110.35474
71.995453 1334.3403 110.35474
77.137901 1334.3403 110.35474
82.28035 1334.3403 110.35474
88.168159 1326.7911 134.30957
93.354446 1326.7911 134.30957
98.540924 1326.7911 134.30957
103.7272 1326.7911 134.30957
108.91348 1326.7911 134.30957
114.09996 1326.7911 134.30957
119.28625 1326.7911 134.30957
124.47272 1326.7911 134.30957
129.65901 1326.7911 134.30957
134.84529 1326.7911 134.30957
140.03175 1326.7911 134.30957
145.21805 1326.7911 134.30957
150.40451 1326.7911 134.30957
155.59081 1326.7911 134.30957
160.7771 1326.7911 134.30957
165.96358 1326.7911 134.30957
171.14984 1326.7911 134.30957
176.33632 1326.7911 134.30957
181.52261 1326.7911 134.30957
186.70889 1326.7911 134.30957
191.89537 1326.7911 134.30957
198.81393 1318.9402 159.22217
202.26811 1326.7911 134.30957
207.45441 1326.7911 134.30957
212.6407 1326.7911 134.30957
217.82718 1326.7911 134.30957
224.97366 1318.9402 159.22217
230.20573 1318.9402 159.22217
235.43761 1318.9402 159.22217
240.66948 1318.9402 159.22217
248.04411 1311.0891 184.13501
255.59389 1302.936 210.00586
258.59924 1311.0891 184.13501
263.87668 1311.0891 184.13501
271.56848 1302.936 210.00586
-204.0459 1314.1241 157.17798
-198.81393 1314.1241 157.17798
-193.58208 1314.1241 157.17798
-188.35011 1314.1241 157.17798
-183.11813 1314.1241 157.17798
-177.88617 1314.1241 157.17798
-172.65421 1314.1241 157.17798
-167.42235 1314.1241 157.17798
-162.19038 1314.1241 157.17798
-156.9584 1314.1241 157.17798
-150.40443 1322.0171 132.28296
-145.21805 1322.0171 132.28296
-140.03175 1322.0171 132.28296
-134.84538 1322.0171 132.28296
-128.56317 1329.6066 108.34546
-123.42062 1329.6066 108.34546
-118.27808 1329.6066 108.34546
-114.09996 1322.0171 132.28296
-108.91359 1322.0171 132.28296
-103.7272 1322.0171 132.28296
-97.707985 1329.6066 108.34546
-92.565445 1329.6066 108.34546
-87.422989 1329.6066 108.34546
-82.280449 1329.6066 108.34546
-77.137901 1329.6066 108.34546
-71.995354 1329.6066 108.34546
-66.852806 1329.6066 108.34546
-61.184364 1337.196 84.407959
-56.085648 1337.196 84.407959
-50.986935 1337.196 84.407959
-45.888226 1337.196 84.407959
-40.789509 1337.196 84.407959
-35.690891 1337.196 84.407959
-30.592182 1337.196 84.407959
-25.712635 1329.6066 108.34546
-20.570087 1329.6066 108.34546
-15.427542 1329.6066 108.34546
-10.285093 1329.6066 108.34546
-5.1425467 1329.6066 108.34546
0 1329.6066 108.34546
5.1862807 1322.0171 132.28296
10.37276 1322.0171 132.28296
15.559041 1322.0171 132.28296
20.74552 1322.0171 132.28296
25.712635 1329.6066 108.34546
30.855083 1329.6066 108.34546
35.997726 1329.6066 108.34546
41.140175 1329.6066 108.34546
46.282822 1329.6066 108.34546
51.42527 1329.6066 108.34546
56.567715 1329.6066 108.34546
61.710361 1329.6066 108.34546
66.852806 1329.6066 108.34546
71.995453 1329.6066 108.34546
77.137901 1329.6066 108.34546
82.28035 1329.6066 108.34546
88.168159 1322.0171 132.28296
93.354446 1322.0171 132.28296
98.540924 1322.0171 132.28296
103.7272 1322.0171 132.28296
109.8708 1314.1241 157.17798
114.09996 1322.0171 132.28296
119.28625 1322.0171 132.28296
124.47272 1322.0171 132.28296
129.65901 1322.0171 132.28296
134.84529 1322.0171 132.28296
140.03175 1322.0171 132.28296
145.21805 1322.0171 132.28296
150.40451 1322.0171 132.28296
155.59081 1322.0171 132.28296
160.7771 1322.0171 132.28296
165.96358 1322.0171 132.28296
171.14984 1322.0171 132.28296
176.33632 1322.0171 132.28296
181.52261 1322.0171 132.28296
186.70889 1322.0171 132.28296
191.89537 1322.0171 132.28296
198.81393 1314.1241 157.17798
204.04601 1314.1241 157.17798
209.27788 1314.1241 157.17798
214.50974 1314.1241 157.17798
219.74182 1314.1241 157.17798
224.97366 1314.1241 157.17798
230.20573 1314.1241 157.17798
237.48901 1306.2311 182.073
242.76645 1306.2311 182.073
248.04411 1306.2311 182.073
255.59389 1298.0345 207.92529
258.59924 1306.2311 182.073
263.87668 1306.2311 182.073
271.56848 1298.0345 207.92529
-211.10133 1301.373 180.01074
-204.0459 1309.3081 155.13379
-198.81393 1309.3081 155.13379
-193.58208 1309.3081 155.13379
-188.35011 1309.3081 155.13379
-183.11813 1309.3081 155.13379
-177.88617 1309.3081 155.13379
-172.65421 1309.3081 155.13379
-167.42235 1309.3081 155.13379
-162.19038 1309.3081 155.13379
-156.9584 1309.3081 155.13379
-150.40443 1317.243 130.25659
-145.21805 1317.243 130.25659
-138.84827 1324.8728 106.33618
-133.70572 1324.8728 106.33618
-128.56317 1324.8728 106.33618
-123.42062 1324.8728 106.33618
-118.27808 1324.8728 106.33618
-114.09996 1317.243 130.25659
-108.91359 1317.243 130.25659
-103.7272 1317.243 130.25659
-97.707985 1324.8728 106.33618
-92.565445 1324.8728 106.33618
-87.422989 1324.8728 106.33618
-82.280449 1324.8728 106.33618
-77.137901 1324.8728 106.33618
-71.995354 1324.8728 106.33618
-66.852806 1324.8728 106.33618
-61.184364 1332.5027 82.415771
-56.085648 1332.5027 82.415771
-50.986935 1332.5027 82.415771
-45.888226 1332.5027 82.415771
-40.789509 1332.5027 82.415771
-35.690891 1332.5027 82.415771
-30.592182 1332.5027 82.415771
-25.712635 1324.8728 106.33618
-20.570087 1324.8728 106.33618
-15.427542 1324.8728 106.33618
-10.285093 1324.8728 106.33618
-5.1425467 1324.8728 106.33618
0 1324.8728 106.33618
5.1862807 1317.243 130.25659
10.37276 1317.243 130.25659
15.559041 1317.243 130.25659
20.74552 1317.243 130.25659
25.712635 1324.8728 106.33618
30.855083 1324.8728 106.33618
35.997726 1324.8728 106.33618
41.140175 1324.8728 106.33618
46.282822 1324.8728 106.33618
51.42527 1324.8728 106.33618
56.567715 1324.8728 106.33618
61.710361 1324.8728 106.33618
66.852806 1324.8728 106.33618
71.995453 1324.8728 106.33618
77.137901 1324.8728 106.33618
82.981682 1317.243 130.25659
88.168159 1317.243 130.25659
93.354446 1317.243 130.25659
98.540924 1317.243 130.25659
103.7272 1317.243 130.25659
108.91348 1317.243 130.25659
114.09996 1317.243 130.25659
119.28625 1317.243 130.25659
124.47272 1317.243 130.25659
129.65901 1317.243 130.25659
134.84529 1317.243 130.25659
140.03175 1317.243 130.25659
145.21805 1317.243 130.25659
150.40451 1317.243 130.25659
155.59081 1317.243 130.25659
160.7771 1317.243 130.25659
165.96358 1317.243 130.25659
171.14984 1317.243 130.25659
176.33632 1317.243 130.25659
183.11813 1309.3081 155.13379
188.35001 1309.3081 155.13379
193.58208 1309.3081 155.13379
198.81393 1309.3081 155.13379
204.04601 1309.3081 155.13379
209.27788 1309.3081 155.13379
214.50974 1309.3081 155.13379
219.74182 1309.3081 155.13379
224.97366 1309.3081 155.13379
230.20573 1309.3081 155.13379
237.48901 1301.373 180.01074
242.76645 1301.373 180.01074
248.04411 1301.373 180.01074
255.59389 1293.1329 205.84473
260.91888 1293.1329 205.84473
266.24368 1293.1329 205.84473
273.98282 1284.8927 231.67896
-209.27788 1304.4919 153.08936
-204.0459 1304.4919 153.08936
-198.81393 1304.4919 153.08936
-195.26877 1296.515 177.94873
-188.35011 1304.4919 153.08936
-183.11813 1304.4919 153.08936
-177.88617 1304.4919 153.08936
-172.65421 1304.4919 153.08936
-167.42235 1304.4919 153.08936
-162.19038 1304.4919 153.08936
-155.59081 1312.4689 128.22998
-150.40443 1312.4689 128.22998
-145.21805 1312.4689 128.22998
-138.84827 1320.139 104.32666
-133.70572 1320.139 104.32666
-128.56317 1320.139 104.32666
-123.42062 1320.139 104.32666
-118.27808 1320.139 104.32666
-114.09996 1312.4689 128.22998
-108.91359 1312.4689 128.22998
-103.7272 1312.4689 128.22998
-97.707985 1320.139 104.32666
-92.565445 1320.139 104.32666
-87.422989 1320.139 104.32666
-82.280449 1320.139 104.32666
-77.137901 1320.139 104.32666
-71.995354 1320.139 104.32666
-66.852806 1320.139 104.32666
-61.184364 1327.8092 80.42334
-56.085648 1327.8092 80.42334
-50.986935 1327.8092 80.42334
-45.888226 1327.8092 80.42334
-40.789509 1327.8092 80.42334
-35.690891 1327.8092 80.42334
-30.592182 1327.8092 80.42334
-25.712635 1320.139 104.32666
-20.570087 1320.139 104.32666
-15.427542 1320.139 104.32666
-10.285093 1320.139 104.32666
-5.1863799 1312.4689 128.22998
0 1312.4689 128.22998
5.1862807 1312.4689 128.22998
10.37276 1312.4689 128.22998
15.559041 1312.4689 128.22998
20.74552 1312.4689 128.22998
25.712635 1320.139 104.32666
30.855083 1320.139 104.32666
35.997726 1320.139 104.32666
41.140175 1320.139 104.32666
46.282822 1320.139 104.32666
51.42527 1320.139 104.32666
56.567715 1320.139 104.32666
61.710361 1320.139 104.32666
66.852806 1320.139 104.32666
71.995453 1320.139 104.32666
77.137901 1320.139 104.32666
82.981682 1312.4689 128.22998
88.168159 1312.4689 128.22998
93.354446 1312.4689 128.22998
98.540924 1312.4689 128.22998
103.7272 1312.4689 128.22998
108.91348 1312.4689 128.22998
114.09996 1312.4689 128.22998
119.28625 1312.4689 128.22998
124.47272 1312.4689 128.22998
129.65901 1312.4689 128.22998
134.84529 1312.4689 128.22998
140.03175 1312.4689 128.22998
145.21805 1312.4689 128.22998
150.40451 1312.4689 128.22998
155.59081 1312.4689 128.22998
160.7771 1312.4689 128.22998
167.42235 1304.4919 153.08936
171.14984 1312.4689 128.22998
176.33632 1312.4689 128.22998
183.11813 1304.4919 153.08936
188.35001 1304.4919 153.08936
193.58208 1304.4919 153.08936
198.81393 1304.4919 153.08936
204.04601 1304.4919 153.08936
209.27788 1304.4919 153.08936
214.50974 1304.4919 153.08936
219.74182 1304.4919 153.08936
224.97366 1304.4919 153.08936
230.20573 1304.4919 153.08936
237.48901 1296.515 177.94873
242.76645 1296.515 177.94873
248.04411 1296.515 177.94873
253.32158 1296.515 177.94873
260.91888 1288.2313 203.76416
266.24368 1288.2313 203.76416
271.56848 1288.2313 203.76416
-209.27788 1299.676 151.04517
-204.0459 1299.676 151.04517
-198.81393 1299.676 151.04517
-193.58208 1299.676 151.04517
-188.35011 1299.676 151.04517
-183.11813 1299.676 151.04517
-177.88617 1299.676 151.04517
-172.65421 1299.676 151.04517
-167.42235 1299.676 151.04517
-162.19038 1299.676 151.04517
-155.59081 1307.6948 126.20361
-150.40443 1307.6948 126.20361
-145.21805 1307.6948 126.20361
-138.84827 1315.4053 102.31738
-133.70572 1315.4053 102.31738
-129.65901 1307.6948 126.20361
-123.42062 1315.4053 102.31738
-118.27808 1315.4053 102.31738
-114.09996 1307.6948 126.20361
-108.91359 1307.6948 126.20361
-103.7272 1307.6948 126.20361
-97.707985 1315.4053 102.31738
-92.565445 1315.4053 102.31738
-87.422989 1315.4053 102.31738
-82.280449 1315.4053 102.31738
-77.137901 1315.4053 102.31738
-71.995354 1315.4053 102.31738
-66.852806 1315.4053 102.31738
-61.184364 1323.1158 78.431152
-56.085648 1323.1158 78.431152
-50.986935 1323.1158 78.431152
-45.888226 1323.1158 78.431152
-40.789509 1323.1158 78.431152
-35.690891 1323.1158 78.431152
-30.592182 1323.1158 78.431152
-25.712635 1315.4053 102.31738
-20.570087 1315.4053 102.31738
-15.427542 1315.4053 102.31738
-10.285093 1315.4053 102.31738
-5.1425467 1315.4053 102.31738
0 1315.4053 102.31738
5.1862807 1307.6948 126.20361
10.37276 1307.6948 126.20361
15.559041 1307.6948 126.20361
20.74552 1307.6948 126.20361
25.712635 1315.4053 102.31738
30.855083 1315.4053 102.31738
35.997726 1315.4053 102.31738
41.140175 1315.4053 102.31738
46.282822 1315.4053 102.31738
51.42527 1315.4053 102.31738
56.567715 1315.4053 102.31738
61.710361 1315.4053 102.31738
66.852806 1315.4053 102.31738
71.995453 1315.4053 102.31738
77.137901 1315.4053 102.31738
82.981682 1307.6948 126.20361
88.168159 1307.6948 126.20361
93.354446 1307.6948 126.20361
98.540924 1307.6948 126.20361
103.7272 1307.6948 126.20361
108.91348 1307.6948 126.20361
114.09996 1307.6948 126.20361
119.28625 1307.6948 126.20361
124.47272 1307.6948 126.20361
129.65901 1307.6948 126.20361
134.84529 1307.6948 126.20361
140.03175 1307.6948 126.20361
145.21805 1307.6948 126.20361
150.40451 1307.6948 126.20361
155.59081 1307.6948 126.20361
160.7771 1307.6948 126.20361
167.42235 1299.676 151.04517
172.65421 1299.676 151.04517
177.88628 1299.676 151.04517
183.11813 1299.676 151.04517
188.35001 1299.676 151.04517
193.58208 1299.676 151.04517
198.81393 1299.676 151.04517
204.04601 1299.676 151.04517
209.27788 1299.676 151.04517
214.50974 1299.676 151.04517
219.74182 1299.676 151.04517
224.97366 1299.676 151.04517
230.20573 1299.676 151.04517
237.48901 1291.657 175.88672
242.76645 1291.657 175.88672
248.04411 1291.657 175.88672
253.32158 1291.657 175.88672
260.91888 1283.3297 201.68359
266.24368 1283.3297 201.68359
271.56848 1283.3297 201.68359
276.89346 1283.3297 201.68359
-209.27788 1294.86 149.00073
-204.0459 1294.86 149.00073
-198.81393 1294.86 149.00073
-193.58208 1294.86 149.00073
-188.35011 1294.86 149.00073
-183.11813 1294.86 149.00073
-177.88617 1294.86 149.00073
-172.65421 1294.86 149.00073
-167.42235 1294.86 149.00073
-162.19038 1294.86 149.00073
-155.59081 1302.9207 124.177
-150.40443 1302.9207 124.177
-145.21805 1302.9207 124.177
-138.84827 1310.6716 100.30811
-133.70572 1310.6716 100.30811
-129.65901 1302.9207 124.177
-124.47263 1302.9207 124.177
-119.28625 1302.9207 124.177
-114.09996 1302.9207 124.177
-108.91359 1302.9207 124.177
-103.7272 1302.9207 124.177
-97.707985 1310.6716 100.30811
-92.565445 1310.6716 100.30811
-87.422989 1310.6716 100.30811
-82.280449 1310.6716 100.30811
-77.137901 1310.6716 100.30811
-71.995354 1310.6716 100.30811
-66.282974 1318.4225 76.438965
-61.184364 1318.4225 76.438965
-56.085648 1318.4225 76.438965
-50.986935 1318.4225 76.438965
-45.888226 1318.4225 76.438965
-40.789509 1318.4225 76.438965
-35.690891 1318.4225 76.438965
-30.592182 1318.4225 76.438965
-25.712635 1310.6716 100.30811
-20.570087 1310.6716 100.30811
-15.427542 1310.6716 100.30811
-10.285093 1310.6716 100.30811
-5.1425467 1310.6716 100.30811
0 1310.6716 100.30811
5.1424484 1310.6716 100.30811
10.37276 1302.9207 124.177
15.559041 1302.9207 124.177
20.570187 1310.6716 100.30811
25.712635 1310.6716 100.30811
30.855083 1310.6716 100.30811
35.997726 1310.6716 100.30811
41.140175 1310.6716 100.30811
46.282822 1310.6716 100.30811
51.42527 1310.6716 100.30811
56.567715 1310.6716 100.30811
61.710361 1310.6716 100.30811
66.852806 1310.6716 100.30811
71.995453 1310.6716 100.30811
77.137901 1310.6716 100.30811
82.981682 1302.9207 124.177
88.168159 1302.9207 124.177
93.354446 1302.9207 124.177
98.540924 1302.9207 124.177
103.7272 1302.9207 124.177
108.91348 1302.9207 124.177
113.13563 1310.6716 100.30811
118.27808 1310.6716 100.30811
123.42072 1310.6716 100.30811
128.56317 1310.6716 100.30811
134.84529 1302.9207 124.177
140.03175 1302.9207 124.177
145.21805 1302.9207 124.177
150.40451 1302.9207 124.177
155.59081 1302.9207 124.177
160.7771 1302.9207 124.177
167.42235 1294.86 149.00073
172.65421 1294.86 149.00073
176.33632 1302.9207 124.177
181.52261 1302.9207 124.177
186.70889 1302.9207 124.177
191.89537 1302.9207 124.177
198.81393 1294.86 149.00073
204.04601 1294.86 149.00073
209.27788 1294.86 149.00073
214.50974 1294.86 149.00073
219.74182 1294.86 149.00073
224.97366 1294.86 149.00073
232.21156 1286.7991 173.82446
237.48901 1286.7991 173.82446
242.76645 1286.7991 173.82446
248.04411 1286.7991 173.82446
253.32158 1286.7991 173.82446
260.91888 1278.4282 199.60303
266.24368 1278.4282 199.60303
271.56848 1278.4282 199.60303
276.89346 1278.4282 199.60303
-209.27788 1290.0439 146.95654
-204.0459 1290.0439 146.95654
-198.81393 1290.0439 146.95654
-193.58208 1290.0439 146.95654
-188.35011 1290.0439 146.95654
-183.11813 1290.0439 146.95654
-177.88617 1290.0439 146.95654
-172.65421 1290.0439 146.95654
-167.42235 1290.0439 146.95654
-162.19038 1290.0439 146.95654
-155.59081 1298.1467 122.15063
-150.40443 1298.1467 122.15063
-145.21805 1298.1467 122.15063
-140.03175 1298.1467 122.15063
-134.84538 1298.1467 122.15063
-129.65901 1298.1467 122.15063
-124.47263 1298.1467 122.15063
-119.28625 1298.1467 122.15063
-114.09996 1298.1467 122.15063
-108.91359 1298.1467 122.15063
-103.7272 1298.1467 122.15063
-97.707985 1305.938 98.298828
-92.565445 1305.938 98.298828
-87.422989 1305.938 98.298828
-82.280449 1305.938 98.298828
-77.137901 1305.938 98.298828
-71.995354 1305.938 98.298828
-66.282974 1313.7291 74.446777
-61.184364 1313.7291 74.446777
-56.085648 1313.7291 74.446777
-50.986935 1313.7291 74.446777
-45.888226 1313.7291 74.446777
-40.789509 1313.7291 74.446777
-35.690891 1313.7291 74.446777
-30.592182 1313.7291 74.446777
-25.712635 1305.938 98.298828
-20.570087 1305.938 98.298828
-15.427542 1305.938 98.298828
-10.285093 1305.938 98.298828
-5.1425467 1305.938 98.298828
0 1305.938 98.298828
5.1424484 1305.938 98.298828
10.285093 1305.938 98.298828
15.559041 1298.1467 122.15063
20.570187 1305.938 98.298828
25.712635 1305.938 98.298828
30.855083 1305.938 98.298828
35.997726 1305.938 98.298828
41.140175 1305.938 98.298828
46.282822 1305.938 98.298828
51.42527 1305.938 98.298828
56.567715 1305.938 98.298828
61.710361 1305.938 98.298828
66.852806 1305.938 98.298828
71.995453 1305.938 98.298828
77.137901 1305.938 98.298828
82.981682 1298.1467 122.15063
88.168159 1298.1467 122.15063
93.354446 1298.1467 122.15063
98.540924 1298.1467 122.15063
103.7272 1298.1467 122.15063
107.99298 1305.938 98.298828
113.13563 1305.938 98.298828
118.27808 1305.938 98.298828
123.42072 1305.938 98.298828
128.56317 1305.938 98.298828
134.84529 1298.1467 122.15063
140.03175 1298.1467 122.15063
145.21805 1298.1467 122.15063
150.40451 1298.1467 122.15063
155.59081 1298.1467 122.15063
160.7771 1298.1467 122.15063
167.42235 1290.0439 146.95654
171.14984 1298.1467 122.15063
176.33632 1298.1467 122.15063
181.52261 1298.1467 122.15063
186.70889 1298.1467 122.15063
191.89537 1298.1467 122.15063
198.81393 1290.0439 146.95654
204.04601 1290.0439 146.95654
209.27788 1290.0439 146.95654
214.50974 1290.0439 146.95654
219.74182 1290.0439 146.95654
226.93391 1281.941 171.76245
232.21156 1281.941 171.76245
237.48901 1281.941 171.76245
242.76645 1281.941 171.76245
248.04411 1281.941 171.76245
255.59389 1273.5266 197.52246
260.91888 1273.5266 197.52246
266.24368 1273.5266 197.52246
271.56848 1273.5266 197.52246
276.89346 1273.5266 197.52246
282.21826 1273.5266 197.52246
-209.27788 1285.2279 144.91235
-204.0459 1285.2279 144.91235
-198.81393 1285.2279 144.91235
-193.58208 1285.2279 144.91235
-188.35011 1285.2279 144.91235
-183.11813 1285.2279 144.91235
-177.88617 1285.2279 144.91235
-172.65421 1285.2279 144.91235
-167.42235 1285.2279 144.91235
-162.19038 1285.2279 144.91235
-155.59081 1293.3726 120.12427
-150.40443 1293.3726 120.12427
-145.21805 1293.3726 120.12427
-140.03175 1293.3726 120.12427
-134.84538 1293.3726 120.12427
-129.65901 1293.3726 120.12427
-124.47263 1293.3726 120.12427
-119.28625 1293.3726 120.12427
-114.09996 1293.3726 120.12427
-108.91359 1293.3726 120.12427
-103.7272 1293.3726 120.12427
-97.707985 1301.2041 96.289307
-92.565445 1301.2041 96.289307
-88.168159 1293.3726 120.12427
-82.280449 1301.2041 96.289307
-77.137901 1301.2041 96.289307
-71.995354 1301.2041 96.289307
-66.852806 1301.2041 96.289307
-61.710361 1301.2041 96.289307
-56.567814 1301.2041 96.289307
-50.986935 1309.0358 72.45459
-45.888226 1309.0358 72.45459
-40.789509 1309.0358 72.45459
-35.690891 1309.0358 72.45459
-30.592182 1309.0358 72.45459
-25.712635 1301.2041 96.289307
-20.570087 1301.2041 96.289307
-15.427542 1301.2041 96.289307
-10.285093 1301.2041 96.289307
-5.1425467 1301.2041 96.289307
0 1301.2041 96.289307
5.1424484 1301.2041 96.289307
10.285093 1301.2041 96.289307
15.559041 1293.3726 120.12427
20.74552 1293.3726 120.12427
25.712635 1301.2041 96.289307
30.855083 1301.2041 96.289307
35.997726 1301.2041 96.289307
41.140175 1301.2041 96.289307
46.282822 1301.2041 96.289307
51.42527 1301.2041 96.289307
56.567715 1301.2041 96.289307
61.710361 1301.2041 96.289307
66.852806 1301.2041 96.289307
71.995453 1301.2041 96.289307
77.795403 1293.3726 120.12427
82.981682 1293.3726 120.12427
88.168159 1293.3726 120.12427
93.354446 1293.3726 120.12427
98.540924 1293.3726 120.12427
103.7272 1293.3726 120.12427
107.99298 1301.2041 96.289307
113.13563 1301.2041 96.289307
118.27808 1301.2041 96.289307
123.42072 1301.2041 96.289307
128.56317 1301.2041 96.289307
133.70561 1301.2041 96.289307
140.03175 1293.3726 120.12427
145.21805 1293.3726 120.12427
150.40451 1293.3726 120.12427
155.59081 1293.3726 120.12427
160.7771 1293.3726 120.12427
165.96358 1293.3726 120.12427
171.14984 1293.3726 120.12427
176.33632 1293.3726 120.12427
181.52261 1293.3726 120.12427
186.70889 1293.3726 120.12427
191.89537 1293.3726 120.12427
198.81393 1285.2279 144.91235
202.26811 1293.3726 120.12427
207.45441 1293.3726 120.12427
214.50974 1285.2279 144.91235
219.74182 1285.2279 144.91235
226.93391 1277.083 169.70044
232.21156 1277.083 169.70044
237.48901 1277.083 169.70044
242.76645 1277.083 169.70044
248.04411 1277.083 169.70044
253.32158 1277.083 169.70044
260.91888 1268.625 195.44165
266.24368 1268.625 195.44165
271.56848 1268.625 195.44165
276.89346 1268.625 195.44165
282.21826 1268.625 195.44165
-209.27788 1280.4119 142.86792
-204.0459 1280.4119 142.86792
-198.81393 1280.4119 142.86792
-193.58208 1280.4119 142.86792
-188.35011 1280.4119 142.86792
-183.11813 1280.4119 142.86792
-177.88617 1280.4119 142.86792
-172.65421 1280.4119 142.86792
-167.42235 1280.4119 142.86792
-162.19038 1280.4119 142.86792
-155.59081 1288.5986 118.09766
-150.40443 1288.5986 118.09766
-145.21805 1288.5986 118.09766
-140.03175 1288.5986 118.09766
-134.84538 1288.5986 118.09766
-129.65901 1288.5986 118.09766
-124.47263 1288.5986 118.09766
-119.28625 1288.5986 118.09766
-114.09996 1288.5986 118.09766
-108.91359 1288.5986 118.09766
-102.85054 1296.4705 94.280029
-97.707985 1296.4705 94.280029
-92.565445 1296.4705 94.280029
-87.422989 1296.4705 94.280029
-82.280449 1296.4705 94.280029
-77.137901 1296.4705 94.280029
-71.995354 1296.4705 94.280029
-66.852806 1296.4705 94.280029
-61.710361 1296.4705 94.280029
-56.567814 1296.4705 94.280029
-50.986935 1304.3424 70.462402
-45.888226 1304.3424 70.462402
-40.789509 1304.3424 70.462402
-35.690891 1304.3424 70.462402
-30.592182 1304.3424 70.462402
-25.712635 1296.4705 94.280029
-20.570087 1296.4705 94.280029
-15.427542 1296.4705 94.280029
-10.285093 1296.4705 94.280029
-5.1425467 1296.4705 94.280029
0 1296.4705 94.280029
5.1424484 1296.4705 94.280029
10.285093 1296.4705 94.280029
15.559041 1288.5986 118.09766
20.570187 1296.4705 94.280029
25.712635 1296.4705 94.280029
30.855083 1296.4705 94.280029
35.997726 1296.4705 94.280029
41.140175 1296.4705 94.280029
46.282822 1296.4705 94.280029
51.42527 1296.4705 94.280029
56.567715 1296.4705 94.280029
61.710361 1296.4705 94.280029
66.852806 1296.4705 94.280029
72.609123 1288.5986 118.09766
77.795403 1288.5986 118.09766
82.981682 1288.5986 118.09766
88.168159 1288.5986 118.09766
93.354446 1288.5986 118.09766
98.540924 1288.5986 118.09766
103.7272 1288.5986 118.09766
107.99298 1296.4705 94.280029
113.13563 1296.4705 94.280029
118.27808 1296.4705 94.280029
123.42072 1296.4705 94.280029
128.56317 1296.4705 94.280029
133.70561 1296.4705 94.280029
140.03175 1288.5986 118.09766
145.21805 1288.5986 118.09766
150.40451 1288.5986 118.09766
155.59081 1288.5986 118.09766
160.7771 1288.5986 118.09766
165.96358 1288.5986 118.09766
171.14984 1288.5986 118.09766
176.33632 1288.5986 118.09766
181.52261 1288.5986 118.09766
186.70889 1288.5986 118.09766
191.89537 1288.5986 118.09766
198.81393 1280.4119 142.86792
202.26811 1288.5986 118.09766
207.45441 1288.5986 118.09766
214.50974 1280.4119 142.86792
219.74182 1280.4119 142.86792
224.97366 1280.4119 142.86792
230.20573 1280.4119 142.86792
237.48901 1272.2251 167.63818
242.76645 1272.2251 167.63818
248.04411 1272.2251 167.63818
253.32158 1272.2251 167.63818
260.91888 1263.7234 193.36108
266.24368 1263.7234 193.36108
271.56848 1263.7234 193.36108
276.89346 1263.7234 193.36108
284.72726 1255.2218 219.08423
-211.10133 1267.3671 165.57617
-204.0459 1275.5958 140.82373
-198.81393 1275.5958 140.82373
-193.58208 1275.5958 140.82373
-188.35011 1275.5958 140.82373
-183.11813 1275.5958 140.82373
-177.88617 1275.5958 140.82373
-172.65421 1275.5958 140.82373
-167.42235 1275.5958 140.82373
-162.19038 1275.5958 140.82373
-156.9584 1275.5958 140.82373
-150.40443 1283.8245 116.07129
-145.21805 1283.8245 116.07129
-140.03175 1283.8245 116.07129
-134.84538 1283.8245 116.07129
-129.65901 1283.8245 116.07129
-124.47263 1283.8245 116.07129
-119.28625 1283.8245 116.07129
-114.09996 1283.8245 116.07129
-108.91359 1283.8245 116.07129
-102.85054 1291.7368 92.270752
-97.707985 1291.7368 92.270752
-92.565445 1291.7368 92.270752
-87.422989 1291.7368 92.270752
-82.280449 1291.7368 92.270752
-77.137901 1291.7368 92.270752
-71.995354 1291.7368 92.270752
-66.852806 1291.7368 92.270752
-61.710361 1291.7368 92.270752
-56.567814 1291.7368 92.270752
-50.986935 1299.649 68.470215
-45.888226 1299.649 68.470215
-40.789509 1299.649 68.470215
-35.690891 1299.649 68.470215
-30.592182 1299.649 68.470215
-25.712635 1291.7368 92.270752
-20.570087 1291.7368 92.270752
-15.427542 1291.7368 92.270752
-10.285093 1291.7368 92.270752
-5.1425467 1291.7368 92.270752
0 1291.7368 92.270752
5.1424484 1291.7368 92.270752
10.285093 1291.7368 92.270752
15.559041 1283.8245 116.07129
20.570187 1291.7368 92.270752
25.712635 1291.7368 92.270752
30.855083 1291.7368 92.270752
35.997726 1291.7368 92.270752
41.140175 1291.7368 92.270752
46.282822 1291.7368 92.270752
51.42527 1291.7368 92.270752
56.567715 1291.7368 92.270752
61.710361 1291.7368 92.270752
66.852806 1291.7368 92.270752
72.609123 1283.8245 116.07129
77.795403 1283.8245 116.07129
82.981682 1283.8245 116.07129
88.168159 1283.8245 116.07129
93.354446 1283.8245 116.07129
98.540924 1283.8245 116.07129
102.85054 1291.7368 92.270752
107.99298 1291.7368 92.270752
113.13563 1291.7368 92.270752
118.27808 1291.7368 92.270752
123.42072 1291.7368 92.270752
128.56317 1291.7368 92.270752
133.70561 1291.7368 92.270752
138.84827 1291.7368 92.270752
145.21805 1283.8245 116.07129
150.40451 1283.8245 116.07129
154.2758 1291.7368 92.270752
159.41826 1291.7368 92.270752
165.96358 1283.8245 116.07129
169.70334 1291.7368 92.270752
174.84598 1291.7368 92.270752
179.98843 1291.7368 92.270752
186.70889 1283.8245 116.07129
191.89537 1283.8245 116.07129
197.08165 1283.8245 116.07129
204.04601 1275.5958 140.82373
209.27788 1275.5958 140.82373
214.50974 1275.5958 140.82373
219.74182 1275.5958 140.82373
224.97366 1275.5958 140.82373
230.20573 1275.5958 140.82373
237.48901 1267.3671 165.57617
242.76645 1267.3671 165.57617
248.04411 1267.3671 165.57617
253.32158 1267.3671 165.57617
260.91888 1258.8219 191.28052
266.24368 1258.8219 191.28052
271.56848 1258.8219 191.28052
276.89346 1258.8219 191.28052
282.21826 1258.8219 191.28052
-216.37889 1262.509 163.51416
-211.10133 1262.509 163.51416
-204.0459 1270.7798 138.7793
-198.81393 1270.7798 138.7793
-193.58208 1270.7798 138.7793
-188.35011 1270.7798 138.7793
-183.11813 1270.7798 138.7793
-177.88617 1270.7798 138.7793
-172.65421 1270.7798 138.7793
-167.42235 1270.7798 138.7793
-162.19038 1270.7798 138.7793
-156.9584 1270.7798 138.7793
-151.72644 1270.7798 138.7793
-145.21805 1279.0504 114.04468
-140.03175 1279.0504 114.04468
-134.84538 1279.0504 114.04468
-129.65901 1279.0504 114.04468
-124.47263 1279.0504 114.04468
-119.28625 1279.0504 114.04468
-114.09996 1279.0504 114.04468
-108.91359 1279.0504 114.04468
-102.85054 1287.0031 90.26123
-97.707985 1287.0031 90.26123
-92.565445 1287.0031 90.26123
-87.422989 1287.0031 90.26123
-82.280449 1287.0031 90.26123
-77.137901 1287.0031 90.26123
-71.995354 1287.0031 90.26123
-66.852806 1287.0031 90.26123
-61.710361 1287.0031 90.26123
-56.567814 1287.0031 90.26123
-51.42527 1287.0031 90.26123
-45.888226 1294.9556 66.478027
-40.789509 1294.9556 66.478027
-35.690891 1294.9556 66.478027
-30.592182 1294.9556 66.478027
-25.712635 1287.0031 90.26123
-20.570087 1287.0031 90.26123
-15.427542 1287.0031 90.26123
-10.285093 1287.0031 90.26123
-5.1425467 1287.0031 90.26123
0 1287.0031 90.26123
5.1424484 1287.0031 90.26123
10.285093 1287.0031 90.26123
15.559041 1279.0504 114.04468
20.74552 1279.0504 114.04468
25.712635 1287.0031 90.26123
30.855083 1287.0031 90.26123
35.997726 1287.0031 90.26123
41.140175 1287.0031 90.26123
46.282822 1287.0031 90.26123
51.42527 1287.0031 90.26123
56.567715 1287.0031 90.26123
61.710361 1287.0031 90.26123
66.852806 1287.0031 90.26123
71.995453 1287.0031 90.26123
77.137901 1287.0031 90.26123
82.28035 1287.0031 90.26123
88.168159 1279.0504 114.04468
93.354446 1279.0504 114.04468
98.540924 1279.0504 114.04468
102.85054 1287.0031 90.26123
107.99298 1287.0031 90.26123
113.13563 1287.0031 90.26123
118.27808 1287.0031 90.26123
123.42072 1287.0031 90.26123
128.56317 1287.0031 90.26123
133.70561 1287.0031 90.26123
138.84827 1287.0031 90.26123
145.21805 1279.0504 114.04468
150.40451 1279.0504 114.04468
154.2758 1287.0031 90.26123
159.41826 1287.0031 90.26123
165.96358 1279.0504 114.04468
169.70334 1287.0031 90.26123
174.84598 1287.0031 90.26123
179.98843 1287.0031 90.26123
185.13089 1287.0031 90.26123
191.89537 1279.0504 114.04468
197.08165 1279.0504 114.04468
202.26811 1279.0504 114.04468
207.45441 1279.0504 114.04468
214.50974 1270.7798 138.7793
219.74182 1270.7798 138.7793
224.97366 1270.7798 138.7793
230.20573 1270.7798 138.7793
237.48901 1262.509 163.51416
242.76645 1262.509 163.51416
248.04411 1262.509 163.51416
253.32158 1262.509 163.51416
258.59924 1262.509 163.51416
266.24368 1253.9204 189.19995
271.56848 1253.9204 189.19995
276.89346 1253.9204 189.19995
282.21826 1253.9204 189.19995
290.09964 1245.3315 214.88599
-216.37889 1257.6511 161.4519
-211.10133 1257.6511 161.4519
-205.82379 1257.6511 161.4519
-198.81393 1265.9637 136.73511
-193.58208 1265.9637 136.73511
-188.35011 1265.9637 136.73511
-183.11813 1265.9637 136.73511
-177.88617 1265.9637 136.73511
-172.65421 1265.9637 136.73511
-167.42235 1265.9637 136.73511
-162.19038 1265.9637 136.73511
-156.9584 1265.9637 136.73511
-151.72644 1265.9637 136.73511
-146.49446 1265.9637 136.73511
-141.2626 1265.9637 136.73511
-136.03064 1265.9637 136.73511
-130.79868 1265.9637 136.73511
-124.47263 1274.2764 112.01831
-119.28625 1274.2764 112.01831
-114.09996 1274.2764 112.01831
-108.91359 1274.2764 112.01831
-103.7272 1274.2764 112.01831
-97.707985 1282.2693 88.251953
-92.565445 1282.2693 88.251953
-87.422989 1282.2693 88.251953
-82.280449 1282.2693 88.251953
-77.137901 1282.2693 88.251953
-71.995354 1282.2693 88.251953
-66.852806 1282.2693 88.251953
-61.710361 1282.2693 88.251953
-56.567814 1282.2693 88.251953
-51.42527 1282.2693 88.251953
-45.888226 1290.2622 64.48584
-40.789509 1290.2622 64.48584
-35.690891 1290.2622 64.48584
-30.592182 1290.2622 64.48584
-25.712635 1282.2693 88.251953
-20.570087 1282.2693 88.251953
-15.427542 1282.2693 88.251953
-10.285093 1282.2693 88.251953
-5.1425467 1282.2693 88.251953
0 1282.2693 88.251953
5.1424484 1282.2693 88.251953
10.285093 1282.2693 88.251953
15.559041 1274.2764 112.01831
20.74552 1274.2764 112.01831
25.712635 1282.2693 88.251953
30.855083 1282.2693 88.251953
35.997726 1282.2693 88.251953
41.140175 1282.2693 88.251953
46.282822 1282.2693 88.251953
51.42527 1282.2693 88.251953
56.567715 1282.2693 88.251953
61.710361 1282.2693 88.251953
66.852806 1282.2693 88.251953
71.995453 1282.2693 88.251953
77.137901 1282.2693 88.251953
82.28035 1282.2693 88.251953
88.168159 1274.2764 112.01831
93.354446 1274.2764 112.01831
98.540924 1274.2764 112.01831
102.85054 1282.2693 88.251953
107.99298 1282.2693 88.251953
113.13563 1282.2693 88.251953
118.27808 1282.2693 88.251953
123.42072 1282.2693 88.251953
128.56317 1282.2693 88.251953
134.84529 1274.2764 112.01831
140.03175 1274.2764 112.01831
145.21805 1274.2764 112.01831
150.40451 1274.2764 112.01831
155.59081 1274.2764 112.01831
160.7771 1274.2764 112.01831
165.96358 1274.2764 112.01831
169.70334 1282.2693 88.251953
174.84598 1282.2693 88.251953
179.98843 1282.2693 88.251953
185.13089 1282.2693 88.251953
191.89537 1274.2764 112.01831
197.08165 1274.2764 112.01831
202.26811 1274.2764 112.01831
207.45441 1274.2764 112.01831
214.50974 1265.9637 136.73511
219.74182 1265.9637 136.73511
224.97366 1265.9637 136.73511
230.20573 1265.9637 136.73511
235.43761 1265.9637 136.73511
242.76645 1257.6511 161.4519
248.04411 1257.6511 161.4519
253.32158 1257.6511 161.4519
258.59924 1257.6511 161.4519
266.24368 1249.0188 187.11938
271.56848 1249.0188 187.11938
276.89346 1249.0188 187.11938
282.21826 1249.0188 187.11938
290.09964 1240.3864 212.78711
-216.37889 1252.7931 159.38989
-211.10133 1252.7931 159.38989
-205.82379 1252.7931 159.38989
-200.54623 1252.7931 159.38989
-195.26877 1252.7931 159.38989
-188.35011 1261.1477 134.69092
-183.11813 1261.1477 134.69092
-177.88617 1261.1477 134.69092
-172.65421 1261.1477 134.69092
-167.42235 1261.1477 134.69092
-162.19038 1261.1477 134.69092
-156.9584 1261.1477 134.69092
-151.72644 1261.1477 134.69092
-146.49446 1261.1477 134.69092
-141.2626 1261.1477 134.69092
-136.03064 1261.1477 134.69092
-130.79868 1261.1477 134.69092
-124.47263 1269.5023 109.99194
-119.28625 1269.5023 109.99194
-113.13563 1277.5356 86.242676
-107.99309 1277.5356 86.242676
-103.7272 1269.5023 109.99194
-97.707985 1277.5356 86.242676
-92.565445 1277.5356 86.242676
-87.422989 1277.5356 86.242676
-82.280449 1277.5356 86.242676
-77.137901 1277.5356 86.242676
-71.995354 1277.5356 86.242676
-66.852806 1277.5356 86.242676
-61.710361 1277.5356 86.242676
-56.567814 1277.5356 86.242676
-50.986935 1285.5688 62.493408
-45.888226 1285.5688 62.493408
-40.789509 1285.5688 62.493408
-35.690891 1285.5688 62.493408
-30.592182 1285.5688 62.493408
-25.712635 1277.5356 86.242676
-20.570087 1277.5356 86.242676
-15.427542 1277.5356 86.242676
-10.285093 1277.5356 86.242676
-5.1425467 1277.5356 86.242676
0 1277.5356 86.242676
5.1424484 1277.5356 86.242676
10.285093 1277.5356 86.242676
15.559041 1269.5023 109.99194
20.74552 1269.5023 109.99194
25.931801 1269.5023 109.99194
31.118082 1269.5023 109.99194
36.304562 1269.5023 109.99194
41.140175 1277.5356 86.242676
46.282822 1277.5356 86.242676
51.42527 1277.5356 86.242676
56.567715 1277.5356 86.242676
61.710361 1277.5356 86.242676
66.852806 1277.5356 86.242676
71.995453 1277.5356 86.242676
77.137901 1277.5356 86.242676
82.28035 1277.5356 86.242676
88.168159 1269.5023 109.99194
93.354446 1269.5023 109.99194
98.540924 1269.5023 109.99194
103.7272 1269.5023 109.99194
108.91348 1269.5023 109.99194
114.09996 1269.5023 109.99194
119.28625 1269.5023 109.99194
123.42072 1277.5356 86.242676
128.56317 1277.5356 86.242676
134.84529 1269.5023 109.99194
140.03175 1269.5023 109.99194
145.21805 1269.5023 109.99194
149.13335 1277.5356 86.242676
154.2758 1277.5356 86.242676
159.41826 1277.5356 86.242676
164.5609 1277.5356 86.242676
171.14984 1269.5023 109.99194
176.33632 1269.5023 109.99194
181.52261 1269.5023 109.99194
186.70889 1269.5023 109.99194
193.58208 1261.1477 134.69092
198.81393 1261.1477 134.69092
202.26811 1269.5023 109.99194
207.45441 1269.5023 109.99194
214.50974 1261.1477 134.69092
219.74182 1261.1477 134.69092
224.97366 1261.1477 134.69092
230.20573 1261.1477 134.69092
235.43761 1261.1477 134.69092
242.76645 1252.7931 159.38989
248.04411 1252.7931 159.38989
253.32158 1252.7931 159.38989
260.91888 1244.1172 185.03882
266.24368 1244.1172 185.03882
271.56848 1244.1172 185.03882
276.89346 1244.1172 185.03882
282.21826 1244.1172 185.03882
290.09964 1235.4412 210.68799
-221.65645 1247.9351 157.32788
-216.37889 1247.9351 157.32788
-211.10133 1247.9351 157.32788
-205.82379 1247.9351 157.32788
-200.54623 1247.9351 157.32788
-195.26877 1247.9351 157.32788
-188.35011 1256.3318 132.64648
-183.11813 1256.3318 132.64648
-177.88617 1256.3318 132.64648
-172.65421 1256.3318 132.64648
-167.42235 1256.3318 132.64648
-162.19038 1256.3318 132.64648
-156.9584 1256.3318 132.64648
-151.72644 1256.3318 132.64648
-146.49446 1256.3318 132.64648
-141.2626 1256.3318 132.64648
-136.03064 1256.3318 132.64648
-130.79868 1256.3318 132.64648
-124.47263 1264.7283 107.96533
-119.28625 1264.7283 107.96533
-113.13563 1272.8019 84.233398
-107.99309 1272.8019 84.233398
-102.85054 1272.8019 84.233398
-97.707985 1272.8019 84.233398
-92.565445 1272.8019 84.233398
-87.422989 1272.8019 84.233398
-82.280449 1272.8019 84.233398
-77.137901 1272.8019 84.233398
-71.995354 1272.8019 84.233398
-66.852806 1272.8019 84.233398
-61.710361 1272.8019 84.233398
-56.567814 1272.8019 84.233398
-50.986935 1280.8755 60.501221
-45.888226 1280.8755 60.501221
-40.789509 1280.8755 60.501221
-35.690891 1280.8755 60.501221
-30.592182 1280.8755 60.501221
-25.712635 1272.8019 84.233398
-20.570087 1272.8019 84.233398
-15.427542 1272.8019 84.233398
-10.285093 1272.8019 84.233398
-5.1425467 1272.8019 84.233398
0 1272.8019 84.233398
5.1424484 1272.8019 84.233398
10.285093 1272.8019 84.233398
15.559041 1264.7283 107.96533
20.74552 1264.7283 107.96533
25.931801 1264.7283 107.96533
31.118082 1264.7283 107.96533
36.304562 1264.7283 107.96533
41.490841 1264.7283 107.96533
46.282822 1272.8019 84.233398
51.42527 1272.8019 84.233398
56.567715 1272.8019 84.233398
61.710361 1272.8019 84.233398
66.852806 1272.8019 84.233398
71.995453 1272.8019 84.233398
77.137901 1272.8019 84.233398
82.28035 1272.8019 84.233398
88.168159 1264.7283 107.96533
93.354446 1264.7283 107.96533
98.540924 1264.7283 107.96533
103.7272 1264.7283 107.96533
108.91348 1264.7283 107.96533
114.09996 1264.7283 107.96533
119.28625 1264.7283 107.96533
124.47272 1264.7283 107.96533
129.65901 1264.7283 107.96533
134.84529 1264.7283 107.96533
140.03175 1264.7283 107.96533
145.21805 1264.7283 107.96533
149.13335 1272.8019 84.233398
154.2758 1272.8019 84.233398
159.41826 1272.8019 84.233398
164.5609 1272.8019 84.233398
171.14984 1264.7283 107.96533
176.33632 1264.7283 107.96533
181.52261 1264.7283 107.96533
186.70889 1264.7283 107.96533
193.58208 1256.3318 132.64648
198.81393 1256.3318 132.64648
204.04601 1256.3318 132.64648
209.27788 1256.3318 132.64648
214.50974 1256.3318 132.64648
219.74182 1256.3318 132.64648
226.93391 1247.9351 157.32788
232.21156 1247.9351 157.32788
237.48901 1247.9351 157.32788
242.76645 1247.9351 157.32788
248.04411 1247.9351 157.32788
255.59389 1239.2156 182.95825
260.91888 1239.2156 182.95825
266.24368 1239.2156 182.95825
271.56848 1239.2156 182.95825
276.89346 1239.2156 182.95825
282.21826 1239.2156 182.95825
290.09964 1230.4961 208.58887
295.47174 1230.4961 208.58887
-221.65645 1243.0771 155.26562
-216.37889 1243.0771 155.26562
-211.10133 1243.0771 155.26562
-205.82379 1243.0771 155.26562
-200.54623 1243.0771 155.26562
-195.26877 1243.0771 155.26562
-189.99123 1243.0771 155.26562
-183.11813 1251.5156 130.60229
-177.88617 1251.5156 130.60229
-172.65421 1251.5156 130.60229
-167.42235 1251.5156 130.60229
-162.19038 1251.5156 130.60229
-156.9584 1251.5156 130.60229
-151.72644 1251.5156 130.60229
-146.49446 1251.5156 130.60229
-141.2626 1251.5156 130.60229
-136.03064 1251.5156 130.60229
-130.79868 1251.5156 130.60229
-124.47263 1259.9541 105.93896
-119.28625 1259.9541 105.93896
-114.09996 1259.9541 105.93896
-108.91359 1259.9541 105.93896
-102.85054 1268.0681 82.223877
-97.707985 1268.0681 82.223877
-92.565445 1268.0681 82.223877
-87.422989 1268.0681 82.223877
-82.280449 1268.0681 82.223877
-77.137901 1268.0681 82.223877
-71.995354 1268.0681 82.223877
-66.852806 1268.0681 82.223877
-61.710361 1268.0681 82.223877
-56.567814 1268.0681 82.223877
-51.42527 1268.0681 82.223877
-46.282722 1268.0681 82.223877
-41.140175 1268.0681 82.223877
-35.997726 1268.0681 82.223877
-30.855181 1268.0681 82.223877
-25.712635 1268.0681 82.223877
-20.570087 1268.0681 82.223877
-15.427542 1268.0681 82.223877
-10.285093 1268.0681 82.223877
-5.1425467 1268.0681 82.223877
0 1268.0681 82.223877
5.1424484 1268.0681 82.223877
10.285093 1268.0681 82.223877
15.559041 1259.9541 105.93896
20.74552 1259.9541 105.93896
25.931801 1259.9541 105.93896
31.118082 1259.9541 105.93896
36.304562 1259.9541 105.93896
41.490841 1259.9541 105.93896
46.282822 1268.0681 82.223877
51.42527 1268.0681 82.223877
56.567715 1268.0681 82.223877
61.710361 1268.0681 82.223877
66.852806 1268.0681 82.223877
71.995453 1268.0681 82.223877
77.137901 1268.0681 82.223877
