ply
format ascii 1.0
comment PCL generated
element vertex 1591
property float x
property float y
property float z
element camera 0
property float view_px
property float view_py
property float view_pz
property float x_axisx
property float x_axisy
property float x_axisz
property float y_axisx
property float y_axisy
property float y_axisz
property float z_axisx
property float z_axisy
property float z_axisz
property float focal
property float scalex
property float scaley
property float centerx
property float centery
property int viewportx
property int viewporty
property float k1
property float k2
end_header
-17.357956 653.63306 220.10596
-11.572044 653.63306 220.10596
-5.8438826 637.96936 249.30713
0 637.96936 249.30713
5.843771 637.96936 249.30713
11.687765 637.96936 249.30713
17.531536 637.96936 249.30713
23.37553 637.96936 249.30713
28.93 653.63306 220.10596
34.715912 653.63306 220.10596
40.502045 653.63306 220.10596
46.28796 653.63306 220.10596
52.074093 653.63306 220.10596
57.316467 668.34741 192.67456
63.048027 668.34741 192.67456
68.779808 668.34741 192.67456
74.51136 668.34741 192.67456
80.243141 668.34741 192.67456
85.159401 683.06177 165.24341
90.836609 683.06177 165.24341
96.514038 683.06177 165.24341
101.24444 697.30151 138.69702
106.86926 697.30151 138.69702
112.49387 697.30151 138.69702
118.11848 697.30151 138.69702
123.7433 697.30151 138.69702
129.3679 697.30151 138.69702
134.99274 697.30151 138.69702
140.61734 697.30151 138.69702
146.24194 697.30151 138.69702
151.86678 697.30151 138.69702
157.49138 697.30151 138.69702
163.1162 697.30151 138.69702
168.7408 697.30151 138.69702
174.36542 697.30151 138.69702
179.99023 697.30151 138.69702
185.61484 697.30151 138.69702
191.23967 697.30151 138.69702
195.02327 711.54126 112.15063
200.59528 711.54126 112.15063
204.28618 725.30615 86.489014
209.80733 725.30615 86.489014
215.3287 725.30615 86.489014
220.84987 725.30615 86.489014
226.37105 725.30615 86.489014
231.89241 725.30615 86.489014
237.41357 725.30615 86.489014
242.93494 725.30615 86.489014
248.45612 725.30615 86.489014
253.97728 725.30615 86.489014
259.49866 725.30615 86.489014
265.01981 725.30615 86.489014
-121.50603 648.30713 217.84521
-114.63293 663.07153 190.43506
-108.90127 663.07153 190.43506
-104.14796 648.30713 217.84521
-98.362045 648.30713 217.84521
-91.706375 663.07153 190.43506
-85.974701 663.07153 190.43506
-80.243034 663.07153 190.43506
-74.51136 663.07153 190.43506
-68.779808 663.07153 190.43506
-63.048141 663.07153 190.43506
-57.316467 663.07153 190.43506
-51.584797 663.07153 190.43506
-45.85313 663.07153 190.43506
-40.121571 663.07153 190.43506
-34.389904 663.07153 190.43506
-29.219301 632.59009 247.02368
-23.375418 632.59009 247.02368
-17.531536 632.59009 247.02368
-11.687765 632.59009 247.02368
-5.8438826 632.59009 247.02368
0 617.34961 275.31787
5.8998771 617.34961 275.31787
11.799978 617.34961 275.31787
17.699856 617.34961 275.31787
23.599957 617.34961 275.31787
29.219301 632.59009 247.02368
35.063072 632.59009 247.02368
40.502045 648.30713 217.84521
46.28796 648.30713 217.84521
52.074093 648.30713 217.84521
57.860001 648.30713 217.84521
63.048027 663.07153 190.43506
68.779808 663.07153 190.43506
74.51136 663.07153 190.43506
80.243141 663.07153 190.43506
85.159401 677.83594 163.02515
90.836609 677.83594 163.02515
95.619835 692.12402 136.49951
101.24444 692.12402 136.49951
106.86926 692.12402 136.49951
112.49387 692.12402 136.49951
118.11848 692.12402 136.49951
123.7433 692.12402 136.49951
129.3679 692.12402 136.49951
134.99274 692.12402 136.49951
140.61734 692.12402 136.49951
146.24194 692.12402 136.49951
151.86678 692.12402 136.49951
157.49138 692.12402 136.49951
163.1162 692.12402 136.49951
168.7408 692.12402 136.49951
174.36542 692.12402 136.49951
179.99023 692.12402 136.49951
183.87904 706.41211 109.97339
189.45126 706.41211 109.97339
195.02327 706.41211 109.97339
200.59528 706.41211 109.97339
204.28618 720.224 84.331787
209.80733 720.224 84.331787
215.3287 720.224 84.331787
220.84987 720.224 84.331787
226.37105 720.224 84.331787
231.89241 720.224 84.331787
237.41357 720.224 84.331787
242.93494 720.224 84.331787
248.45612 720.224 84.331787
253.97728 720.224 84.331787
-121.50603 642.98096 215.58447
-114.63293 657.79541 188.19556
-108.90127 657.79541 188.19556
-103.16959 657.79541 188.19556
-98.362045 642.98096 215.58447
-92.576027 642.98096 215.58447
-86.790001 642.98096 215.58447
-81.003975 642.98096 215.58447
-75.217957 642.98096 215.58447
-69.432045 642.98096 215.58447
-63.646023 642.98096 215.58447
-57.860001 642.98096 215.58447
-52.073982 642.98096 215.58447
-46.28796 642.98096 215.58447
-40.502045 642.98096 215.58447
-34.716022 642.98096 215.58447
-29.219301 627.21082 244.74023
-23.375418 627.21082 244.74023
-17.699856 611.91858 273.01245
-11.799978 611.91858 273.01245
-5.8999891 611.91858 273.01245
0 611.91858 273.01245
5.8998771 611.91858 273.01245
11.799978 611.91858 273.01245
17.699856 611.91858 273.01245
23.599957 611.91858 273.01245
29.499834 611.91858 273.01245
35.063072 627.21082 244.74023
40.502045 642.98096 215.58447
46.28796 642.98096 215.58447
52.074093 642.98096 215.58447
57.860001 642.98096 215.58447
63.048027 657.79541 188.19556
68.779808 657.79541 188.19556
74.51136 657.79541 188.19556
80.243141 657.79541 188.19556
85.159401 672.60986 160.80688
90.836609 672.60986 160.80688
95.619835 686.94641 134.30151
101.24444 686.94641 134.30151
106.86926 686.94641 134.30151
112.49387 686.94641 134.30151
118.11848 686.94641 134.30151
123.7433 686.94641 134.30151
129.3679 686.94641 134.30151
134.99274 686.94641 134.30151
140.61734 686.94641 134.30151
146.24194 686.94641 134.30151
151.86678 686.94641 134.30151
157.49138 686.94641 134.30151
163.1162 686.94641 134.30151
168.7408 686.94641 134.30151
174.36542 686.94641 134.30151
178.30704 701.28296 107.79614
183.87904 701.28296 107.79614
189.45126 701.28296 107.79614
195.02327 701.28296 107.79614
200.59528 701.28296 107.79614
204.28618 715.1416 82.174561
209.80733 715.1416 82.174561
215.3287 715.1416 82.174561
220.84987 715.1416 82.174561
226.37105 715.1416 82.174561
229.75684 729.00037 56.55249
235.22717 729.00037 56.55249
242.93494 715.1416 82.174561
246.16801 729.00037 56.55249
251.63832 729.00037 56.55249
-120.36461 652.51953 185.95605
-114.63293 652.51953 185.95605
-108.90127 652.51953 185.95605
-103.16959 652.51953 185.95605
-98.362045 637.65503 213.32373
-92.576027 637.65503 213.32373
-86.790001 637.65503 213.32373
-81.003975 637.65503 213.32373
-74.51136 652.51953 185.95605
-68.779808 652.51953 185.95605
-63.048141 652.51953 185.95605
-57.316467 652.51953 185.95605
-51.584797 652.51953 185.95605
-45.85313 652.51953 185.95605
-40.502045 637.65503 213.32373
-34.716022 637.65503 213.32373
-29.219301 621.83154 242.45703
-23.599844 606.48779 270.70728
-17.699856 606.48779 270.70728
-11.799978 606.48779 270.70728
-5.8999891 606.48779 270.70728
0 606.48779 270.70728
5.8998771 606.48779 270.70728
11.799978 606.48779 270.70728
17.699856 606.48779 270.70728
23.599957 606.48779 270.70728
29.499834 606.48779 270.70728
35.063072 621.83154 242.45703
40.502045 637.65503 213.32373
46.28796 637.65503 213.32373
52.074093 637.65503 213.32373
57.316467 652.51953 185.95605
63.048027 652.51953 185.95605
68.779808 652.51953 185.95605
74.51136 652.51953 185.95605
79.482201 667.38403 158.58838
85.159401 667.38403 158.58838
89.99501 681.76892 132.104
95.619835 681.76892 132.104
100.29764 696.15381 105.61914
105.86987 696.15381 105.61914
111.44187 696.15381 105.61914
117.01388 696.15381 105.61914
123.7433 681.76892 132.104
129.3679 681.76892 132.104
134.99274 681.76892 132.104
140.61734 681.76892 132.104
146.24194 681.76892 132.104
151.86678 681.76892 132.104
157.49138 681.76892 132.104
163.1162 681.76892 132.104
168.7408 681.76892 132.104
174.36542 681.76892 132.104
178.30704 696.15381 105.61914
183.87904 696.15381 105.61914
189.45126 696.15381 105.61914
195.02327 696.15381 105.61914
200.59528 696.15381 105.61914
204.28618 710.05933 80.01709
209.80733 710.05933 80.01709
215.3287 710.05933 80.01709
220.84987 710.05933 80.01709
226.37105 710.05933 80.01709
229.75684 723.96484 54.415039
235.22717 723.96484 54.415039
242.93494 710.05933 80.01709
246.16801 723.96484 54.415039
251.63832 723.96484 54.415039
257.10886 723.96484 54.415039
262.57916 723.96484 54.415039
-114.63293 647.24341 183.71655
-108.90127 647.24341 183.71655
-103.16959 647.24341 183.71655
-98.362045 632.32898 211.06299
-92.576027 632.32898 211.06299
-86.790001 632.32898 211.06299
-81.003975 632.32898 211.06299
-74.51136 647.24341 183.71655
-68.779808 647.24341 183.71655
-63.048141 647.24341 183.71655
-57.316467 647.24341 183.71655
-51.584797 647.24341 183.71655
-45.85313 647.24341 183.71655
-40.502045 632.32898 211.06299
-34.716022 632.32898 211.06299
-29.499834 601.05664 268.40186
-23.599844 601.05664 268.40186
-17.699856 601.05664 268.40186
-11.799978 601.05664 268.40186
-5.8999891 601.05664 268.40186
0 601.05664 268.40186
5.9594893 584.69885 298.39502
11.919207 584.69885 298.39502
17.878695 584.69885 298.39502
23.838413 584.69885 298.39502
29.499834 601.05664 268.40186
35.399712 601.05664 268.40186
40.502045 632.32898 211.06299
46.28796 632.32898 211.06299
51.584908 647.24341 183.71655
57.316467 647.24341 183.71655
63.048027 647.24341 183.71655
68.779808 647.24341 183.71655
74.51136 647.24341 183.71655
79.482201 662.15796 156.37012
85.159401 662.15796 156.37012
89.99501 676.59131 129.90625
95.619835 676.59131 129.90625
100.29764 691.02466 103.44189
105.86987 691.02466 103.44189
111.44187 691.02466 103.44189
117.01388 691.02466 103.44189
123.7433 676.59131 129.90625
129.3679 676.59131 129.90625
134.99274 676.59131 129.90625
140.61734 676.59131 129.90625
146.24194 676.59131 129.90625
151.86678 676.59131 129.90625
157.49138 676.59131 129.90625
163.1162 676.59131 129.90625
168.7408 676.59131 129.90625
174.36542 676.59131 129.90625
179.99023 676.59131 129.90625
183.87904 691.02466 103.44189
189.45126 691.02466 103.44189
196.86427 676.59131 129.90625
200.59528 691.02466 103.44189
206.16751 691.02466 103.44189
209.80733 704.97693 77.859863
215.3287 704.97693 77.859863
220.84987 704.97693 77.859863
226.37105 704.97693 77.859863
231.89241 704.97693 77.859863
237.41357 704.97693 77.859863
242.93494 704.97693 77.859863
248.45612 704.97693 77.859863
253.97728 704.97693 77.859863
259.49866 704.97693 77.859863
-114.63293 641.96753 181.47705
-108.90127 641.96753 181.47705
-103.16959 641.96753 181.47705
-98.362045 627.00305 208.80225
-92.576027 627.00305 208.80225
-86.790001 627.00305 208.80225
-81.003975 627.00305 208.80225
-75.217957 627.00305 208.80225
-69.432045 627.00305 208.80225
-63.048141 641.96753 181.47705
-57.316467 641.96753 181.47705
-51.584797 641.96753 181.47705
-45.85313 641.96753 181.47705
-40.502045 627.00305 208.80225
-35.063183 611.073 237.89014
-29.499834 595.62585 266.09668
-23.599844 595.62585 266.09668
-17.699856 595.62585 266.09668
-11.799978 595.62585 266.09668
-5.9596033 579.21313 296.06641
0 579.21313 296.06641
5.9594893 579.21313 296.06641
11.919207 579.21313 296.06641
17.878695 579.21313 296.06641
23.838413 579.21313 296.06641
29.797901 579.21313 296.06641
35.399712 595.62585 266.09668
41.299816 595.62585 266.09668
47.199688 595.62585 266.09668
51.584908 641.96753 181.47705
57.316467 641.96753 181.47705
63.048027 641.96753 181.47705
68.779808 641.96753 181.47705
74.51136 641.96753 181.47705
79.482201 656.93201 154.15186
85.159401 656.93201 154.15186
89.99501 671.41382 127.7085
95.619835 671.41382 127.7085
100.29764 685.89563 101.26465
105.86987 685.89563 101.26465
111.44187 685.89563 101.26465
117.01388 685.89563 101.26465
123.7433 671.41382 127.7085
129.3679 671.41382 127.7085
134.99274 671.41382 127.7085
140.61734 671.41382 127.7085
146.24194 671.41382 127.7085
151.86678 671.41382 127.7085
157.49138 671.41382 127.7085
163.1162 671.41382 127.7085
168.7408 671.41382 127.7085
174.36542 671.41382 127.7085
178.30704 685.89563 101.26465
183.87904 685.89563 101.26465
189.45126 685.89563 101.26465
196.86427 671.41382 127.7085
200.59528 685.89563 101.26465
204.28618 699.89465 75.702637
209.80733 699.89465 75.702637
215.3287 699.89465 75.702637
220.84987 699.89465 75.702637
226.37105 699.89465 75.702637
231.89241 699.89465 75.702637
237.41357 699.89465 75.702637
242.93494 699.89465 75.702637
246.16801 713.8938 50.140137
251.63832 713.8938 50.140137
257.10886 713.8938 50.140137
-114.63293 636.69141 179.23755
-108.90127 636.69141 179.23755
-103.16959 636.69141 179.23755
-98.362045 621.67688 206.54126
-92.576027 621.67688 206.54126
-86.790001 621.67688 206.54126
-81.003975 621.67688 206.54126
-75.217957 621.67688 206.54126
-69.432045 621.67688 206.54126
-63.646023 621.67688 206.54126
-57.860001 621.67688 206.54126
-52.073982 621.67688 206.54126
-46.750835 605.6936 235.60669
-40.907066 605.6936 235.60669
-35.063183 605.6936 235.60669
-29.499834 590.19482 263.79126
-23.599844 590.19482 263.79126
-17.699856 590.19482 263.79126
-11.799978 590.19482 263.79126
-5.9596033 573.72717 293.73779
0 573.72717 293.73779
5.9594893 573.72717 293.73779
11.919207 573.72717 293.73779
17.878695 573.72717 293.73779
23.838413 573.72717 293.73779
29.797901 573.72717 293.73779
35.757389 573.72717 293.73779
41.717106 573.72717 293.73779
47.676598 573.72717 293.73779
51.584908 636.69141 179.23755
57.316467 636.69141 179.23755
63.048027 636.69141 179.23755
68.779808 636.69141 179.23755
73.804771 651.70605 151.93359
79.482201 651.70605 151.93359
85.159401 651.70605 151.93359
89.99501 666.23621 125.51074
95.619835 666.23621 125.51074
100.29764 680.76636 99.087402
105.86987 680.76636 99.087402
111.44187 680.76636 99.087402
117.01388 680.76636 99.087402
123.7433 666.23621 125.51074
129.3679 666.23621 125.51074
134.99274 666.23621 125.51074
140.61734 666.23621 125.51074
146.24194 666.23621 125.51074
151.86678 666.23621 125.51074
157.49138 666.23621 125.51074
163.1162 666.23621 125.51074
168.7408 666.23621 125.51074
174.36542 666.23621 125.51074
178.30704 680.76636 99.087402
182.2011 694.81226 73.545166
187.72247 694.81226 73.545166
193.24364 694.81226 73.545166
198.7648 694.81226 73.545166
204.28618 694.81226 73.545166
209.80733 694.81226 73.545166
215.3287 694.81226 73.545166
220.84987 694.81226 73.545166
228.45575 680.76636 99.087402
231.89241 694.81226 73.545166
237.41357 694.81226 73.545166
242.93494 694.81226 73.545166
246.16801 708.85815 48.002686
251.63832 708.85815 48.002686
257.10886 708.85815 48.002686
-98.362045 616.35095 204.28052
-92.576027 616.35095 204.28052
-86.790001 616.35095 204.28052
-81.003975 616.35095 204.28052
-75.217957 616.35095 204.28052
-69.432045 616.35095 204.28052
-64.282486 600.31445 233.32349
-58.438602 600.31445 233.32349
-52.594719 600.31445 233.32349
-46.750835 600.31445 233.32349
-40.907066 600.31445 233.32349
-35.399826 584.76392 261.48608
-29.797901 568.24146 291.40918
-23.838299 568.24146 291.40918
-17.878695 568.24146 291.40918
-11.919207 568.24146 291.40918
-5.9596033 568.24146 291.40918
0 568.24146 291.40918
5.9594893 568.24146 291.40918
11.919207 568.24146 291.40918
17.878695 568.24146 291.40918
23.838413 568.24146 291.40918
29.797901 568.24146 291.40918
35.757389 568.24146 291.40918
41.717106 568.24146 291.40918
47.676598 568.24146 291.40918
51.095726 646.4801 149.71533
56.772934 646.4801 149.71533
62.450146 646.4801 149.71533
68.127563 646.4801 149.71533
73.804771 646.4801 149.71533
79.482201 646.4801 149.71533
85.159401 646.4801 149.71533
89.99501 661.05872 123.31299
95.619835 661.05872 123.31299
100.29764 675.63733 96.9104
105.86987 675.63733 96.9104
111.44187 675.63733 96.9104
117.01388 675.63733 96.9104
122.58611 675.63733 96.9104
128.15811 675.63733 96.9104
133.73033 675.63733 96.9104
139.30234 675.63733 96.9104
144.87434 675.63733 96.9104
151.86678 661.05872 123.31299
157.49138 661.05872 123.31299
163.1162 661.05872 123.31299
168.7408 661.05872 123.31299
174.36542 661.05872 123.31299
178.30704 675.63733 96.9104
182.2011 689.72998 71.387939
187.72247 689.72998 71.387939
193.24364 689.72998 71.387939
196.93433 703.82275 45.865234
202.40485 703.82275 45.865234
207.87517 703.82275 45.865234
213.34569 703.82275 45.865234
220.84987 689.72998 71.387939
226.37105 689.72998 71.387939
231.89241 689.72998 71.387939
237.41357 689.72998 71.387939
242.93494 689.72998 71.387939
248.45612 689.72998 71.387939
-99.345665 594.93506 231.04004
-92.576027 611.02478 202.01978
-86.790001 611.02478 202.01978
-81.003975 611.02478 202.01978
-75.970139 594.93506 231.04004
-70.126366 594.93506 231.04004
-64.282486 594.93506 231.04004
-58.438602 594.93506 231.04004
-52.594719 594.93506 231.04004
-46.750835 594.93506 231.04004
-41.299816 579.33301 259.18066
-35.399826 579.33301 259.18066
-29.797901 562.75562 289.08057
-23.838299 562.75562 289.08057
-17.878695 562.75562 289.08057
-11.919207 562.75562 289.08057
-5.9596033 562.75562 289.08057
0 562.75562 289.08057
5.9594893 562.75562 289.08057
11.919207 562.75562 289.08057
18.057533 546.17822 318.97998
24.076866 546.17822 318.97998
30.402802 529.1134 349.75903
36.851467 512.04858 380.53809
42.993538 512.04858 380.53809
45.418304 641.25403 147.49707
51.095726 641.25403 147.49707
56.246937 655.8811 121.11523
61.871544 655.8811 121.11523
67.496368 655.8811 121.11523
73.804771 641.25403 147.49707
79.482201 641.25403 147.49707
84.370399 655.8811 121.11523
89.99501 655.8811 121.11523
95.619835 655.8811 121.11523
100.29764 670.50818 94.733154
105.86987 670.50818 94.733154
111.44187 670.50818 94.733154
117.01388 670.50818 94.733154
122.58611 670.50818 94.733154
128.15811 670.50818 94.733154
133.73033 670.50818 94.733154
139.30234 670.50818 94.733154
144.87434 670.50818 94.733154
151.86678 655.8811 121.11523
157.49138 655.8811 121.11523
161.59081 670.50818 94.733154
167.16281 670.50818 94.733154
174.36542 655.8811 121.11523
178.30704 670.50818 94.733154
182.2011 684.64758 69.230469
187.72247 684.64758 69.230469
193.24364 684.64758 69.230469
196.93433 698.78711 43.727783
202.40485 698.78711 43.727783
207.87517 698.78711 43.727783
213.34569 698.78711 43.727783
218.81601 698.78711 43.727783
226.37105 684.64758 69.230469
231.89241 684.64758 69.230469
237.41357 684.64758 69.230469
242.93494 684.64758 69.230469
248.45612 684.64758 69.230469
-92.576027 605.69873 199.75903
-86.790001 605.69873 199.75903
-81.003975 605.69873 199.75903
-75.970139 589.55566 228.75659
-70.126366 589.55566 228.75659
-64.282486 589.55566 228.75659
-58.438602 589.55566 228.75659
-52.594719 589.55566 228.75659
-46.750835 589.55566 228.75659
-41.299816 573.90186 256.87549
-35.399826 573.90186 256.87549
-29.797901 557.26965 286.75195
-23.838299 557.26965 286.75195
-17.878695 557.26965 286.75195
-11.919207 557.26965 286.75195
-5.9596033 557.26965 286.75195
0 557.26965 286.75195
5.9594893 557.26965 286.75195
11.919207 557.26965 286.75195
18.057533 540.63745 316.62817
24.322334 523.51611 347.38306
30.402802 523.51611 347.38306
36.851467 506.39478 378.13818
42.993538 506.39478 378.13818
44.997505 650.70349 118.91748
50.622326 650.70349 118.91748
56.246937 650.70349 118.91748
61.871544 650.70349 118.91748
67.496368 650.70349 118.91748
73.120972 650.70349 118.91748
78.745796 650.70349 118.91748
84.370399 650.70349 118.91748
89.99501 650.70349 118.91748
95.619835 650.70349 118.91748
100.29764 665.37891 92.555908
105.86987 665.37891 92.555908
111.44187 665.37891 92.555908
117.01388 665.37891 92.555908
122.58611 665.37891 92.555908
128.15811 665.37891 92.555908
133.73033 665.37891 92.555908
139.30234 665.37891 92.555908
144.87434 665.37891 92.555908
151.86678 650.70349 118.91748
157.49138 650.70349 118.91748
161.59081 665.37891 92.555908
167.16281 665.37891 92.555908
174.36542 650.70349 118.91748
179.99023 650.70349 118.91748
182.2011 679.56519 67.073242
187.72247 679.56519 67.073242
193.24364 679.56519 67.073242
196.93433 693.75159 41.590332
200.58839 707.44861 16.986572
206.00961 707.44861 16.986572
213.34569 693.75159 41.590332
218.81601 693.75159 41.590332
224.28632 693.75159 41.590332
231.89241 679.56519 67.073242
237.41357 679.56519 67.073242
242.93494 679.56519 67.073242
248.45612 679.56519 67.073242
-93.501785 584.17639 226.47339
-87.657906 584.17639 226.47339
-81.814018 584.17639 226.47339
-75.970139 584.17639 226.47339
-70.126366 584.17639 226.47339
-64.282486 584.17639 226.47339
-58.438602 584.17639 226.47339
-52.594719 584.17639 226.47339
-47.199688 568.47107 254.57007
-41.299816 568.47107 254.57007
-35.399826 568.47107 254.57007
-29.797901 551.78394 284.42334
-23.838299 551.78394 284.42334
-17.878695 551.78394 284.42334
-11.919207 551.78394 284.42334
-5.9596033 551.78394 284.42334
0 551.78394 284.42334
5.9594893 551.78394 284.42334
12.038433 535.0968 314.27637
18.057533 535.0968 314.27637
24.322334 517.91895 345.00732
30.709635 500.74121 375.73828
36.851467 500.74121 375.73828
42.993538 500.74121 375.73828
44.997505 645.526 116.71973
50.622326 645.526 116.71973
56.246937 645.526 116.71973
61.871544 645.526 116.71973
67.496368 645.526 116.71973
73.120972 645.526 116.71973
78.745796 645.526 116.71973
84.370399 645.526 116.71973
89.99501 645.526 116.71973
95.619835 645.526 116.71973
100.29764 660.24988 90.378662
105.86987 660.24988 90.378662
111.44187 660.24988 90.378662
117.01388 660.24988 90.378662
122.58611 660.24988 90.378662
128.15811 660.24988 90.378662
134.99274 645.526 116.71973
140.61734 645.526 116.71973
146.24194 645.526 116.71973
151.86678 645.526 116.71973
157.49138 645.526 116.71973
161.59081 660.24988 90.378662
167.16281 660.24988 90.378662
174.36542 645.526 116.71973
178.30704 660.24988 90.378662
182.2011 674.48291 64.916016
187.72247 674.48291 64.916016
191.464 688.71606 39.452881
196.93433 688.71606 39.452881
200.58839 702.45837 14.868164
206.00961 702.45837 14.868164
213.34569 688.71606 39.452881
218.81601 688.71606 39.452881
224.28632 688.71606 39.452881
229.75684 688.71606 39.452881
-93.501785 578.79712 224.18994
-87.657906 578.79712 224.18994
-81.814018 578.79712 224.18994
-75.970139 578.79712 224.18994
-70.126366 578.79712 224.18994
-64.282486 578.79712 224.18994
-58.438602 578.79712 224.18994
-52.594719 578.79712 224.18994
-46.750835 578.79712 224.18994
-41.299816 563.04004 252.26489
-35.399826 563.04004 252.26489
-29.797901 546.2981 282.09473
-23.838299 546.2981 282.09473
-17.878695 546.2981 282.09473
-11.919207 546.2981 282.09473
-5.9596033 546.2981 282.09473
0 529.55603 311.92432
6.0191016 529.55603 311.92432
12.038433 529.55603 311.92432
18.241634 512.32178 342.63135
24.567801 495.0874 373.33838
30.709635 495.0874 373.33838
36.851467 495.0874 373.33838
42.993538 495.0874 373.33838
44.997505 640.34839 114.52197
50.622326 640.34839 114.52197
56.246937 640.34839 114.52197
61.871544 640.34839 114.52197
68.127563 625.57605 140.84204
73.804771 625.57605 140.84204
79.482201 625.57605 140.84204
85.159401 625.57605 140.84204
89.99501 640.34839 114.52197
95.619835 640.34839 114.52197
101.24444 640.34839 114.52197
106.86926 640.34839 114.52197
112.49387 640.34839 114.52197
118.11848 640.34839 114.52197
123.7433 640.34839 114.52197
129.3679 640.34839 114.52197
134.99274 640.34839 114.52197
140.61734 640.34839 114.52197
146.24194 640.34839 114.52197
151.86678 640.34839 114.52197
156.01857 655.12061 88.201416
161.59081 655.12061 88.201416
167.16281 655.12061 88.201416
174.36542 640.34839 114.52197
178.30704 655.12061 88.201416
182.2011 669.40051 62.758545
187.72247 669.40051 62.758545
191.464 683.68054 37.31543
196.93433 683.68054 37.31543
202.40485 683.68054 37.31543
-87.657906 573.41785 221.90649
-81.003975 589.7207 192.97681
-75.217957 589.7207 192.97681
-70.126366 573.41785 221.90649
-64.282486 573.41785 221.90649
-58.438602 573.41785 221.90649
-52.594719 573.41785 221.90649
-46.750835 573.41785 221.90649
-40.907066 573.41785 221.90649
-35.399826 557.60913 249.95947
-29.797901 540.81226 279.76611
-23.838299 540.81226 279.76611
-17.878695 540.81226 279.76611
-11.919207 540.81226 279.76611
-6.0192165 524.01538 309.57251
0 524.01538 309.57251
6.0804672 506.72461 340.25537
12.161167 506.72461 340.25537
18.425734 489.43384 370.93872
24.567801 489.43384 370.93872
30.709635 489.43384 370.93872
36.851467 489.43384 370.93872
42.993538 489.43384 370.93872
45.418304 620.35022 138.62378
51.095726 620.35022 138.62378
56.772934 620.35022 138.62378
62.450146 620.35022 138.62378
68.127563 620.35022 138.62378
73.804771 620.35022 138.62378
79.482201 620.35022 138.62378
84.370399 635.1709 112.32422
89.99501 635.1709 112.32422
95.619835 635.1709 112.32422
100.29764 649.99158 86.024414
105.86987 649.99158 86.024414
112.49387 635.1709 112.32422
118.11848 635.1709 112.32422
123.7433 635.1709 112.32422
129.3679 635.1709 112.32422
134.99274 635.1709 112.32422
140.61734 635.1709 112.32422
146.24194 635.1709 112.32422
151.86678 635.1709 112.32422
156.01857 649.99158 86.024414
161.59081 649.99158 86.024414
167.16281 649.99158 86.024414
172.73482 649.99158 86.024414
178.30704 649.99158 86.024414
183.87904 649.99158 86.024414
187.72247 664.31824 60.601318
193.24364 664.31824 60.601318
198.7648 664.31824 60.601318
204.28618 664.31824 60.601318
-81.003975 584.39453 190.71582
-75.217957 584.39453 190.71582
-70.126366 568.03845 219.62305
-64.282486 568.03845 219.62305
-58.438602 568.03845 219.62305
-52.594719 568.03845 219.62305
-46.750835 568.03845 219.62305
-40.907066 568.03845 219.62305
-35.399826 552.1781 247.6543
-29.797901 535.32642 277.4375
-23.838299 535.32642 277.4375
-17.878695 535.32642 277.4375
-12.038433 518.47461 307.2207
-6.0192165 518.47461 307.2207
0 501.12744 337.87964
6.0804672 501.12744 337.87964
12.2839 483.78015 368.53882
18.425734 483.78015 368.53882
24.567801 483.78015 368.53882
30.709635 483.78015 368.53882
36.851467 483.78015 368.53882
45.418304 615.12415 136.40552
51.095726 615.12415 136.40552
56.772934 615.12415 136.40552
62.450146 615.12415 136.40552
68.127563 615.12415 136.40552
73.804771 615.12415 136.40552
78.745796 629.99329 110.12646
84.370399 629.99329 110.12646
89.99501 629.99329 110.12646
94.725632 644.86243 83.847168
100.29764 644.86243 83.847168
105.86987 644.86243 83.847168
112.49387 629.99329 110.12646
118.11848 629.99329 110.12646
123.7433 629.99329 110.12646
129.3679 629.99329 110.12646
134.99274 629.99329 110.12646
140.61734 629.99329 110.12646
146.24194 629.99329 110.12646
151.86678 629.99329 110.12646
157.49138 629.99329 110.12646
163.1162 629.99329 110.12646
168.7408 629.99329 110.12646
172.73482 644.86243 83.847168
178.30704 644.86243 83.847168
183.87904 644.86243 83.847168
189.45126 644.86243 83.847168
195.02327 644.86243 83.847168
200.59528 644.86243 83.847168
-81.814018 562.6593 217.33984
-75.970139 562.6593 217.33984
-70.126366 562.6593 217.33984
-64.282486 562.6593 217.33984
-58.438602 562.6593 217.33984
-52.594719 562.6593 217.33984
-46.750835 562.6593 217.33984
-41.299816 546.74731 245.34888
-35.399826 546.74731 245.34888
-29.797901 529.8407 275.10889
-24.076752 512.93408 304.8689
-18.057533 512.93408 304.8689
-12.038433 512.93408 304.8689
-6.0805836 495.53027 335.50391
0 495.53027 335.50391
6.1418328 478.12646 366.13892
12.2839 478.12646 366.13892
18.425734 478.12646 366.13892
24.820282 460.22534 397.64941
31.025234 460.22534 397.64941
37.230186 460.22534 397.64941
45.418304 609.89819 134.18726
51.095726 609.89819 134.18726
56.772934 609.89819 134.18726
62.450146 609.89819 134.18726
68.127563 609.89819 134.18726
73.804771 609.89819 134.18726
78.745796 624.8158 107.92871
84.370399 624.8158 107.92871
89.99501 624.8158 107.92871
94.725632 639.73328 81.669922
100.29764 639.73328 81.669922
105.86987 639.73328 81.669922
112.49387 624.8158 107.92871
118.11848 624.8158 107.92871
123.7433 624.8158 107.92871
129.3679 624.8158 107.92871
134.99274 624.8158 107.92871
140.61734 624.8158 107.92871
146.24194 624.8158 107.92871
151.86678 624.8158 107.92871
157.49138 624.8158 107.92871
163.1162 624.8158 107.92871
168.7408 624.8158 107.92871
174.36542 624.8158 107.92871
179.99023 624.8158 107.92871
185.61484 624.8158 107.92871
191.23967 624.8158 107.92871
196.86427 624.8158 107.92871
202.48888 624.8158 107.92871
-81.814018 557.27991 215.0564
-75.970139 557.27991 215.0564
-70.126366 557.27991 215.0564
-64.282486 557.27991 215.0564
-58.438602 557.27991 215.0564
-52.594719 557.27991 215.0564
-46.750835 557.27991 215.0564
-41.299816 541.31628 243.0437
-35.399826 541.31628 243.0437
-30.095968 507.39331 302.51685
-24.322218 489.93298 333.12793
-18.241634 489.93298 333.12793
-12.161167 489.93298 333.12793
-6.0805836 489.93298 333.12793
0 472.47278 363.73926
6.1418328 472.47278 363.73926
12.2839 472.47278 363.73926
18.425734 472.47278 363.73926
24.820282 454.51343 395.22485
31.025234 454.51343 395.22485
37.230186 454.51343 395.22485
43.435375 454.51343 395.22485
45.418304 604.67212 131.96899
51.095726 604.67212 131.96899
56.772934 604.67212 131.96899
62.450146 604.67212 131.96899
68.127563 604.67212 131.96899
73.804771 604.67212 131.96899
79.482201 604.67212 131.96899
84.370399 619.63818 105.73096
89.99501 619.63818 105.73096
95.619835 619.63818 105.73096
101.24444 619.63818 105.73096
106.86926 619.63818 105.73096
112.49387 619.63818 105.73096
118.11848 619.63818 105.73096
123.7433 619.63818 105.73096
129.3679 619.63818 105.73096
134.99274 619.63818 105.73096
140.61734 619.63818 105.73096
146.24194 619.63818 105.73096
151.86678 619.63818 105.73096
157.49138 619.63818 105.73096
163.1162 619.63818 105.73096
168.7408 619.63818 105.73096
174.36542 619.63818 105.73096
181.67343 604.67212 131.96899
187.35065 604.67212 131.96899
193.02808 604.67212 131.96899
198.70528 604.67212 131.96899
204.38248 604.67212 131.96899
-82.59951 535.88538 240.73828
-76.699524 535.88538 240.73828
-70.799652 535.88538 240.73828
-64.282486 551.90063 212.77295
-58.438602 551.90063 212.77295
-53.099682 535.88538 240.73828
-47.199688 535.88538 240.73828
-41.299816 535.88538 240.73828
-35.399826 535.88538 240.73828
-30.095968 501.85266 300.16504
-24.322218 484.33594 330.75195
-18.241634 484.33594 330.75195
-12.161167 484.33594 330.75195
-6.0805836 484.33594 330.75195
0 466.81921 361.33936
6.1418328 466.81921 361.33936
12.2839 466.81921 361.33936
18.615093 448.80176 392.80054
24.820282 448.80176 392.80054
31.025234 448.80176 392.80054
37.230186 448.80176 392.80054
43.435375 448.80176 392.80054
49.640327 448.80176 392.80054
51.095726 599.44629 129.75073
56.772934 599.44629 129.75073
62.450146 599.44629 129.75073
68.127563 599.44629 129.75073
73.804771 599.44629 129.75073
79.482201 599.44629 129.75073
84.370399 614.46069 103.5332
89.99501 614.46069 103.5332
95.619835 614.46069 103.5332
101.24444 614.46069 103.5332
106.86926 614.46069 103.5332
112.49387 614.46069 103.5332
118.11848 614.46069 103.5332
123.7433 614.46069 103.5332
129.3679 614.46069 103.5332
134.99274 614.46069 103.5332
140.61734 614.46069 103.5332
146.24194 614.46069 103.5332
151.86678 614.46069 103.5332
157.49138 614.46069 103.5332
163.1162 614.46069 103.5332
170.3188 599.44629 129.75073
175.99602 599.44629 129.75073
181.67343 599.44629 129.75073
187.35065 599.44629 129.75073
194.87608 583.9314 156.84229
200.60764 583.9314 156.84229
-82.59951 530.45435 238.43311
-76.699524 530.45435 238.43311
-70.799652 530.45435 238.43311
-64.282486 546.52124 210.48975
-58.438602 546.52124 210.48975
-53.099682 530.45435 238.43311
-47.199688 530.45435 238.43311
-41.299816 530.45435 238.43311
-35.399826 530.45435 238.43311
-30.095968 496.31189 297.81299
-24.322218 478.73865 328.37622
-18.241634 478.73865 328.37622
-12.2839 461.16541 358.93945
-6.1419501 461.16541 358.93945
0 461.16541 358.93945
6.1418328 461.16541 358.93945
12.2839 461.16541 358.93945
18.615093 443.08997 390.37598
24.820282 443.08997 390.37598
31.025234 443.08997 390.37598
37.230186 443.08997 390.37598
43.435375 443.08997 390.37598
51.095726 594.22021 127.53223
56.772934 594.22021 127.53223
62.450146 594.22021 127.53223
68.127563 594.22021 127.53223
73.804771 594.22021 127.53223
79.482201 594.22021 127.53223
85.159401 594.22021 127.53223
89.99501 609.28308 101.33545
95.619835 609.28308 101.33545
101.24444 609.28308 101.33545
106.86926 609.28308 101.33545
112.49387 609.28308 101.33545
118.11848 609.28308 101.33545
123.7433 609.28308 101.33545
129.3679 609.28308 101.33545
134.99274 609.28308 101.33545
140.61734 609.28308 101.33545
146.24194 609.28308 101.33545
151.86678 609.28308 101.33545
157.49138 609.28308 101.33545
163.1162 609.28308 101.33545
170.3188 594.22021 127.53223
175.99602 594.22021 127.53223
181.67343 594.22021 127.53223
187.35065 594.22021 127.53223
194.87608 578.65527 154.60254
200.60764 578.65527 154.60254
-75.970139 541.14209 208.2063
-70.126366 541.14209 208.2063
-64.282486 541.14209 208.2063
-58.438602 541.14209 208.2063
-53.099682 525.02344 236.12769
-47.199688 525.02344 236.12769
-41.299816 525.02344 236.12769
-35.399826 525.02344 236.12769
-30.095968 490.77124 295.46118
-24.076752 490.77124 295.46118
-18.241634 473.1416 326.00024
-12.2839 455.51184 356.53955
-6.1419501 455.51184 356.53955
0 455.51184 356.53955
6.1418328 455.51184 356.53955
12.2839 455.51184 356.53955
18.615093 437.37817 387.95142
24.820282 437.37817 387.95142
31.025234 437.37817 387.95142
37.230186 437.37817 387.95142
43.435375 437.37817 387.95142
51.584908 573.37939 152.36304
57.316467 573.37939 152.36304
62.450146 588.99438 125.31396
68.127563 588.99438 125.31396
73.804771 588.99438 125.31396
79.482201 588.99438 125.31396
84.370399 604.10559 99.137695
89.99501 604.10559 99.137695
95.619835 604.10559 99.137695
101.24444 604.10559 99.137695
106.86926 604.10559 99.137695
112.49387 604.10559 99.137695
118.11848 604.10559 99.137695
123.7433 604.10559 99.137695
129.3679 604.10559 99.137695
134.99274 604.10559 99.137695
140.61734 604.10559 99.137695
146.24194 604.10559 99.137695
151.86678 604.10559 99.137695
157.49138 604.10559 99.137695
164.6416 588.99438 125.31396
170.3188 588.99438 125.31396
175.99602 588.99438 125.31396
181.67343 588.99438 125.31396
187.35065 588.99438 125.31396
194.87608 573.37939 152.36304
200.60764 573.37939 152.36304
-75.970139 535.7627 205.92285
-70.126366 535.7627 205.92285
-64.282486 535.7627 205.92285
-58.438602 535.7627 205.92285
-53.099682 519.59253 233.82251
-47.199688 519.59253 233.82251
-41.299816 519.59253 233.82251
-35.399826 519.59253 233.82251
-30.095968 485.23047 293.10938
-24.076752 485.23047 293.10938
-18.241634 467.54431 323.62451
-12.2839 449.85815 354.13989
-6.1419501 449.85815 354.13989
0 449.85815 354.13989
6.1418328 449.85815 354.13989
12.2839 449.85815 354.13989
18.615093 431.66638 385.52686
24.820282 431.66638 385.52686
31.025234 431.66638 385.52686
37.619423 412.96948 417.78589
43.889488 412.96948 417.78589
51.584908 568.10327 150.12354
57.316467 568.10327 150.12354
62.450146 583.76831 123.0957
68.127563 583.76831 123.0957
73.804771 583.76831 123.0957
79.482201 583.76831 123.0957
84.370399 598.92798 96.939941
89.99501 598.92798 96.939941
95.619835 598.92798 96.939941
101.24444 598.92798 96.939941
106.86926 598.92798 96.939941
112.49387 598.92798 96.939941
118.11848 598.92798 96.939941
123.7433 598.92798 96.939941
129.3679 598.92798 96.939941
134.99274 598.92798 96.939941
140.61734 598.92798 96.939941
146.24194 598.92798 96.939941
151.86678 598.92798 96.939941
157.49138 598.92798 96.939941
164.6416 583.76831 123.0957
170.3188 583.76831 123.0957
175.99602 583.76831 123.0957
181.67343 583.76831 123.0957
189.1443 568.10327 150.12354
194.87608 568.10327 150.12354
-76.699524 514.16162 231.51709
-70.799652 514.16162 231.51709
-64.899658 514.16162 231.51709
-58.999668 514.16162 231.51709
-53.099682 514.16162 231.51709
-47.199688 514.16162 231.51709
-41.717106 496.92578 261.13745
-35.757504 496.92578 261.13745
-30.402802 461.94727 321.24854
-24.322218 461.94727 321.24854
-18.241634 461.94727 321.24854
-12.2839 444.20459 351.73999
-6.1419501 444.20459 351.73999
0 444.20459 351.73999
6.1418328 444.20459 351.73999
12.2839 444.20459 351.73999
18.615093 425.95471 383.10254
24.820282 425.95471 383.10254
31.025234 425.95471 383.10254
37.619423 407.19812 415.33594
56.772934 578.54248 120.87744
62.450146 578.54248 120.87744
67.496368 593.75049 94.742188
73.120972 593.75049 94.742188
78.745796 593.75049 94.742188
84.370399 593.75049 94.742188
89.99501 593.75049 94.742188
95.619835 593.75049 94.742188
101.24444 593.75049 94.742188
107.86867 578.54248 120.87744
113.54587 578.54248 120.87744
119.22308 578.54248 120.87744
124.90051 578.54248 120.87744
130.57771 578.54248 120.87744
134.99274 593.75049 94.742188
140.61734 593.75049 94.742188
146.24194 593.75049 94.742188
151.86678 593.75049 94.742188
158.96417 578.54248 120.87744
164.6416 578.54248 120.87744
170.3188 578.54248 120.87744
175.99602 578.54248 120.87744
181.67343 578.54248 120.87744
189.1443 562.82739 147.88403
194.87608 562.82739 147.88403
-76.699524 508.73059 229.21191
-70.799652 508.73059 229.21191
-64.899658 508.73059 229.21191
-58.999668 508.73059 229.21191
-53.099682 508.73059 229.21191
-47.199688 508.73059 229.21191
-41.717106 491.43994 258.80884
-35.757504 491.43994 258.80884
-30.402802 456.34998 318.8728
-24.322218 456.34998 318.8728
-18.425734 438.55078 349.34009
-12.2839 438.55078 349.34009
-6.1419501 438.55078 349.34009
0 438.55078 349.34009
6.2049522 420.24292 380.67798
12.410141 420.24292 380.67798
18.615093 420.24292 380.67798
24.820282 420.24292 380.67798
31.025234 420.24292 380.67798
37.619423 401.42651 412.88599
56.772934 573.31641 118.65918
62.450146 573.31641 118.65918
67.496368 588.57288 92.544434
73.120972 588.57288 92.544434
78.745796 588.57288 92.544434
84.370399 588.57288 92.544434
89.99501 588.57288 92.544434
95.619835 588.57288 92.544434
101.24444 588.57288 92.544434
107.86867 573.31641 118.65918
113.54587 573.31641 118.65918
118.11848 588.57288 92.544434
123.7433 588.57288 92.544434
130.57771 573.31641 118.65918
134.99274 588.57288 92.544434
140.61734 588.57288 92.544434
146.24194 588.57288 92.544434
151.86678 588.57288 92.544434
158.96417 573.31641 118.65918
164.6416 573.31641 118.65918
170.3188 573.31641 118.65918
175.99602 573.31641 118.65918
181.67343 573.31641 118.65918
189.1443 557.55127 145.64453
194.87608 557.55127 145.64453
-71.515007 485.9541 256.48022
-65.555405 485.9541 256.48022
-58.999668 503.29968 226.90649
-53.099682 503.29968 226.90649
-47.676598 485.9541 256.48022
-41.717106 485.9541 256.48022
-36.115185 468.60852 286.05371
-30.402802 450.75281 316.49683
-24.322218 450.75281 316.49683
-18.425734 432.89722 346.94043
-12.2839 432.89722 346.94043
-6.1419501 432.89722 346.94043
0 414.53113 378.25342
6.2049522 414.53113 378.25342
12.410141 414.53113 378.25342
18.615093 414.53113 378.25342
25.079777 395.65515 410.43628
31.349602 395.65515 410.43628
37.619423 395.65515 410.43628
43.889488 395.65515 410.43628
51.095726 568.09045 116.44092
56.772934 568.09045 116.44092
62.450146 568.09045 116.44092
68.127563 568.09045 116.44092
73.804771 568.09045 116.44092
79.482201 568.09045 116.44092
84.370399 583.39539 90.34668
89.99501 583.39539 90.34668
95.619835 583.39539 90.34668
101.24444 583.39539 90.34668
107.86867 568.09045 116.44092
113.54587 568.09045 116.44092
118.11848 583.39539 90.34668
123.7433 583.39539 90.34668
129.3679 583.39539 90.34668
134.99274 583.39539 90.34668
140.61734 583.39539 90.34668
146.24194 583.39539 90.34668
151.86678 583.39539 90.34668
157.49138 583.39539 90.34668
164.6416 568.09045 116.44092
170.3188 568.09045 116.44092
175.99602 568.09045 116.44092
181.67343 568.09045 116.44092
189.1443 552.27539 143.40503
-58.999668 497.86865 224.60132
-53.099682 497.86865 224.60132
-47.676598 480.46826 254.15161
-41.717106 480.46826 254.15161
-36.115185 463.06775 283.7019
-30.402802 445.15552 314.12109
-24.322218 445.15552 314.12109
-18.425734 427.24341 344.54053
-12.2839 427.24341 344.54053
-6.1419501 427.24341 344.54053
0 408.81934 375.82886
6.2049522 408.81934 375.82886
12.410141 408.81934 375.82886
18.615093 408.81934 375.82886
25.079777 389.88354 407.98633
31.349602 389.88354 407.98633
37.619423 389.88354 407.98633
43.889488 389.88354 407.98633
51.584908 546.99927 141.16553
57.316467 546.99927 141.16553
62.450146 562.86438 114.22266
68.127563 562.86438 114.22266
73.804771 562.86438 114.22266
79.482201 562.86438 114.22266
84.370399 578.21777 88.148926
89.99501 578.21777 88.148926
95.619835 578.21777 88.148926
101.24444 578.21777 88.148926
107.86867 562.86438 114.22266
112.49387 578.21777 88.148926
118.11848 578.21777 88.148926
123.7433 578.21777 88.148926
129.3679 578.21777 88.148926
134.99274 578.21777 88.148926
140.61734 578.21777 88.148926
146.24194 578.21777 88.148926
151.86678 578.21777 88.148926
157.49138 578.21777 88.148926
164.6416 562.86438 114.22266
170.3188 562.86438 114.22266
175.99602 562.86438 114.22266
181.67343 562.86438 114.22266
187.35065 562.86438 114.22266
-60.191936 457.52698 281.34985
-54.172718 457.52698 281.34985
-48.153503 457.52698 281.34985
-42.134399 457.52698 281.34985
-36.115185 457.52698 281.34985
-30.402802 439.55835 311.74512
-24.322218 439.55835 311.74512
-18.425734 421.5896 342.14062
-12.2839 421.5896 342.14062
-6.1419501 421.5896 342.14062
0 403.10754 373.4043
6.2049522 403.10754 373.4043
12.410141 403.10754 373.4043
18.615093 403.10754 373.4043
24.820282 403.10754 373.4043
31.349602 384.11206 405.53662
37.619423 384.11206 405.53662
43.889488 384.11206 405.53662
51.584908 541.72327 138.92578
57.316467 541.72327 138.92578
63.048027 541.72327 138.92578
68.779808 541.72327 138.92578
73.804771 557.63843 112.00415
79.482201 557.63843 112.00415
84.370399 573.04016 85.951172
89.99501 573.04016 85.951172
95.619835 573.04016 85.951172
101.24444 573.04016 85.951172
106.86926 573.04016 85.951172
112.49387 573.04016 85.951172
118.11848 573.04016 85.951172
123.7433 573.04016 85.951172
129.3679 573.04016 85.951172
134.99274 573.04016 85.951172
140.61734 573.04016 85.951172
146.24194 573.04016 85.951172
151.86678 573.04016 85.951172
157.49138 573.04016 85.951172
163.1162 573.04016 85.951172
170.3188 557.63843 112.00415
175.99602 557.63843 112.00415
181.67343 557.63843 112.00415
187.35065 557.63843 112.00415
-60.805603 433.96118 309.36914
-54.725021 433.96118 309.36914
-48.644436 433.96118 309.36914
-42.563965 433.96118 309.36914
-36.483383 433.96118 309.36914
-30.709635 415.93604 339.74072
-24.567682 415.93604 339.74072
-18.425734 415.93604 339.74072
-12.2839 415.93604 339.74072
-6.1419501 415.93604 339.74072
0 397.39575 370.97998
6.2049522 397.39575 370.97998
12.410141 397.39575 370.97998
18.615093 397.39575 370.97998
24.820282 397.39575 370.97998
31.349602 378.34058 403.08667
37.619423 378.34058 403.08667
43.889488 378.34058 403.08667
50.692326 358.77051 436.06128
51.584908 536.44727 136.68628
57.316467 536.44727 136.68628
63.048027 536.44727 136.68628
68.779808 536.44727 136.68628
74.51136 536.44727 136.68628
79.482201 552.41248 109.78613
84.370399 567.86267 83.753662
89.99501 567.86267 83.753662
94.725632 583.31274 57.720947
100.29764 583.31274 57.720947
105.86987 583.31274 57.720947
111.44187 583.31274 57.720947
117.01388 583.31274 57.720947
122.58611 583.31274 57.720947
128.15811 583.31274 57.720947
133.73033 583.31274 57.720947
139.30234 583.31274 57.720947
146.24194 567.86267 83.753662
151.86678 567.86267 83.753662
157.49138 567.86267 83.753662
163.1162 567.86267 83.753662
170.3188 552.41248 109.78613
175.99602 552.41248 109.78613
181.67343 552.41248 109.78613
187.35065 552.41248 109.78613
-66.886185 428.36389 306.99341
-60.805603 428.36389 306.99341
-54.725021 428.36389 306.99341
-48.644436 428.36389 306.99341
-42.563965 428.36389 306.99341
-36.483383 428.36389 306.99341
-30.709635 410.28235 337.34082
-24.567682 410.28235 337.34082
-18.425734 410.28235 337.34082
-12.2839 410.28235 337.34082
-6.1419501 410.28235 337.34082
0 391.68396 368.55542
6.2049522 391.68396 368.55542
12.410141 391.68396 368.55542
18.615093 391.68396 368.55542
25.079777 372.56909 400.63672
31.349602 372.56909 400.63672
37.619423 372.56909 400.63672
44.355877 352.9375 433.58545
50.692326 352.9375 433.58545
57.316467 531.17114 134.44678
63.048027 531.17114 134.44678
68.779808 531.17114 134.44678
73.804771 547.1864 107.56763
79.482201 547.1864 107.56763
84.370399 562.68506 81.555664
89.99501 562.68506 81.555664
94.725632 578.18359 55.543701
100.29764 578.18359 55.543701
105.86987 578.18359 55.543701
111.44187 578.18359 55.543701
117.01388 578.18359 55.543701
122.58611 578.18359 55.543701
128.15811 578.18359 55.543701
133.73033 578.18359 55.543701
139.30234 578.18359 55.543701
146.24194 562.68506 81.555664
151.86678 562.68506 81.555664
157.49138 562.68506 81.555664
163.1162 562.68506 81.555664
170.3188 547.1864 107.56763
175.99602 547.1864 107.56763
181.67343 547.1864 107.56763
187.35065 547.1864 107.56763
193.02808 547.1864 107.56763
-73.703171 404.62878 334.94116
-66.886185 422.76685 304.61768
-60.805603 422.76685 304.61768
-54.172718 440.90503 274.29419
-48.153503 440.90503 274.29419
-42.563965 422.76685 304.61768
-36.483383 422.76685 304.61768
-30.709635 404.62878 334.94116
-24.567682 404.62878 334.94116
-18.425734 404.62878 334.94116
-12.2839 404.62878 334.94116
-6.2050705 385.97229 366.13086
0 385.97229 366.13086
6.2049522 385.97229 366.13086
12.410141 385.97229 366.13086
18.615093 385.97229 366.13086
25.079777 366.79761 398.18701
31.349602 366.79761 398.18701
37.619423 366.79761 398.18701
44.355877 347.10474 431.10962
50.692326 347.10474 431.10962
57.316467 525.89526 132.20728
63.048027 525.89526 132.20728
68.127563 541.96045 105.34937
73.804771 541.96045 105.34937
79.482201 541.96045 105.34937
84.370399 557.50757 79.358154
89.99501 557.50757 79.358154
94.725632 573.05444 53.366455
100.29764 573.05444 53.366455
105.86987 573.05444 53.366455
111.44187 573.05444 53.366455
117.01388 573.05444 53.366455
122.58611 573.05444 53.366455
128.15811 573.05444 53.366455
133.73033 573.05444 53.366455
139.30234 573.05444 53.366455
146.24194 557.50757 79.358154
151.86678 557.50757 79.358154
157.49138 557.50757 79.358154
163.1162 557.50757 79.358154
170.3188 541.96045 105.34937
175.99602 541.96045 105.34937
181.67343 541.96045 105.34937
187.35065 541.96045 105.34937
193.02808 541.96045 105.34937
-73.703171 398.9751 332.54126
-67.561218 398.9751 332.54126
-60.805603 417.16956 302.2417
-54.172718 435.36426 271.94238
-48.153503 435.36426 271.94238
-42.563965 417.16956 302.2417
-36.483383 417.16956 302.2417
-30.709635 398.9751 332.54126
-24.567682 398.9751 332.54126
-18.425734 398.9751 332.54126
-12.2839 398.9751 332.54126
-6.2050705 380.26038 363.7063
0 380.26038 363.7063
6.2049522 380.26038 363.7063
12.410141 380.26038 363.7063
18.615093 380.26038 363.7063
25.079777 361.02612 395.73706
31.349602 361.02612 395.73706
37.619423 361.02612 395.73706
44.355877 341.27185 428.63379
50.692326 341.27185 428.63379
57.316467 520.61926 129.96777
63.048027 520.61926 129.96777
68.127563 536.7345 103.1311
73.804771 536.7345 103.1311
79.482201 536.7345 103.1311
84.370399 552.32983 77.1604
89.99501 552.32983 77.1604
94.725632 567.92529 51.189209
100.29764 567.92529 51.189209
105.86987 567.92529 51.189209
111.44187 567.92529 51.189209
117.01388 567.92529 51.189209
122.58611 567.92529 51.189209
128.15811 567.92529 51.189209
133.73033 567.92529 51.189209
139.30234 567.92529 51.189209
144.87434 567.92529 51.189209
151.86678 552.32983 77.1604
157.49138 552.32983 77.1604
163.1162 552.32983 77.1604
170.3188 536.7345 103.1311
175.99602 536.7345 103.1311
181.67343 536.7345 103.1311
187.35065 536.7345 103.1311
194.87608 520.61926 129.96777
-74.460609 374.54871 361.28174
-67.561218 393.32141 330.14136
-61.41927 393.32141 330.14136
-55.277321 393.32141 330.14136
-48.644436 411.57251 299.86572
-42.563965 411.57251 299.86572
-36.851585 393.32141 330.14136
-31.025234 374.54871 361.28174
-24.820164 374.54871 361.28174
-18.615093 374.54871 361.28174
-12.410141 374.54871 361.28174
-6.2050705 374.54871 361.28174
0 374.54871 361.28174
6.2049522 374.54871 361.28174
12.410141 374.54871 361.28174
18.809711 355.25464 393.28735
25.079777 355.25464 393.28735
31.349602 355.25464 393.28735
38.019184 335.43921 426.15796
44.355877 335.43921 426.15796
51.786407 294.76514 493.62891
64.73307 294.76514 493.62891
62.450146 531.50854 100.91284
68.127563 531.50854 100.91284
73.804771 531.50854 100.91284
78.745796 547.15234 74.962646
84.370399 547.15234 74.962646
89.99501 547.15234 74.962646
