ply
format ascii 1.0
comment PCL generated
element vertex 1596
property float x
property float y
property float z
element camera 0
property float view_px
property float view_py
property float view_pz
property float x_axisx
property float x_axisy
property float x_axisz
property float y_axisx
property float y_axisy
property float y_axisz
property float z_axisx
property float z_axisy
property float z_axisz
property float focal
property float scalex
property float scaley
property float centerx
property float centery
property int viewportx
property int viewporty
property float k1
property float k2
end_header
-15.427542 1443.2158 156.56982
-10.37276 1436.5947 180.91846
-5.1863799 1436.5947 180.91846
0 1436.5947 180.91846
5.1862807 1436.5947 180.91846
10.463933 1429.7089 206.24072
15.695801 1429.7089 206.24072
20.927866 1429.7089 206.24072
26.159735 1429.7089 206.24072
31.391602 1429.7089 206.24072
36.623669 1429.7089 206.24072
41.855534 1429.7089 206.24072
47.087601 1429.7089 206.24072
52.319469 1429.7089 206.24072
58.052788 1422.8229 231.56323
63.330441 1422.8229 231.56323
68.607895 1422.8229 231.56323
73.885544 1422.8229 231.56323
79.163002 1422.8229 231.56323
-104.63894 1424.8928 204.19653
-99.406967 1424.8928 204.19653
-94.175003 1424.8928 204.19653
-88.943138 1424.8928 204.19653
-82.981789 1431.8206 178.89185
-77.795403 1431.8206 178.89185
-72.609024 1431.8206 178.89185
-67.422646 1431.8206 178.89185
-62.236362 1431.8206 178.89185
-57.04998 1431.8206 178.89185
-51.863602 1431.8206 178.89185
-46.677223 1431.8206 178.89185
-41.490841 1431.8206 178.89185
-35.997726 1438.4821 154.5603
-30.855181 1438.4821 154.5603
-25.712635 1438.4821 154.5603
-20.570087 1438.4821 154.5603
-15.427542 1438.4821 154.5603
-10.37276 1431.8206 178.89185
-5.1863799 1431.8206 178.89185
0 1431.8206 178.89185
5.1862807 1431.8206 178.89185
10.37276 1431.8206 178.89185
15.559041 1431.8206 178.89185
20.927866 1424.8928 204.19653
26.159735 1424.8928 204.19653
31.118082 1431.8206 178.89185
36.304562 1431.8206 178.89185
41.855534 1424.8928 204.19653
47.087601 1424.8928 204.19653
52.319469 1424.8928 204.19653
57.551338 1424.8928 204.19653
63.330441 1417.9648 229.50122
68.607895 1417.9648 229.50122
73.885544 1417.9648 229.50122
79.163002 1417.9648 229.50122
84.44046 1417.9648 229.50122
-94.175003 1420.0768 202.15234
-88.943138 1420.0768 202.15234
-83.711174 1420.0768 202.15234
-77.795403 1427.0466 176.86548
-72.609024 1427.0466 176.86548
-68.015266 1420.0768 202.15234
-62.236362 1427.0466 176.86548
-57.04998 1427.0466 176.86548
-51.863602 1427.0466 176.86548
-46.677223 1427.0466 176.86548
-41.490841 1427.0466 176.86548
-36.304562 1427.0466 176.86548
-30.855181 1433.7484 152.55103
-25.712635 1433.7484 152.55103
-20.570087 1433.7484 152.55103
-15.427542 1433.7484 152.55103
-10.463933 1420.0768 202.15234
-5.1863799 1427.0466 176.86548
0 1427.0466 176.86548
5.1862807 1427.0466 176.86548
10.37276 1427.0466 176.86548
15.559041 1427.0466 176.86548
20.74552 1427.0466 176.86548
25.931801 1427.0466 176.86548
31.118082 1427.0466 176.86548
36.304562 1427.0466 176.86548
41.490841 1427.0466 176.86548
46.677322 1427.0466 176.86548
51.863602 1427.0466 176.86548
57.049881 1427.0466 176.86548
62.783401 1420.0768 202.15234
68.607895 1413.1069 227.43896
73.885544 1413.1069 227.43896
79.163002 1413.1069 227.43896
85.197891 1405.869 253.69824
90.522888 1405.869 253.69824
-88.943138 1415.2607 200.10791
-83.711174 1415.2607 200.10791
-78.479202 1415.2607 200.10791
-73.247231 1415.2607 200.10791
-68.015266 1415.2607 200.10791
-62.783401 1415.2607 200.10791
-57.551434 1415.2607 200.10791
-52.319469 1415.2607 200.10791
-46.677223 1422.2725 174.83887
-41.490841 1422.2725 174.83887
-36.304562 1422.2725 174.83887
-31.118181 1422.2725 174.83887
-25.712635 1429.0146 150.54175
-20.570087 1429.0146 150.54175
-15.559041 1422.2725 174.83887
-10.37276 1422.2725 174.83887
-5.1863799 1422.2725 174.83887
0 1422.2725 174.83887
5.1862807 1422.2725 174.83887
10.37276 1422.2725 174.83887
15.559041 1422.2725 174.83887
20.74552 1422.2725 174.83887
25.931801 1422.2725 174.83887
31.118082 1422.2725 174.83887
36.304562 1422.2725 174.83887
41.490841 1422.2725 174.83887
46.677322 1422.2725 174.83887
51.863602 1422.2725 174.83887
57.049881 1422.2725 174.83887
62.783401 1415.2607 200.10791
68.015266 1415.2607 200.10791
73.885544 1408.2489 225.37695
79.163002 1408.2489 225.37695
85.197891 1400.9675 251.61768
90.522888 1400.9675 251.61768
95.847679 1400.9675 251.61768
-73.885452 1403.3909 223.31494
-68.607895 1403.3909 223.31494
-62.783401 1410.4447 198.06372
-57.551434 1410.4447 198.06372
-52.319469 1410.4447 198.06372
-47.087502 1410.4447 198.06372
-41.855534 1410.4447 198.06372
-36.304562 1417.4984 172.8125
-31.118181 1417.4984 172.8125
-25.712635 1424.281 148.53247
-20.570087 1424.281 148.53247
-15.559041 1417.4984 172.8125
-10.37276 1417.4984 172.8125
-5.1863799 1417.4984 172.8125
0 1417.4984 172.8125
5.1862807 1417.4984 172.8125
10.37276 1417.4984 172.8125
15.559041 1417.4984 172.8125
20.74552 1417.4984 172.8125
25.712635 1424.281 148.53247
30.855083 1424.281 148.53247
35.997726 1424.281 148.53247
41.140175 1424.281 148.53247
46.677322 1417.4984 172.8125
51.863602 1417.4984 172.8125
57.049881 1417.4984 172.8125
62.783401 1410.4447 198.06372
68.015266 1410.4447 198.06372
73.885544 1403.3909 223.31494
79.163002 1403.3909 223.31494
84.44046 1403.3909 223.31494
89.718109 1403.3909 223.31494
94.99556 1403.3909 223.31494
100.27322 1403.3909 223.31494
-62.783401 1405.6287 196.01929
-57.551434 1405.6287 196.01929
-52.319469 1405.6287 196.01929
-47.087502 1405.6287 196.01929
-41.855534 1405.6287 196.01929
-36.304562 1412.7244 170.78613
-31.118181 1412.7244 170.78613
-25.931801 1412.7244 170.78613
-20.74542 1412.7244 170.78613
-15.559041 1412.7244 170.78613
-10.463933 1405.6287 196.01929
-5.1863799 1412.7244 170.78613
0 1412.7244 170.78613
5.1424484 1419.5472 146.52295
10.285093 1419.5472 146.52295
15.427542 1419.5472 146.52295
20.570187 1419.5472 146.52295
25.712635 1419.5472 146.52295
30.855083 1419.5472 146.52295
35.997726 1419.5472 146.52295
41.140175 1419.5472 146.52295
46.282822 1419.5472 146.52295
51.863602 1412.7244 170.78613
57.049881 1412.7244 170.78613
62.236362 1412.7244 170.78613
68.015266 1405.6287 196.01929
73.247337 1405.6287 196.01929
79.163002 1398.533 221.25269
84.44046 1398.533 221.25269
89.718109 1398.533 221.25269
94.99556 1398.533 221.25269
100.27322 1398.533 221.25269
106.49747 1391.1643 247.45654
-62.783401 1400.8127 193.9751
-57.551434 1400.8127 193.9751
-52.319469 1400.8127 193.9751
-47.087502 1400.8127 193.9751
-41.855534 1400.8127 193.9751
-36.304562 1407.9503 168.75952
-31.118181 1407.9503 168.75952
-25.931801 1407.9503 168.75952
-20.74542 1407.9503 168.75952
-15.559041 1407.9503 168.75952
-10.463933 1400.8127 193.9751
-5.1863799 1407.9503 168.75952
0 1407.9503 168.75952
5.1424484 1414.8135 144.51367
10.285093 1414.8135 144.51367
15.427542 1414.8135 144.51367
20.570187 1414.8135 144.51367
25.712635 1414.8135 144.51367
30.855083 1414.8135 144.51367
35.997726 1414.8135 144.51367
41.140175 1414.8135 144.51367
46.282822 1414.8135 144.51367
51.42527 1414.8135 144.51367
57.049881 1407.9503 168.75952
62.236362 1407.9503 168.75952
68.015266 1400.8127 193.9751
73.247337 1400.8127 193.9751
79.163002 1393.6749 219.19067
84.44046 1393.6749 219.19067
89.718109 1393.6749 219.19067
94.99556 1393.6749 219.19067
100.27322 1393.6749 219.19067
106.49747 1386.2628 245.37598
111.82227 1386.2628 245.37598
-57.551434 1395.9967 191.93091
-52.319469 1395.9967 191.93091
-46.677223 1403.1763 166.73315
-41.490841 1403.1763 166.73315
-36.304562 1403.1763 166.73315
-31.118181 1403.1763 166.73315
-25.931801 1403.1763 166.73315
-20.74542 1403.1763 166.73315
-15.559041 1403.1763 166.73315
-10.463933 1395.9967 191.93091
-5.1863799 1403.1763 166.73315
0 1403.1763 166.73315
5.1424484 1410.0798 142.50439
10.285093 1410.0798 142.50439
15.427542 1410.0798 142.50439
20.570187 1410.0798 142.50439
25.712635 1410.0798 142.50439
30.855083 1410.0798 142.50439
35.997726 1410.0798 142.50439
41.140175 1410.0798 142.50439
46.282822 1410.0798 142.50439
51.42527 1410.0798 142.50439
57.049881 1403.1763 166.73315
62.236362 1403.1763 166.73315
67.422646 1403.1763 166.73315
73.247337 1395.9967 191.93091
78.479202 1395.9967 191.93091
84.44046 1388.817 217.12866
89.718109 1388.817 217.12866
94.99556 1388.817 217.12866
100.27322 1388.817 217.12866
106.49747 1381.3612 243.29541
111.82227 1381.3612 243.29541
117.14725 1381.3612 243.29541
-46.677223 1398.4022 164.70654
-41.490841 1398.4022 164.70654
-36.304562 1398.4022 164.70654
-31.118181 1398.4022 164.70654
-25.931801 1398.4022 164.70654
-20.74542 1398.4022 164.70654
-15.559041 1398.4022 164.70654
-10.37276 1398.4022 164.70654
-5.1863799 1398.4022 164.70654
0 1405.3461 140.49512
5.1424484 1405.3461 140.49512
10.285093 1405.3461 140.49512
15.427542 1405.3461 140.49512
20.570187 1405.3461 140.49512
25.712635 1405.3461 140.49512
30.855083 1405.3461 140.49512
35.997726 1405.3461 140.49512
41.140175 1405.3461 140.49512
46.282822 1405.3461 140.49512
51.42527 1405.3461 140.49512
57.049881 1398.4022 164.70654
62.236362 1398.4022 164.70654
67.422646 1398.4022 164.70654
73.247337 1391.1807 189.88647
78.479202 1391.1807 189.88647
83.711067 1391.1807 189.88647
89.718109 1383.959 215.06641
94.99556 1383.959 215.06641
100.27322 1383.959 215.06641
106.49747 1376.4597 241.21484
111.82227 1376.4597 241.21484
117.14725 1376.4597 241.21484
-52.319469 1386.3646 187.84229
-46.677223 1393.6282 162.68018
-41.490841 1393.6282 162.68018
-36.623669 1386.3646 187.84229
-31.118181 1393.6282 162.68018
-25.931801 1393.6282 162.68018
-20.74542 1393.6282 162.68018
-15.559041 1393.6282 162.68018
-10.37276 1393.6282 162.68018
-5.1425467 1400.6123 138.4856
0 1400.6123 138.4856
5.1424484 1400.6123 138.4856
10.285093 1400.6123 138.4856
15.427542 1400.6123 138.4856
20.570187 1400.6123 138.4856
25.712635 1400.6123 138.4856
30.855083 1400.6123 138.4856
35.997726 1400.6123 138.4856
41.140175 1400.6123 138.4856
46.282822 1400.6123 138.4856
51.42527 1400.6123 138.4856
56.567715 1400.6123 138.4856
61.710361 1400.6123 138.4856
66.852806 1400.6123 138.4856
72.609123 1393.6282 162.68018
77.795403 1393.6282 162.68018
82.981682 1393.6282 162.68018
88.943138 1386.3646 187.84229
94.175003 1386.3646 187.84229
100.27322 1379.101 213.00439
105.55067 1379.101 213.00439
111.82227 1371.5581 239.13428
117.14725 1371.5581 239.13428
122.47205 1371.5581 239.13428
-52.319469 1381.5486 185.79785
-47.087502 1381.5486 185.79785
-41.855534 1381.5486 185.79785
-36.623669 1381.5486 185.79785
-31.118181 1388.854 160.65356
-25.931801 1388.854 160.65356
-20.74542 1388.854 160.65356
-15.559041 1388.854 160.65356
-10.37276 1388.854 160.65356
-5.1425467 1395.8787 136.47632
0 1395.8787 136.47632
5.1424484 1395.8787 136.47632
10.285093 1395.8787 136.47632
15.427542 1395.8787 136.47632
20.570187 1395.8787 136.47632
25.712635 1395.8787 136.47632
30.855083 1395.8787 136.47632
35.997726 1395.8787 136.47632
41.140175 1395.8787 136.47632
46.282822 1395.8787 136.47632
51.42527 1395.8787 136.47632
56.567715 1395.8787 136.47632
61.710361 1395.8787 136.47632
66.852806 1395.8787 136.47632
72.609123 1388.854 160.65356
77.795403 1388.854 160.65356
82.981682 1388.854 160.65356
88.168159 1388.854 160.65356
94.175003 1381.5486 185.79785
99.407066 1381.5486 185.79785
105.55067 1374.243 210.94238
110.82812 1374.243 210.94238
116.10578 1374.243 210.94238
122.47205 1366.6565 237.05371
127.79705 1366.6565 237.05371
-47.087502 1376.7325 183.75366
-41.490841 1384.08 158.6272
-36.304562 1384.08 158.6272
-30.855181 1391.1449 134.46704
-25.712635 1391.1449 134.46704
-20.74542 1384.08 158.6272
-15.559041 1384.08 158.6272
-10.37276 1384.08 158.6272
-5.1425467 1391.1449 134.46704
0 1391.1449 134.46704
5.1424484 1391.1449 134.46704
10.285093 1391.1449 134.46704
15.427542 1391.1449 134.46704
20.570187 1391.1449 134.46704
25.712635 1391.1449 134.46704
30.855083 1391.1449 134.46704
35.997726 1391.1449 134.46704
41.140175 1391.1449 134.46704
46.282822 1391.1449 134.46704
51.42527 1391.1449 134.46704
56.567715 1391.1449 134.46704
61.710361 1391.1449 134.46704
66.852806 1391.1449 134.46704
71.995453 1391.1449 134.46704
77.137901 1391.1449 134.46704
82.28035 1391.1449 134.46704
88.168159 1384.08 158.6272
93.354446 1384.08 158.6272
99.407066 1376.7325 183.75366
104.63894 1376.7325 183.75366
110.82812 1369.3849 208.88013
116.10578 1369.3849 208.88013
121.38322 1369.3849 208.88013
126.66088 1369.3849 208.88013
-41.490841 1379.3059 156.60059
-36.304562 1379.3059 156.60059
-30.855181 1386.4111 132.45752
-25.712635 1386.4111 132.45752
-20.74542 1379.3059 156.60059
-15.559041 1379.3059 156.60059
-10.37276 1379.3059 156.60059
-5.1863799 1379.3059 156.60059
0 1386.4111 132.45752
5.1424484 1386.4111 132.45752
10.285093 1386.4111 132.45752
15.427542 1386.4111 132.45752
20.570187 1386.4111 132.45752
25.712635 1386.4111 132.45752
30.855083 1386.4111 132.45752
35.997726 1386.4111 132.45752
41.140175 1386.4111 132.45752
46.282822 1386.4111 132.45752
51.42527 1386.4111 132.45752
56.085552 1393.5165 108.31445
61.184364 1393.5165 108.31445
66.282974 1393.5165 108.31445
71.995453 1386.4111 132.45752
77.137901 1386.4111 132.45752
82.28035 1386.4111 132.45752
87.422989 1386.4111 132.45752
92.565445 1386.4111 132.45752
98.540924 1379.3059 156.60059
104.63894 1371.9165 181.70947
109.8708 1371.9165 181.70947
115.10287 1371.9165 181.70947
121.38322 1364.527 206.81812
126.66088 1364.527 206.81812
-41.855534 1367.1005 179.66504
-36.304562 1374.5317 154.57422
-31.118181 1374.5317 154.57422
-25.931801 1374.5317 154.57422
-20.74542 1374.5317 154.57422
-15.559041 1374.5317 154.57422
-10.37276 1374.5317 154.57422
-5.1863799 1374.5317 154.57422
0 1381.6775 130.44824
5.1424484 1381.6775 130.44824
10.285093 1381.6775 130.44824
15.427542 1381.6775 130.44824
20.570187 1381.6775 130.44824
25.493467 1388.823 106.32227
30.592083 1388.823 106.32227
35.690891 1388.823 106.32227
41.140175 1381.6775 130.44824
45.888317 1388.823 106.32227
50.986935 1388.823 106.32227
56.085552 1388.823 106.32227
61.184364 1388.823 106.32227
66.282974 1388.823 106.32227
71.995453 1381.6775 130.44824
77.137901 1381.6775 130.44824
82.28035 1381.6775 130.44824
87.422989 1381.6775 130.44824
92.565445 1381.6775 130.44824
97.708092 1381.6775 130.44824
103.7272 1374.5317 154.57422
108.91348 1374.5317 154.57422
114.09996 1374.5317 154.57422
120.33474 1367.1005 179.66504
126.66088 1359.6689 204.7561
-35.997726 1376.9437 128.43896
-30.855181 1376.9437 128.43896
-25.712635 1376.9437 128.43896
-20.74542 1369.7577 152.54785
-15.559041 1369.7577 152.54785
-10.37276 1369.7577 152.54785
-5.1863799 1369.7577 152.54785
0 1376.9437 128.43896
5.1424484 1376.9437 128.43896
10.285093 1376.9437 128.43896
15.427542 1376.9437 128.43896
20.394852 1384.1296 104.33008
25.493467 1384.1296 104.33008
30.592083 1384.1296 104.33008
35.690891 1384.1296 104.33008
40.789509 1384.1296 104.33008
45.888317 1384.1296 104.33008
50.986935 1384.1296 104.33008
56.085552 1384.1296 104.33008
61.184364 1384.1296 104.33008
66.282974 1384.1296 104.33008
71.381783 1384.1296 104.33008
76.4804 1384.1296 104.33008
81.579018 1384.1296 104.33008
87.422989 1376.9437 128.43896
92.565445 1376.9437 128.43896
97.708092 1376.9437 128.43896
102.85054 1376.9437 128.43896
107.99298 1376.9437 128.43896
114.09996 1369.7577 152.54785
119.28625 1369.7577 152.54785
125.5668 1362.2844 177.62085
133.12184 1347.0502 228.7312
-35.997726 1372.21 126.42944
-30.855181 1372.21 126.42944
-25.712635 1372.21 126.42944
-20.74542 1364.9836 150.52124
-15.559041 1364.9836 150.52124
-10.37276 1364.9836 150.52124
-5.1863799 1364.9836 150.52124
0 1372.21 126.42944
5.1424484 1372.21 126.42944
10.285093 1372.21 126.42944
15.296041 1379.4363 102.33789
20.394852 1379.4363 102.33789
25.493467 1379.4363 102.33789
30.592083 1379.4363 102.33789
35.690891 1379.4363 102.33789
40.789509 1379.4363 102.33789
45.493816 1386.6627 78.246094
50.548603 1386.6627 78.246094
56.085552 1379.4363 102.33789
61.184364 1379.4363 102.33789
66.282974 1379.4363 102.33789
71.381783 1379.4363 102.33789
76.4804 1379.4363 102.33789
81.579018 1379.4363 102.33789
86.677826 1379.4363 102.33789
92.565445 1372.21 126.42944
97.708092 1372.21 126.42944
102.85054 1372.21 126.42944
107.99298 1372.21 126.42944
113.13563 1372.21 126.42944
119.28625 1364.9836 150.52124
124.47272 1364.9836 150.52124
130.79868 1357.4684 175.57666
-36.304562 1360.2096 148.49487
-31.118181 1360.2096 148.49487
-25.931801 1360.2096 148.49487
-20.74542 1360.2096 148.49487
-15.559041 1360.2096 148.49487
-10.37276 1360.2096 148.49487
-5.1863799 1360.2096 148.49487
0 1367.4763 124.42017
5.1424484 1367.4763 124.42017
10.285093 1367.4763 124.42017
15.296041 1374.7429 100.3457
20.394852 1374.7429 100.3457
25.493467 1374.7429 100.3457
30.592083 1374.7429 100.3457
35.690891 1374.7429 100.3457
40.438843 1382.0096 76.270996
45.493816 1382.0096 76.270996
50.548603 1382.0096 76.270996
55.603386 1382.0096 76.270996
60.658363 1382.0096 76.270996
65.713142 1382.0096 76.270996
70.76812 1382.0096 76.270996
76.4804 1374.7429 100.3457
81.579018 1374.7429 100.3457
86.677826 1374.7429 100.3457
91.776451 1374.7429 100.3457
96.875259 1374.7429 100.3457
102.85054 1367.4763 124.42017
107.99298 1367.4763 124.42017
113.13563 1367.4763 124.42017
118.27808 1367.4763 124.42017
124.47272 1360.2096 148.49487
129.65901 1360.2096 148.49487
137.21579 1345.095 198.56982
-36.304562 1355.4355 146.46826
-31.118181 1355.4355 146.46826
-25.931801 1355.4355 146.46826
-20.74542 1355.4355 146.46826
-15.559041 1355.4355 146.46826
-10.37276 1355.4355 146.46826
-5.1863799 1355.4355 146.46826
0 1362.7426 122.41089
5.1424484 1362.7426 122.41089
10.285093 1362.7426 122.41089
15.296041 1370.0496 98.353516
20.219517 1377.3567 74.295898
25.274302 1377.3567 74.295898
30.329084 1377.3567 74.295898
35.38406 1377.3567 74.295898
40.438843 1377.3567 74.295898
45.493816 1377.3567 74.295898
50.548603 1377.3567 74.295898
55.603386 1377.3567 74.295898
60.658363 1377.3567 74.295898
65.713142 1377.3567 74.295898
70.76812 1377.3567 74.295898
75.822906 1377.3567 74.295898
81.579018 1370.0496 98.353516
86.677826 1370.0496 98.353516
91.776451 1370.0496 98.353516
96.875259 1370.0496 98.353516
102.85054 1362.7426 122.41089
107.99298 1362.7426 122.41089
113.13563 1362.7426 122.41089
118.27808 1362.7426 122.41089
123.42072 1362.7426 122.41089
129.65901 1355.4355 146.46826
137.21579 1340.2369 196.50757
142.49345 1340.2369 196.50757
-36.304562 1350.6615 144.44189
-31.118181 1350.6615 144.44189
-25.931801 1350.6615 144.44189
-20.74542 1350.6615 144.44189
-15.559041 1350.6615 144.44189
-10.37276 1350.6615 144.44189
-5.1863799 1350.6615 144.44189
0 1358.0088 120.40161
5.0986156 1365.3562 96.361328
10.197426 1365.3562 96.361328
15.164542 1372.7036 72.320801
20.219517 1372.7036 72.320801
25.274302 1372.7036 72.320801
30.329084 1372.7036 72.320801
35.38406 1372.7036 72.320801
40.438843 1372.7036 72.320801
45.115097 1379.757 49.242432
50.1278 1379.757 49.242432
55.603386 1372.7036 72.320801
60.658363 1372.7036 72.320801
65.713142 1372.7036 72.320801
70.76812 1372.7036 72.320801
75.822906 1372.7036 72.320801
81.579018 1365.3562 96.361328
86.677826 1365.3562 96.361328
91.776451 1365.3562 96.361328
96.875259 1365.3562 96.361328
102.85054 1358.0088 120.40161
107.99298 1358.0088 120.40161
113.13563 1358.0088 120.40161
118.27808 1358.0088 120.40161
123.42072 1358.0088 120.40161
129.65901 1350.6615 144.44189
137.21579 1335.379 194.44556
142.49345 1335.379 194.44556
147.7709 1335.379 194.44556
-41.855534 1338.2042 167.39941
-36.304562 1345.8875 142.41528
-31.118181 1345.8875 142.41528
-25.931801 1345.8875 142.41528
-20.74542 1345.8875 142.41528
-15.559041 1345.8875 142.41528
-10.37276 1345.8875 142.41528
-5.1425467 1353.2751 118.39209
0 1353.2751 118.39209
5.0986156 1360.6628 94.368896
10.197426 1360.6628 94.368896
15.164542 1368.0505 70.345703
20.219517 1368.0505 70.345703
25.0639 1375.1427 47.283691
30.076605 1375.1427 47.283691
35.089497 1375.1427 47.283691
40.102203 1375.1427 47.283691
45.115097 1375.1427 47.283691
50.1278 1375.1427 47.283691
55.603386 1368.0505 70.345703
60.658363 1368.0505 70.345703
65.713142 1368.0505 70.345703
70.76812 1368.0505 70.345703
75.822906 1368.0505 70.345703
81.579018 1360.6628 94.368896
86.677826 1360.6628 94.368896
91.776451 1360.6628 94.368896
96.875259 1360.6628 94.368896
101.97387 1360.6628 94.368896
107.07249 1360.6628 94.368896
112.1713 1360.6628 94.368896
118.27808 1353.2751 118.39209
123.42072 1353.2751 118.39209
128.56317 1353.2751 118.39209
136.03053 1338.2042 167.39941
141.2626 1338.2042 167.39941
146.49446 1338.2042 167.39941
153.04855 1330.521 192.38354
-41.855534 1333.3882 165.35522
-36.623669 1333.3882 165.35522
-31.391701 1333.3882 165.35522
-25.931801 1341.1133 140.38892
-20.74542 1341.1133 140.38892
-15.559041 1341.1133 140.38892
-10.37276 1341.1133 140.38892
-5.1425467 1348.5414 116.38281
0 1355.9695 92.376709
5.0986156 1355.9695 92.376709
10.109758 1363.3976 68.370605
15.164542 1363.3976 68.370605
20.051197 1370.5284 45.324951
25.0639 1370.5284 45.324951
30.076605 1370.5284 45.324951
35.089497 1370.5284 45.324951
40.102203 1370.5284 45.324951
45.115097 1370.5284 45.324951
50.1278 1370.5284 45.324951
55.140507 1370.5284 45.324951
60.658363 1363.3976 68.370605
65.713142 1363.3976 68.370605
70.76812 1363.3976 68.370605
75.822906 1363.3976 68.370605
80.877686 1363.3976 68.370605
86.677826 1355.9695 92.376709
91.776451 1355.9695 92.376709
96.875259 1355.9695 92.376709
101.97387 1355.9695 92.376709
107.07249 1355.9695 92.376709
112.1713 1355.9695 92.376709
118.27808 1348.5414 116.38281
123.42072 1348.5414 116.38281
128.56317 1348.5414 116.38281
134.84529 1341.1133 140.38892
141.2626 1333.3882 165.35522
146.49446 1333.3882 165.35522
153.04855 1325.6631 190.32129
158.326 1325.6631 190.32129
163.60345 1325.6631 190.32129
-41.855534 1328.5723 163.31079
-36.623669 1328.5723 163.31079
-31.391701 1328.5723 163.31079
-25.931801 1336.3392 138.36255
-20.74542 1336.3392 138.36255
-15.559041 1336.3392 138.36255
-10.37276 1336.3392 138.36255
-5.1425467 1343.8076 114.37354
0 1351.2761 90.384521
5.0986156 1351.2761 90.384521
10.109758 1358.7446 66.395752
15.038302 1365.9141 43.366455
20.051197 1365.9141 43.366455
25.0639 1365.9141 43.366455
30.076605 1365.9141 43.366455
35.089497 1365.9141 43.366455
40.102203 1365.9141 43.366455
45.115097 1365.9141 43.366455
50.1278 1365.9141 43.366455
55.140507 1365.9141 43.366455
60.658363 1358.7446 66.395752
65.713142 1358.7446 66.395752
70.76812 1358.7446 66.395752
75.822906 1358.7446 66.395752
80.877686 1358.7446 66.395752
86.677826 1351.2761 90.384521
91.776451 1351.2761 90.384521
96.875259 1351.2761 90.384521
101.97387 1351.2761 90.384521
107.07249 1351.2761 90.384521
112.1713 1351.2761 90.384521
118.27808 1343.8076 114.37354
123.42072 1343.8076 114.37354
128.56317 1343.8076 114.37354
134.84529 1336.3392 138.36255
140.03175 1336.3392 138.36255
145.21805 1336.3392 138.36255
153.04855 1320.8051 188.25928
158.326 1320.8051 188.25928
163.60345 1320.8051 188.25928
-41.855534 1323.7562 161.2666
-36.623669 1323.7562 161.2666
-31.391701 1323.7562 161.2666
-25.931801 1331.5652 136.33594
-20.74542 1331.5652 136.33594
-15.559041 1331.5652 136.33594
-10.285093 1339.074 112.36426
-5.1425467 1339.074 112.36426
0 1346.5828 88.392334
5.0986156 1346.5828 88.392334
10.109758 1354.0916 64.420654
15.038302 1361.2998 41.407715
20.051197 1361.2998 41.407715
25.0639 1361.2998 41.407715
30.076605 1361.2998 41.407715
35.089497 1361.2998 41.407715
40.102203 1361.2998 41.407715
45.115097 1361.2998 41.407715
50.1278 1361.2998 41.407715
55.140507 1361.2998 41.407715
60.1534 1361.2998 41.407715
65.1661 1361.2998 41.407715
70.76812 1354.0916 64.420654
75.822906 1354.0916 64.420654
80.877686 1354.0916 64.420654
85.932655 1354.0916 64.420654
91.776451 1346.5828 88.392334
96.875259 1346.5828 88.392334
101.97387 1346.5828 88.392334
107.07249 1346.5828 88.392334
112.1713 1346.5828 88.392334
117.26991 1346.5828 88.392334
123.42072 1339.074 112.36426
128.56317 1339.074 112.36426
134.84529 1331.5652 136.33594
140.03175 1331.5652 136.33594
145.21805 1331.5652 136.33594
151.72653 1323.7562 161.2666
156.9584 1323.7562 161.2666
-41.490841 1326.7911 134.30957
-36.304562 1326.7911 134.30957
-31.391701 1318.9402 159.22217
-25.931801 1326.7911 134.30957
-20.570087 1334.3403 110.35474
-15.427542 1334.3403 110.35474
-10.285093 1334.3403 110.35474
-5.1425467 1334.3403 110.35474
0 1341.8894 86.400146
5.0986156 1341.8894 86.400146
10.109758 1349.4385 62.445557
15.164542 1349.4385 62.445557
20.051197 1356.6855 39.449219
25.0639 1356.6855 39.449219
30.076605 1356.6855 39.449219
35.089497 1356.6855 39.449219
40.102203 1356.6855 39.449219
45.115097 1356.6855 39.449219
50.1278 1356.6855 39.449219
55.140507 1356.6855 39.449219
60.1534 1356.6855 39.449219
65.1661 1356.6855 39.449219
70.76812 1349.4385 62.445557
75.822906 1349.4385 62.445557
80.877686 1349.4385 62.445557
85.932655 1349.4385 62.445557
90.98745 1349.4385 62.445557
96.042427 1349.4385 62.445557
101.97387 1341.8894 86.400146
107.07249 1341.8894 86.400146
112.1713 1341.8894 86.400146
117.26991 1341.8894 86.400146
122.36873 1341.8894 86.400146
128.56317 1334.3403 110.35474
133.70561 1334.3403 110.35474
140.03175 1326.7911 134.30957
145.21805 1326.7911 134.30957
151.72653 1318.9402 159.22217
156.9584 1318.9402 159.22217
-41.490841 1322.0171 132.28296
-36.304562 1322.0171 132.28296
-31.391701 1314.1241 157.17798
-25.931801 1322.0171 132.28296
-20.394754 1337.196 84.407959
-15.296041 1337.196 84.407959
-10.197426 1337.196 84.407959
-5.0987129 1337.196 84.407959
0 1337.196 84.407959
5.0547829 1344.7855 60.470459
10.109758 1344.7855 60.470459
15.164542 1344.7855 60.470459
20.051197 1352.0713 37.490479
25.0639 1352.0713 37.490479
30.076605 1352.0713 37.490479
35.089497 1352.0713 37.490479
40.102203 1352.0713 37.490479
45.115097 1352.0713 37.490479
50.1278 1352.0713 37.490479
55.140507 1352.0713 37.490479
60.1534 1352.0713 37.490479
65.1661 1352.0713 37.490479
70.76812 1344.7855 60.470459
75.822906 1344.7855 60.470459
80.877686 1344.7855 60.470459
85.932655 1344.7855 60.470459
90.98745 1344.7855 60.470459
96.042427 1344.7855 60.470459
101.97387 1337.196 84.407959
107.07249 1337.196 84.407959
112.1713 1337.196 84.407959
117.26991 1337.196 84.407959
122.36873 1337.196 84.407959
128.56317 1329.6066 108.34546
133.70561 1329.6066 108.34546
140.03175 1322.0171 132.28296
145.21805 1322.0171 132.28296
150.40451 1322.0171 132.28296
155.59081 1322.0171 132.28296
160.7771 1322.0171 132.28296
-41.490841 1317.243 130.25659
-36.304562 1317.243 130.25659
-31.118181 1317.243 130.25659
-25.712635 1324.8728 106.33618
-20.394754 1332.5027 82.415771
-15.296041 1332.5027 82.415771
-10.197426 1332.5027 82.415771
-5.0987129 1332.5027 82.415771
0 1332.5027 82.415771
5.0547829 1340.1326 58.495361
10.109758 1340.1326 58.495361
15.164542 1340.1326 58.495361
20.051197 1347.457 35.531738
25.0639 1347.457 35.531738
30.076605 1347.457 35.531738
35.089497 1347.457 35.531738
40.102203 1347.457 35.531738
45.115097 1347.457 35.531738
50.1278 1347.457 35.531738
55.140507 1347.457 35.531738
60.1534 1347.457 35.531738
65.1661 1347.457 35.531738
70.178993 1347.457 35.531738
75.822906 1340.1326 58.495361
80.877686 1340.1326 58.495361
85.932655 1340.1326 58.495361
90.98745 1340.1326 58.495361
96.042427 1340.1326 58.495361
101.97387 1332.5027 82.415771
107.07249 1332.5027 82.415771
112.1713 1332.5027 82.415771
117.26991 1332.5027 82.415771
122.36873 1332.5027 82.415771
128.56317 1324.8728 106.33618
133.70561 1324.8728 106.33618
138.84827 1324.8728 106.33618
143.99071 1324.8728 106.33618
149.13335 1324.8728 106.33618
154.2758 1324.8728 106.33618
159.41826 1324.8728 106.33618
-41.490841 1312.4689 128.22998
-36.304562 1312.4689 128.22998
-31.118181 1312.4689 128.22998
-25.493467 1327.8092 80.42334
-20.394754 1327.8092 80.42334
-15.296041 1327.8092 80.42334
-10.197426 1327.8092 80.42334
-5.0987129 1327.8092 80.42334
0 1335.4794 56.520264
5.0547829 1335.4794 56.520264
10.025599 1342.8427 33.573242
15.038302 1342.8427 33.573242
20.051197 1342.8427 33.573242
25.0639 1342.8427 33.573242
30.076605 1342.8427 33.573242
35.089497 1342.8427 33.573242
40.102203 1342.8427 33.573242
45.115097 1342.8427 33.573242
50.1278 1342.8427 33.573242
55.140507 1342.8427 33.573242
60.1534 1342.8427 33.573242
65.1661 1342.8427 33.573242
70.178993 1342.8427 33.573242
75.191704 1342.8427 33.573242
80.204407 1342.8427 33.573242
85.932655 1335.4794 56.520264
90.98745 1335.4794 56.520264
96.042427 1335.4794 56.520264
101.97387 1327.8092 80.42334
107.07249 1327.8092 80.42334
112.1713 1327.8092 80.42334
117.26991 1327.8092 80.42334
122.36873 1327.8092 80.42334
128.56317 1320.139 104.32666
133.70561 1320.139 104.32666
138.84827 1320.139 104.32666
143.99071 1320.139 104.32666
147.86218 1327.8092 80.42334
152.9608 1327.8092 80.42334
156.70059 1335.4794 56.520264
161.75557 1335.4794 56.520264
-41.140175 1315.4053 102.31738
-35.997726 1315.4053 102.31738
-31.118181 1307.6948 126.20361
-25.493467 1323.1158 78.431152
-20.394754 1323.1158 78.431152
-15.164542 1330.8264 54.545166
-10.109758 1330.8264 54.545166
-5.0548792 1330.8264 54.545166
0 1330.8264 54.545166
5.0547829 1330.8264 54.545166
10.025599 1338.2283 31.614502
15.038302 1338.2283 31.614502
20.051197 1338.2283 31.614502
25.0639 1338.2283 31.614502
30.076605 1338.2283 31.614502
35.089497 1338.2283 31.614502
40.102203 1338.2283 31.614502
45.115097 1338.2283 31.614502
49.707001 1345.6304 8.6838379
54.677624 1345.6304 8.6838379
59.648441 1345.6304 8.6838379
65.1661 1338.2283 31.614502
70.178993 1338.2283 31.614502
75.191704 1338.2283 31.614502
80.204407 1338.2283 31.614502
85.932655 1330.8264 54.545166
90.98745 1330.8264 54.545166
96.042427 1330.8264 54.545166
101.09721 1330.8264 54.545166
107.07249 1323.1158 78.431152
112.1713 1323.1158 78.431152
117.26991 1323.1158 78.431152
122.36873 1323.1158 78.431152
128.56317 1315.4053 102.31738
133.70561 1315.4053 102.31738
138.84827 1315.4053 102.31738
143.99071 1315.4053 102.31738
147.86218 1323.1158 78.431152
152.9608 1323.1158 78.431152
156.70059 1330.8264 54.545166
161.75557 1330.8264 54.545166
-41.140175 1310.6716 100.30811
-35.997726 1310.6716 100.30811
-30.855181 1310.6716 100.30811
-25.493467 1318.4225 76.438965
-20.219421 1326.1733 52.570068
-15.164542 1326.1733 52.570068
-10.109758 1326.1733 52.570068
-5.0548792 1326.1733 52.570068
0 1326.1733 52.570068
5.0547829 1326.1733 52.570068
10.025599 1333.614 29.655762
15.038302 1333.614 29.655762
20.051197 1333.614 29.655762
25.0639 1333.614 29.655762
30.076605 1333.614 29.655762
35.089497 1333.614 29.655762
39.765564 1341.0549 6.7416992
44.736378 1341.0549 6.7416992
49.707001 1341.0549 6.7416992
54.677624 1341.0549 6.7416992
59.648441 1341.0549 6.7416992
65.1661 1333.614 29.655762
70.178993 1333.614 29.655762
75.191704 1333.614 29.655762
80.204407 1333.614 29.655762
85.2173 1333.614 29.655762
90.98745 1326.1733 52.570068
96.042427 1326.1733 52.570068
101.09721 1326.1733 52.570068
106.15199 1326.1733 52.570068
112.1713 1318.4225 76.438965
117.26991 1318.4225 76.438965
122.36873 1318.4225 76.438965
127.46734 1318.4225 76.438965
133.70561 1310.6716 100.30811
138.84827 1310.6716 100.30811
143.99071 1310.6716 100.30811
147.86218 1318.4225 76.438965
152.9608 1318.4225 76.438965
158.05943 1318.4225 76.438965
-41.490841 1298.1467 122.15063
-35.997726 1305.938 98.298828
-30.592182 1313.7291 74.446777
-25.493467 1313.7291 74.446777
-20.219421 1321.5203 50.594971
-15.164542 1321.5203 50.594971
-10.109758 1321.5203 50.594971
-5.0548792 1321.5203 50.594971
0 1321.5203 50.594971
5.0547829 1321.5203 50.594971
10.025599 1328.9998 27.697266
15.038302 1328.9998 27.697266
20.051197 1328.9998 27.697266
25.0639 1328.9998 27.697266
30.076605 1328.9998 27.697266
35.089497 1328.9998 27.697266
39.765564 1336.4792 4.7995605
44.736378 1336.4792 4.7995605
49.707001 1336.4792 4.7995605
54.677624 1336.4792 4.7995605
60.1534 1328.9998 27.697266
65.1661 1328.9998 27.697266
70.178993 1328.9998 27.697266
75.191704 1328.9998 27.697266
80.204407 1328.9998 27.697266
85.2173 1328.9998 27.697266
90.98745 1321.5203 50.594971
96.042427 1321.5203 50.594971
101.09721 1321.5203 50.594971
106.15199 1321.5203 50.594971
112.1713 1313.7291 74.446777
117.26991 1313.7291 74.446777
122.36873 1313.7291 74.446777
127.46734 1313.7291 74.446777
133.70561 1305.938 98.298828
138.84827 1305.938 98.298828
143.99071 1305.938 98.298828
147.86218 1313.7291 74.446777
152.9608 1313.7291 74.446777
159.41826 1305.938 98.298828
-40.438843 1316.8673 48.619873
-35.38406 1316.8673 48.619873
-30.592182 1309.0358 72.45459
-25.493467 1309.0358 72.45459
-20.219421 1316.8673 48.619873
-15.164542 1316.8673 48.619873
-10.109758 1316.8673 48.619873
-5.0548792 1316.8673 48.619873
0 1316.8673 48.619873
5.0547829 1316.8673 48.619873
10.025599 1324.3855 25.738525
15.038302 1324.3855 25.738525
20.051197 1324.3855 25.738525
25.0639 1324.3855 25.738525
30.076605 1324.3855 25.738525
35.089497 1324.3855 25.738525
40.102203 1324.3855 25.738525
44.736378 1331.9038 2.8571777
49.707001 1331.9038 2.8571777
54.677624 1331.9038 2.8571777
60.1534 1324.3855 25.738525
65.1661 1324.3855 25.738525
70.178993 1324.3855 25.738525
75.191704 1324.3855 25.738525
80.877686 1316.8673 48.619873
85.932655 1316.8673 48.619873
90.98745 1316.8673 48.619873
96.042427 1316.8673 48.619873
101.09721 1316.8673 48.619873
106.15199 1316.8673 48.619873
111.20696 1316.8673 48.619873
117.26991 1309.0358 72.45459
122.36873 1309.0358 72.45459
127.46734 1309.0358 72.45459
133.70561 1301.2041 96.289307
138.84827 1301.2041 96.289307
143.99071 1301.2041 96.289307
149.13335 1301.2041 96.289307
154.2758 1301.2041 96.289307
159.41826 1301.2041 96.289307
-40.438843 1312.2144 46.644775
-35.38406 1312.2144 46.644775
-30.592182 1304.3424 70.462402
-25.493467 1304.3424 70.462402
-20.219421 1312.2144 46.644775
-15.164542 1312.2144 46.644775
-10.109758 1312.2144 46.644775
-5.0548792 1312.2144 46.644775
0 1312.2144 46.644775
5.0547829 1312.2144 46.644775
10.025599 1319.7712 23.779785
15.038302 1319.7712 23.779785
20.051197 1319.7712 23.779785
25.0639 1319.7712 23.779785
30.076605 1319.7712 23.779785
35.089497 1319.7712 23.779785
40.102203 1319.7712 23.779785
44.736378 1327.3282 0.91503906
49.707001 1327.3282 0.91503906
54.677624 1327.3282 0.91503906
60.1534 1319.7712 23.779785
65.1661 1319.7712 23.779785
70.178993 1319.7712 23.779785
75.191704 1319.7712 23.779785
80.877686 1312.2144 46.644775
85.932655 1312.2144 46.644775
90.98745 1312.2144 46.644775
96.042427 1312.2144 46.644775
101.09721 1312.2144 46.644775
106.15199 1312.2144 46.644775
111.20696 1312.2144 46.644775
117.26991 1304.3424 70.462402
122.36873 1304.3424 70.462402
127.46734 1304.3424 70.462402
132.56595 1304.3424 70.462402
138.84827 1296.4705 94.280029
143.99071 1296.4705 94.280029
149.13335 1296.4705 94.280029
154.2758 1296.4705 94.280029
159.41826 1296.4705 94.280029
-45.493725 1307.5613 44.669678
-40.438843 1307.5613 44.669678
-35.38406 1307.5613 44.669678
-30.592182 1299.649 68.470215
-25.493467 1299.649 68.470215
-20.219421 1307.5613 44.669678
-15.164542 1307.5613 44.669678
-10.109758 1307.5613 44.669678
-5.0548792 1307.5613 44.669678
0 1307.5613 44.669678
5.0547829 1307.5613 44.669678
10.025599 1315.157 21.821289
15.038302 1315.157 21.821289
20.051197 1315.157 21.821289
24.8535 1322.7527 -1.0270996
29.824125 1322.7527 -1.0270996
34.794941 1322.7527 -1.0270996
39.765564 1322.7527 -1.0270996
44.736378 1322.7527 -1.0270996
49.707001 1322.7527 -1.0270996
54.677624 1322.7527 -1.0270996
60.1534 1315.157 21.821289
65.1661 1315.157 21.821289
70.178993 1315.157 21.821289
75.191704 1315.157 21.821289
80.204407 1315.157 21.821289
85.2173 1315.157 21.821289
90.98745 1307.5613 44.669678
96.042427 1307.5613 44.669678
100.2556 1315.157 21.821289
105.2683 1315.157 21.821289
111.20696 1307.5613 44.669678
116.26175 1307.5613 44.669678
122.36873 1299.649 68.470215
127.46734 1299.649 68.470215
132.56595 1299.649 68.470215
137.66476 1299.649 68.470215
143.99071 1291.7368 92.270752
149.13335 1291.7368 92.270752
154.2758 1291.7368 92.270752
159.41826 1291.7368 92.270752
-45.888226 1294.9556 66.478027
-40.789509 1294.9556 66.478027
-35.690891 1294.9556 66.478027
-30.592182 1294.9556 66.478027
-25.493467 1294.9556 66.478027
-20.219421 1302.9082 42.69458
-15.164542 1302.9082 42.69458
-10.109758 1302.9082 42.69458
-5.0548792 1302.9082 42.69458
0 1302.9082 42.69458
5.0127034 1310.5426 19.862549
10.025599 1310.5426 19.862549
15.038302 1310.5426 19.862549
20.051197 1310.5426 19.862549
24.8535 1318.1771 -2.9692383
29.824125 1318.1771 -2.9692383
34.794941 1318.1771 -2.9692383
39.765564 1318.1771 -2.9692383
44.736378 1318.1771 -2.9692383
49.707001 1318.1771 -2.9692383
54.677624 1318.1771 -2.9692383
60.1534 1310.5426 19.862549
65.1661 1310.5426 19.862549
70.178993 1310.5426 19.862549
75.191704 1310.5426 19.862549
80.204407 1310.5426 19.862549
85.2173 1310.5426 19.862549
90.98745 1302.9082 42.69458
96.042427 1302.9082 42.69458
100.2556 1310.5426 19.862549
105.2683 1310.5426 19.862549
111.20696 1302.9082 42.69458
116.26175 1302.9082 42.69458
122.36873 1294.9556 66.478027
127.46734 1294.9556 66.478027
132.56595 1294.9556 66.478027
137.66476 1294.9556 66.478027
143.99071 1287.0031 90.26123
149.13335 1287.0031 90.26123
154.2758 1287.0031 90.26123
159.41826 1287.0031 90.26123
-47.087502 1265.9637 136.73511
-41.140175 1282.2693 88.251953
-35.690891 1290.2622 64.48584
-30.592182 1290.2622 64.48584
-25.493467 1290.2622 64.48584
-20.219421 1298.2552 40.719482
-15.164542 1298.2552 40.719482
-10.109758 1298.2552 40.719482
-5.0548792 1298.2552 40.719482
0 1298.2552 40.719482
5.0127034 1305.9283 17.904053
10.025599 1305.9283 17.904053
15.038302 1305.9283 17.904053
20.051197 1305.9283 17.904053
24.8535 1313.6016 -4.9116211
29.824125 1313.6016 -4.9116211
34.794941 1313.6016 -4.9116211
39.765564 1313.6016 -4.9116211
44.736378 1313.6016 -4.9116211
49.707001 1313.6016 -4.9116211
54.677624 1313.6016 -4.9116211
60.1534 1305.9283 17.904053
65.1661 1305.9283 17.904053
70.178993 1305.9283 17.904053
75.191704 1305.9283 17.904053
80.204407 1305.9283 17.904053
85.2173 1305.9283 17.904053
90.98745 1298.2552 40.719482
96.042427 1298.2552 40.719482
101.09721 1298.2552 40.719482
106.15199 1298.2552 40.719482
111.20696 1298.2552 40.719482
116.26175 1298.2552 40.719482
122.36873 1290.2622 64.48584
127.46734 1290.2622 64.48584
132.56595 1290.2622 64.48584
137.66476 1290.2622 64.48584
143.99071 1282.2693 88.251953
149.13335 1282.2693 88.251953
154.2758 1282.2693 88.251953
159.41826 1282.2693 88.251953
-52.319469 1261.1477 134.69092
-47.087502 1261.1477 134.69092
-41.140175 1277.5356 86.242676
-35.690891 1285.5688 62.493408
-30.592182 1285.5688 62.493408
-25.493467 1285.5688 62.493408
-20.219421 1293.6023 38.744385
-15.164542 1293.6023 38.744385
-10.109758 1293.6023 38.744385
-5.0548792 1293.6023 38.744385
0 1293.6023 38.744385
5.0127034 1301.3141 15.945312
10.025599 1301.3141 15.945312
15.038302 1301.3141 15.945312
20.051197 1301.3141 15.945312
24.8535 1309.026 -6.8537598
29.824125 1309.026 -6.8537598
34.794941 1309.026 -6.8537598
39.765564 1309.026 -6.8537598
44.736378 1309.026 -6.8537598
49.707001 1309.026 -6.8537598
55.140507 1301.3141 15.945312
60.1534 1301.3141 15.945312
65.1661 1301.3141 15.945312
70.178993 1301.3141 15.945312
75.191704 1301.3141 15.945312
80.204407 1301.3141 15.945312
85.2173 1301.3141 15.945312
90.98745 1293.6023 38.744385
96.042427 1293.6023 38.744385
101.09721 1293.6023 38.744385
106.15199 1293.6023 38.744385
111.20696 1293.6023 38.744385
117.26991 1285.5688 62.493408
122.36873 1285.5688 62.493408
127.46734 1285.5688 62.493408
132.56595 1285.5688 62.493408
137.66476 1285.5688 62.493408
143.99071 1277.5356 86.242676
149.13335 1277.5356 86.242676
154.2758 1277.5356 86.242676
159.41826 1277.5356 86.242676
164.5609 1277.5356 86.242676
-52.319469 1256.3318 132.64648
-46.677223 1264.7283 107.96533
-41.490841 1264.7283 107.96533
-35.997726 1272.8019 84.233398
-30.855181 1272.8019 84.233398
-25.493467 1280.8755 60.501221
-20.219421 1288.9492 36.769287
-15.164542 1288.9492 36.769287
-10.109758 1288.9492 36.769287
-5.0548792 1288.9492 36.769287
0 1288.9492 36.769287
5.0127034 1296.6997 13.986572
10.025599 1296.6997 13.986572
15.038302 1296.6997 13.986572
20.051197 1296.6997 13.986572
25.0639 1296.6997 13.986572
30.076605 1296.6997 13.986572
35.089497 1296.6997 13.986572
40.102203 1296.6997 13.986572
45.115097 1296.6997 13.986572
50.1278 1296.6997 13.986572
55.140507 1296.6997 13.986572
60.1534 1296.6997 13.986572
65.1661 1296.6997 13.986572
70.178993 1296.6997 13.986572
75.191704 1296.6997 13.986572
80.204407 1296.6997 13.986572
85.2173 1296.6997 13.986572
90.98745 1288.9492 36.769287
96.042427 1288.9492 36.769287
101.09721 1288.9492 36.769287
106.15199 1288.9492 36.769287
112.1713 1280.8755 60.501221
117.26991 1280.8755 60.501221
122.36873 1280.8755 60.501221
127.46734 1280.8755 60.501221
132.56595 1280.8755 60.501221
137.66476 1280.8755 60.501221
143.99071 1272.8019 84.233398
149.13335 1272.8019 84.233398
154.2758 1272.8019 84.233398
159.41826 1272.8019 84.233398
165.96358 1264.7283 107.96533
171.14984 1264.7283 107.96533
-52.319469 1251.5156 130.60229
-46.677223 1259.9541 105.93896
-41.140175 1268.0681 82.223877
-35.997726 1268.0681 82.223877
-30.592182 1276.1821 58.509033
-25.493467 1276.1821 58.509033
-20.219421 1284.2961 34.794189
-15.164542 1284.2961 34.794189
-10.109758 1284.2961 34.794189
-5.0548792 1284.2961 34.794189
0 1284.2961 34.794189
5.0127034 1292.0854 12.028076
10.025599 1292.0854 12.028076
15.038302 1292.0854 12.028076
20.051197 1292.0854 12.028076
25.0639 1292.0854 12.028076
30.076605 1292.0854 12.028076
35.089497 1292.0854 12.028076
40.102203 1292.0854 12.028076
45.115097 1292.0854 12.028076
50.1278 1292.0854 12.028076
55.140507 1292.0854 12.028076
60.1534 1292.0854 12.028076
65.1661 1292.0854 12.028076
70.178993 1292.0854 12.028076
75.191704 1292.0854 12.028076
80.204407 1292.0854 12.028076
85.2173 1292.0854 12.028076
90.98745 1284.2961 34.794189
96.042427 1284.2961 34.794189
101.09721 1284.2961 34.794189
106.15199 1284.2961 34.794189
112.1713 1276.1821 58.509033
117.26991 1276.1821 58.509033
122.36873 1276.1821 58.509033
127.46734 1276.1821 58.509033
132.56595 1276.1821 58.509033
137.66476 1276.1821 58.509033
143.99071 1268.0681 82.223877
149.13335 1268.0681 82.223877
154.2758 1268.0681 82.223877
159.41826 1268.0681 82.223877
165.96358 1259.9541 105.93896
171.14984 1259.9541 105.93896
-57.551434 1246.6997 128.55811
-52.319469 1246.6997 128.55811
-46.677223 1255.1801 103.91235
-41.140175 1263.3345 80.2146
-35.997726 1263.3345 80.2146
-30.592182 1271.4888 56.516846
-25.493467 1271.4888 56.516846
-20.219421 1279.6432 32.819092
-15.164542 1279.6432 32.819092
-10.109758 1279.6432 32.819092
-5.0548792 1279.6432 32.819092
0 1279.6432 32.819092
5.0127034 1287.4712 10.069336
10.025599 1287.4712 10.069336
15.038302 1287.4712 10.069336
20.051197 1287.4712 10.069336
25.0639 1287.4712 10.069336
30.076605 1287.4712 10.069336
35.089497 1287.4712 10.069336
40.102203 1287.4712 10.069336
45.115097 1287.4712 10.069336
50.1278 1287.4712 10.069336
55.140507 1287.4712 10.069336
60.1534 1287.4712 10.069336
65.1661 1287.4712 10.069336
70.178993 1287.4712 10.069336
75.191704 1287.4712 10.069336
80.204407 1287.4712 10.069336
85.2173 1287.4712 10.069336
90.98745 1279.6432 32.819092
96.042427 1279.6432 32.819092
101.09721 1279.6432 32.819092
106.15199 1279.6432 32.819092
112.1713 1271.4888 56.516846
117.26991 1271.4888 56.516846
122.36873 1271.4888 56.516846
127.46734 1271.4888 56.516846
132.56595 1271.4888 56.516846
137.66476 1271.4888 56.516846
143.99071 1263.3345 80.2146
149.13335 1263.3345 80.2146
154.2758 1263.3345 80.2146
159.41826 1263.3345 80.2146
165.96358 1255.1801 103.91235
171.14984 1255.1801 103.91235
179.43622 1238.2191 153.20361
-57.551434 1241.8837 126.51367
-52.319469 1241.8837 126.51367
-46.677223 1250.406 101.88599
-41.140175 1258.6007 78.205322
-35.997726 1258.6007 78.205322
-30.592182 1266.7954 54.524658
-25.493467 1266.7954 54.524658
-20.219421 1274.9902 30.843994
-15.164542 1274.9902 30.843994
-10.109758 1274.9902 30.843994
-5.0548792 1274.9902 30.843994
0 1274.9902 30.843994
5.0127034 1282.8569 8.1108398
10.025599 1282.8569 8.1108398
15.038302 1282.8569 8.1108398
20.051197 1282.8569 8.1108398
25.0639 1282.8569 8.1108398
30.076605 1282.8569 8.1108398
35.089497 1282.8569 8.1108398
40.102203 1282.8569 8.1108398
45.115097 1282.8569 8.1108398
50.1278 1282.8569 8.1108398
55.140507 1282.8569 8.1108398
60.1534 1282.8569 8.1108398
65.1661 1282.8569 8.1108398
70.178993 1282.8569 8.1108398
75.191704 1282.8569 8.1108398
80.204407 1282.8569 8.1108398
85.2173 1282.8569 8.1108398
90.230003 1282.8569 8.1108398
96.042427 1274.9902 30.843994
101.09721 1274.9902 30.843994
106.15199 1274.9902 30.843994
112.1713 1266.7954 54.524658
117.26991 1266.7954 54.524658
122.36873 1266.7954 54.524658
127.46734 1266.7954 54.524658
132.56595 1266.7954 54.524658
137.66476 1266.7954 54.524658
143.99071 1258.6007 78.205322
149.13335 1258.6007 78.205322
154.2758 1258.6007 78.205322
160.7771 1250.406 101.88599
165.96358 1250.406 101.88599
174.15857 1233.3611 151.1416
179.43622 1233.3611 151.1416
-57.551434 1237.0676 124.46948
-51.863602 1245.632 99.859375
-46.677223 1245.632 99.859375
-41.140175 1253.8669 76.196045
-35.997726 1253.8669 76.196045
-30.592182 1262.1021 52.532471
-25.493467 1262.1021 52.532471
-20.219421 1270.3372 28.868896
-15.164542 1270.3372 28.868896
-10.109758 1270.3372 28.868896
-5.0548792 1270.3372 28.868896
0 1270.3372 28.868896
5.0127034 1278.2427 6.1520996
10.025599 1278.2427 6.1520996
15.038302 1278.2427 6.1520996
20.051197 1278.2427 6.1520996
25.0639 1278.2427 6.1520996
30.076605 1278.2427 6.1520996
35.089497 1278.2427 6.1520996
40.102203 1278.2427 6.1520996
45.115097 1278.2427 6.1520996
50.1278 1278.2427 6.1520996
55.140507 1278.2427 6.1520996
60.1534 1278.2427 6.1520996
65.1661 1278.2427 6.1520996
70.178993 1278.2427 6.1520996
75.191704 1278.2427 6.1520996
80.204407 1278.2427 6.1520996
85.2173 1278.2427 6.1520996
90.230003 1278.2427 6.1520996
96.042427 1270.3372 28.868896
101.09721 1270.3372 28.868896
106.15199 1270.3372 28.868896
112.1713 1262.1021 52.532471
117.26991 1262.1021 52.532471
122.36873 1262.1021 52.532471
127.46734 1262.1021 52.532471
132.56595 1262.1021 52.532471
137.66476 1262.1021 52.532471
143.99071 1253.8669 76.196045
149.13335 1253.8669 76.196045
154.2758 1253.8669 76.196045
160.7771 1245.632 99.859375
165.96358 1245.632 99.859375
172.65421 1237.0676 124.46948
179.43622 1228.5032 149.07935
184.71367 1228.5032 149.07935
-62.783401 1232.2515 122.42505
-57.551434 1232.2515 122.42505
-51.863602 1240.8579 97.833008
-46.677223 1240.8579 97.833008
-41.140175 1249.1333 74.186523
-35.997726 1249.1333 74.186523
-30.592182 1257.4087 50.540283
-25.493467 1257.4087 50.540283
-20.219421 1265.6841 26.893799
-15.164542 1265.6841 26.893799
-10.109758 1265.6841 26.893799
-5.0987129 1257.4087 50.540283
0 1265.6841 26.893799
5.0547829 1265.6841 26.893799
10.109758 1265.6841 26.893799
15.038302 1273.6283 4.1933594
20.051197 1273.6283 4.1933594
25.0639 1273.6283 4.1933594
30.076605 1273.6283 4.1933594
35.089497 1273.6283 4.1933594
40.102203 1273.6283 4.1933594
45.115097 1273.6283 4.1933594
49.707001 1281.5726 -18.50708
54.677624 1281.5726 -18.50708
60.1534 1273.6283 4.1933594
64.619064 1281.5726 -18.50708
69.589882 1281.5726 -18.50708
75.191704 1273.6283 4.1933594
80.204407 1273.6283 4.1933594
85.2173 1273.6283 4.1933594
90.230003 1273.6283 4.1933594
96.042427 1265.6841 26.893799
101.09721 1265.6841 26.893799
106.15199 1265.6841 26.893799
112.1713 1257.4087 50.540283
117.26991 1257.4087 50.540283
122.36873 1257.4087 50.540283
127.46734 1257.4087 50.540283
132.56595 1257.4087 50.540283
137.66476 1257.4087 50.540283
143.99071 1249.1333 74.186523
149.13335 1249.1333 74.186523
154.2758 1249.1333 74.186523
160.7771 1240.8579 97.833008
165.96358 1240.8579 97.833008
172.65421 1232.2515 122.42505
177.88628 1232.2515 122.42505
184.71367 1223.645 147.01733
-62.783401 1227.4355 120.38086
-57.04998 1236.0837 95.806396
