ply
format ascii 1.0
comment PCL generated
element vertex 1590
property float x
property float y
property float z
element camera 0
property float view_px
property float view_py
property float view_pz
property float x_axisx
property float x_axisy
property float x_axisz
property float y_axisx
property float y_axisy
property float y_axisz
property float z_axisx
property float z_axisy
property float z_axisz
property float focal
property float scalex
property float scaley
property float centerx
property float centery
property int viewportx
property int viewporty
property float k1
property float k2
end_header
-75.23909 141.70947 302.64258
-68.969147 141.70947 302.64258
-62.699203 141.70947 302.64258
-55.845398 163.21289 271.5752
-49.640327 163.21289 271.5752
-43.435375 163.21289 271.5752
-37.230305 163.21289 271.5752
-31.025234 163.21289 271.5752
-24.820164 163.21289 271.5752
-18.615093 163.21289 271.5752
-12.539888 141.70947 302.64258
127.29205 302.1145 70.89502
133.07796 302.1145 70.89502
138.86409 302.1145 70.89502
146.09651 282.93555 98.604004
150.43591 302.1145 70.89502
156.22206 302.1145 70.89502
162.00795 302.1145 70.89502
167.7941 302.1145 70.89502
173.58 302.1145 70.89502
179.36592 302.1145 70.89502
185.15205 302.1145 70.89502
190.93796 302.1145 70.89502
198.69133 282.93555 98.604004
204.53511 282.93555 98.604004
210.37888 282.93555 98.604004
216.22287 282.93555 98.604004
224.19868 264.33789 125.47339
230.0988 264.33789 125.47339
235.99867 264.33789 125.47339
-122.99281 68.334229 397.51465
-115.28863 91.062988 364.79443
-107.72134 113.79199 332.07422
-101.38477 113.79199 332.07422
-94.048805 135.93799 300.19287
-87.778854 135.93799 300.19287
-81.508919 135.93799 300.19287
-75.23909 135.93799 300.19287
-68.969147 135.93799 300.19287
-62.699203 135.93799 300.19287
-55.845398 157.50122 269.15063
-49.640327 157.50122 269.15063
-43.435375 157.50122 269.15063
-37.230305 157.50122 269.15063
-31.025234 157.50122 269.15063
-24.820164 157.50122 269.15063
-18.809711 135.93799 300.19287
-12.673141 113.79199 332.07422
128.56497 277.5564 96.320801
133.07796 296.78857 68.634277
138.86409 296.78857 68.634277
146.09651 277.5564 96.320801
150.43591 296.78857 68.634277
156.22206 296.78857 68.634277
162.00795 296.78857 68.634277
167.7941 296.78857 68.634277
173.58 296.78857 68.634277
179.36592 296.78857 68.634277
185.15205 296.78857 68.634277
190.93796 296.78857 68.634277
198.69133 277.5564 96.320801
204.53511 277.5564 96.320801
210.37888 277.5564 96.320801
216.22287 277.5564 96.320801
224.19868 258.9071 123.16797
230.0988 258.9071 123.16797
235.99867 258.9071 123.16797
241.89856 258.9071 123.16797
-122.99281 62.375488 394.98511
-115.28863 85.167236 362.29175
-107.72134 107.95898 329.59814
-101.38477 107.95898 329.59814
-95.048203 107.95898 329.59814
-88.711632 107.95898 329.59814
-81.508919 130.1665 297.74292
-75.23909 130.1665 297.74292
-68.969147 130.1665 297.74292
-62.699203 130.1665 297.74292
-55.845398 151.78955 266.72607
-49.640327 151.78955 266.72607
-43.435375 151.78955 266.72607
-37.230305 151.78955 266.72607
-31.025234 151.78955 266.72607
-24.820164 151.78955 266.72607
-18.809711 130.1665 297.74292
-12.673141 107.95898 329.59814
128.56497 272.177 94.037354
134.40874 272.177 94.037354
140.25273 272.177 94.037354
146.09651 272.177 94.037354
151.94028 272.177 94.037354
157.78427 272.177 94.037354
163.62804 272.177 94.037354
169.47203 272.177 94.037354
175.31581 272.177 94.037354
181.15958 272.177 94.037354
185.15205 291.4624 66.373535
190.93796 291.4624 66.373535
198.69133 272.177 94.037354
204.53511 272.177 94.037354
210.37888 272.177 94.037354
216.22287 272.177 94.037354
224.19868 253.47607 120.86279
230.0988 253.47607 120.86279
235.99867 253.47607 120.86279
241.89856 253.47607 120.86279
-122.99281 56.416504 392.45581
-115.28863 79.271484 359.78906
-108.88381 79.271484 359.78906
-101.38477 102.12622 327.12231
-95.048203 102.12622 327.12231
-88.711632 102.12622 327.12231
-81.508919 124.39502 295.29321
-75.23909 124.39502 295.29321
-68.969147 124.39502 295.29321
-62.699203 124.39502 295.29321
-56.42926 124.39502 295.29321
-49.640327 146.07764 264.30176
-43.435375 146.07764 264.30176
-37.230305 146.07764 264.30176
-31.025234 146.07764 264.30176
-25.079659 124.39502 295.29321
-18.809711 124.39502 295.29321
-12.673141 102.12622 327.12231
128.56497 266.79761 91.753906
134.40874 266.79761 91.753906
140.25273 266.79761 91.753906
146.09651 266.79761 91.753906
151.94028 266.79761 91.753906
157.78427 266.79761 91.753906
163.62804 266.79761 91.753906
169.47203 266.79761 91.753906
173.58 286.13623 64.112793
179.36592 286.13623 64.112793
185.15205 286.13623 64.112793
190.93796 286.13623 64.112793
198.69133 266.79761 91.753906
204.53511 266.79761 91.753906
210.37888 266.79761 91.753906
216.22287 266.79761 91.753906
222.06665 266.79761 91.753906
230.0988 248.04504 118.55737
235.99867 248.04504 118.55737
241.89856 248.04504 118.55737
-130.8688 26.952637 423.40381
-122.99281 50.458008 389.92651
-116.51948 50.458008 389.92651
-108.88381 73.375732 357.28662
-102.47885 73.375732 357.28662
-95.048203 96.293457 324.64648
-88.711632 96.293457 324.64648
-82.375061 96.293457 324.64648
-76.038612 96.293457 324.64648
-69.702042 96.293457 324.64648
-62.699203 118.62354 292.84326
-55.845398 140.36597 261.8772
-49.640327 140.36597 261.8772
-43.435375 140.36597 261.8772
-37.230305 140.36597 261.8772
-31.349602 118.62354 292.84326
-25.079659 118.62354 292.84326
-18.809711 118.62354 292.84326
-12.673141 96.293457 324.64648
-6.4733319 50.458008 389.92651
128.56497 261.41833 89.470703
134.40874 261.41833 89.470703
140.25273 261.41833 89.470703
146.09651 261.41833 89.470703
151.94028 261.41833 89.470703
157.78427 261.41833 89.470703
163.62804 261.41833 89.470703
169.47203 261.41833 89.470703
173.58 280.8103 61.852051
179.36592 280.8103 61.852051
185.15205 280.8103 61.852051
190.93796 280.8103 61.852051
198.69133 261.41833 89.470703
204.53511 261.41833 89.470703
210.37888 261.41833 89.470703
216.22287 261.41833 89.470703
222.06665 261.41833 89.470703
230.0988 242.61426 116.2522
235.99867 242.61426 116.2522
241.89856 242.61426 116.2522
-130.8688 20.929199 420.84692
-122.99281 44.499268 387.39722
-116.51948 44.499268 387.39722
-108.88381 67.47998 354.78394
-102.47885 67.47998 354.78394
-95.048203 90.460449 322.17065
-88.711632 90.460449 322.17065
-82.375061 90.460449 322.17065
-75.23909 112.85181 290.39331
-68.969147 112.85181 290.39331
-62.699203 112.85181 290.39331
-55.845398 134.65405 259.45264
-49.640327 134.65405 259.45264
-43.435375 134.65405 259.45264
-37.230305 134.65405 259.45264
-31.349602 112.85181 290.39331
-25.079659 112.85181 290.39331
-19.009592 90.460449 322.17065
-12.809902 67.47998 354.78394
-6.4733319 44.499268 387.39722
140.25273 256.03894 87.187256
146.09651 256.03894 87.187256
151.94028 256.03894 87.187256
157.78427 256.03894 87.187256
163.62804 256.03894 87.187256
169.47203 256.03894 87.187256
175.31581 256.03894 87.187256
181.15958 256.03894 87.187256
187.00357 256.03894 87.187256
192.84734 256.03894 87.187256
198.69133 256.03894 87.187256
204.53511 256.03894 87.187256
210.37888 256.03894 87.187256
216.22287 256.03894 87.187256
222.06665 256.03894 87.187256
230.0988 237.18311 113.94678
235.99867 237.18311 113.94678
241.89856 237.18311 113.94678
-130.8688 14.90625 418.29028
-122.99281 38.540527 384.86792
-116.51948 38.540527 384.86792
-108.88381 61.584229 352.28125
-102.47885 61.584229 352.28125
-95.048203 84.62793 319.69482
-88.711632 84.62793 319.69482
-82.375061 84.62793 319.69482
-75.23909 107.08057 287.9436
-68.969147 107.08057 287.9436
-62.699203 107.08057 287.9436
-55.845398 128.94238 257.02808
-49.640327 128.94238 257.02808
-43.435375 128.94238 257.02808
-37.230305 128.94238 257.02808
-31.349602 107.08057 287.9436
-25.079659 107.08057 287.9436
-19.009592 84.62793 319.69482
-12.673141 84.62793 319.69482
-6.4733319 38.540527 384.86792
140.25273 250.65967 84.903809
146.09651 250.65967 84.903809
151.94028 250.65967 84.903809
157.78427 250.65967 84.903809
163.62804 250.65967 84.903809
169.47203 250.65967 84.903809
175.31581 250.65967 84.903809
181.15958 250.65967 84.903809
187.00357 250.65967 84.903809
192.84734 250.65967 84.903809
198.69133 250.65967 84.903809
204.53511 250.65967 84.903809
210.37888 250.65967 84.903809
216.22287 250.65967 84.903809
222.06665 250.65967 84.903809
230.0988 231.75232 111.6416
235.99867 231.75232 111.6416
241.89856 231.75232 111.6416
-170.12947 8.8828125 415.7334
-163.586 8.8828125 415.7334
-157.04254 8.8828125 415.7334
-150.49907 8.8828125 415.7334
-143.95575 8.8828125 415.7334
-137.41228 8.8828125 415.7334
-130.8688 8.8828125 415.7334
-122.99281 32.581787 382.33862
-116.51948 32.581787 382.33862
-110.04626 32.581787 382.33862
-102.47885 55.688477 349.77881
-95.048203 78.794922 317.21875
-88.711632 78.794922 317.21875
-82.375061 78.794922 317.21875
-75.23909 101.30908 285.49365
-68.969147 101.30908 285.49365
-62.699203 101.30908 285.49365
-55.845398 123.23047 254.60352
-49.640327 123.23047 254.60352
-43.435375 123.23047 254.60352
-37.230305 123.23047 254.60352
-31.349602 101.30908 285.49365
-25.079659 101.30908 285.49365
-19.009592 78.794922 317.21875
-12.673141 78.794922 317.21875
-6.4049511 55.688477 349.77881
140.25273 245.2804 82.620361
146.09651 245.2804 82.620361
151.94028 245.2804 82.620361
157.78427 245.2804 82.620361
163.62804 245.2804 82.620361
169.47203 245.2804 82.620361
175.31581 245.2804 82.620361
181.15958 245.2804 82.620361
187.00357 245.2804 82.620361
192.84734 245.2804 82.620361
198.69133 245.2804 82.620361
204.53511 245.2804 82.620361
210.37888 245.2804 82.620361
216.22287 245.2804 82.620361
222.06665 245.2804 82.620361
230.0988 226.32129 109.33618
235.99867 226.32129 109.33618
241.89856 226.32129 109.33618
-168.306 26.623047 379.80933
-161.83267 26.623047 379.80933
-155.35934 26.623047 379.80933
-150.49907 2.8596191 413.17676
-143.95575 2.8596191 413.17676
-137.41228 2.8596191 413.17676
-130.8688 2.8596191 413.17676
-122.99281 26.623047 379.80933
-116.51948 26.623047 379.80933
-110.04626 26.623047 379.80933
-102.47885 49.792725 347.27612
-95.048203 72.962158 314.74292
-88.711632 72.962158 314.74292
-82.375061 72.962158 314.74292
-75.23909 95.537598 283.04395
-68.969147 95.537598 283.04395
-62.699203 95.537598 283.04395
-55.845398 117.5188 252.1792
-49.640327 117.5188 252.1792
-43.435375 117.5188 252.1792
-37.230305 117.5188 252.1792
-31.349602 95.537598 283.04395
-25.079659 95.537598 283.04395
-19.009592 72.962158 314.74292
-12.673141 72.962158 314.74292
-6.4049511 49.792725 347.27612
0 26.623047 379.80933
146.09651 239.90112 80.337158
151.94028 239.90112 80.337158
157.78427 239.90112 80.337158
163.62804 239.90112 80.337158
169.47203 239.90112 80.337158
175.31581 239.90112 80.337158
181.15958 239.90112 80.337158
187.00357 239.90112 80.337158
192.84734 239.90112 80.337158
198.69133 239.90112 80.337158
204.53511 239.90112 80.337158
210.37888 239.90112 80.337158
216.22287 239.90112 80.337158
222.06665 239.90112 80.337158
230.0988 220.89038 107.03101
235.99867 220.89038 107.03101
241.89856 220.89038 107.03101
-168.306 20.664551 377.28003
-161.83267 20.664551 377.28003
-155.35934 20.664551 377.28003
-148.88602 20.664551 377.28003
-142.4128 20.664551 377.28003
-135.93947 20.664551 377.28003
-129.46614 20.664551 377.28003
-122.99281 20.664551 377.28003
-116.51948 20.664551 377.28003
-108.88381 43.896973 344.77344
-102.47885 43.896973 344.77344
-95.048203 67.129395 312.26709
-88.711632 67.129395 312.26709
-82.375061 67.129395 312.26709
-75.23909 89.765869 280.59399
-68.969147 89.765869 280.59399
-62.699203 89.765869 280.59399
-56.42926 89.765869 280.59399
-50.159317 89.765869 280.59399
-43.889488 89.765869 280.59399
-37.619545 89.765869 280.59399
-31.349602 89.765869 280.59399
-25.346163 67.129395 312.26709
-19.009592 67.129395 312.26709
-12.673141 67.129395 312.26709
-6.4049511 43.896973 344.77344
0 20.664551 377.28003
6.473208 20.664551 377.28003
147.49918 215.45935 104.72559
153.39905 215.45935 104.72559
159.29916 215.45935 104.72559
165.19902 215.45935 104.72559
169.47203 234.52173 78.053711
175.31581 234.52173 78.053711
181.15958 234.52173 78.053711
187.00357 234.52173 78.053711
192.84734 234.52173 78.053711
198.69133 234.52173 78.053711
204.53511 234.52173 78.053711
210.37888 234.52173 78.053711
216.22287 234.52173 78.053711
222.06665 234.52173 78.053711
227.91064 234.52173 78.053711
235.99867 215.45935 104.72559
241.89856 215.45935 104.72559
-181.25255 14.705811 374.75073
-174.77933 14.705811 374.75073
-168.306 14.705811 374.75073
-160.12317 38.001221 342.271
-153.71822 38.001221 342.271
-147.31328 38.001221 342.271
-142.4128 14.705811 374.75073
-134.50349 38.001221 342.271
-128.09854 38.001221 342.271
-121.69359 38.001221 342.271
-115.28863 38.001221 342.271
-108.88381 38.001221 342.271
-101.38477 61.296387 309.79126
-95.048203 61.296387 309.79126
-88.711632 61.296387 309.79126
-82.375061 61.296387 309.79126
-75.23909 83.994629 278.14429
-68.969147 83.994629 278.14429
-62.699203 83.994629 278.14429
-56.42926 83.994629 278.14429
-50.159317 83.994629 278.14429
-43.889488 83.994629 278.14429
-37.619545 83.994629 278.14429
-31.682734 61.296387 309.79126
-25.346163 61.296387 309.79126
-19.009592 61.296387 309.79126
-12.673141 61.296387 309.79126
-6.4049511 38.001221 342.271
0 14.705811 374.75073
6.473208 14.705811 374.75073
147.49918 210.02856 102.42041
153.39905 210.02856 102.42041
159.29916 210.02856 102.42041
165.19902 210.02856 102.42041
169.47203 229.14258 75.770264
175.31581 229.14258 75.770264
181.15958 229.14258 75.770264
187.00357 229.14258 75.770264
192.84734 229.14258 75.770264
198.69133 229.14258 75.770264
204.53511 229.14258 75.770264
210.37888 229.14258 75.770264
216.22287 229.14258 75.770264
222.06665 229.14258 75.770264
227.91064 229.14258 75.770264
235.99867 210.02856 102.42041
241.89856 210.02856 102.42041
-200.67253 8.7470703 372.22119
-194.1992 8.7470703 372.22119
-187.72588 8.7470703 372.22119
-181.25255 8.7470703 372.22119
-172.93307 32.105469 339.76831
-166.52814 32.105469 339.76831
-160.12317 32.105469 339.76831
-153.71822 32.105469 339.76831
-147.31328 32.105469 339.76831
-142.4128 8.7470703 372.22119
-134.50349 32.105469 339.76831
-128.09854 32.105469 339.76831
-121.69359 32.105469 339.76831
-115.28863 32.105469 339.76831
-108.88381 32.105469 339.76831
-101.38477 55.463623 307.31519
-95.048203 55.463623 307.31519
-88.711632 55.463623 307.31519
-82.375061 55.463623 307.31519
-75.23909 78.223145 275.69434
-68.969147 78.223145 275.69434
-62.699203 78.223145 275.69434
-56.42926 78.223145 275.69434
-50.159317 78.223145 275.69434
-43.889488 78.223145 275.69434
-37.619545 78.223145 275.69434
-31.682734 55.463623 307.31519
-25.346163 55.463623 307.31519
-19.214731 32.105469 339.76831
-12.809902 32.105469 339.76831
-6.4049511 32.105469 339.76831
0 8.7470703 372.22119
154.94899 184.23389 128.40771
159.29916 204.59741 100.11499
165.19902 204.59741 100.11499
171.09912 204.59741 100.11499
175.31581 223.76318 73.486816
181.15958 223.76318 73.486816
187.00357 223.76318 73.486816
192.84734 223.76318 73.486816
198.69133 223.76318 73.486816
204.53511 223.76318 73.486816
210.37888 223.76318 73.486816
216.22287 223.76318 73.486816
222.06665 223.76318 73.486816
227.91064 223.76318 73.486816
235.99867 204.59741 100.11499
241.89856 204.59741 100.11499
-207.14586 2.7883301 369.69189
-200.67253 2.7883301 369.69189
-194.1992 2.7883301 369.69189
-187.72588 2.7883301 369.69189
-179.33791 26.209717 337.26562
-172.93307 26.209717 337.26562
-166.52814 26.209717 337.26562
-160.12317 26.209717 337.26562
-153.71822 26.209717 337.26562
-147.31328 26.209717 337.26562
-140.90845 26.209717 337.26562
-134.50349 26.209717 337.26562
-128.09854 26.209717 337.26562
-121.69359 26.209717 337.26562
-115.28863 26.209717 337.26562
-108.88381 26.209717 337.26562
-101.38477 49.630859 304.83936
-95.048203 49.630859 304.83936
-88.711632 49.630859 304.83936
-82.375061 49.630859 304.83936
-75.23909 72.45166 273.24438
-68.969147 72.45166 273.24438
-62.699203 72.45166 273.24438
-57.028896 49.630859 304.83936
-50.692326 49.630859 304.83936
-44.355877 49.630859 304.83936
-38.019306 49.630859 304.83936
-31.682734 49.630859 304.83936
-25.619682 26.209717 337.26562
-19.214731 26.209717 337.26562
-12.809902 26.209717 337.26562
-6.4049511 26.209717 337.26562
0 2.7883301 369.69189
6.473208 2.7883301 369.69189
12.946664 2.7883301 369.69189
19.41987 2.7883301 369.69189
25.893328 2.7883301 369.69189
154.94899 178.74805 126.0791
160.90871 178.74805 126.0791
165.19902 199.16663 97.809814
171.09912 199.16663 97.809814
176.99901 199.16663 97.809814
181.15958 218.38403 71.203613
187.00357 218.38403 71.203613
192.84734 218.38403 71.203613
198.69133 218.38403 71.203613
204.53511 218.38403 71.203613
210.37888 218.38403 71.203613
216.22287 218.38403 71.203613
222.06665 218.38403 71.203613
227.91064 218.38403 71.203613
233.75441 218.38403 71.203613
239.59818 218.38403 71.203613
-198.55276 20.313721 334.76318
-192.14781 20.313721 334.76318
-185.74284 20.313721 334.76318
-179.33791 20.313721 334.76318
-172.93307 20.313721 334.76318
-166.52814 20.313721 334.76318
-160.12317 20.313721 334.76318
-153.71822 20.313721 334.76318
-147.31328 20.313721 334.76318
-140.90845 20.313721 334.76318
-134.50349 20.313721 334.76318
-128.09854 20.313721 334.76318
-121.69359 20.313721 334.76318
-115.28863 20.313721 334.76318
-108.88381 20.313721 334.76318
-102.47885 20.313721 334.76318
-96.073906 20.313721 334.76318
-88.711632 43.797852 302.36353
-82.375061 43.797852 302.36353
-76.038612 43.797852 302.36353
-68.969147 66.679932 270.79468
-62.699203 66.679932 270.79468
-57.028896 43.797852 302.36353
-50.692326 43.797852 302.36353
-44.355877 43.797852 302.36353
-38.019306 43.797852 302.36353
-31.682734 43.797852 302.36353
-25.619682 20.313721 334.76318
-19.214731 20.313721 334.76318
-12.809902 20.313721 334.76318
-6.4049511 20.313721 334.76318
154.94899 173.26221 123.75049
160.90871 173.26221 123.75049
165.19902 193.7356 95.504395
169.47203 213.00464 68.920166
175.31581 213.00464 68.920166
181.15958 213.00464 68.920166
187.00357 213.00464 68.920166
192.84734 213.00464 68.920166
198.69133 213.00464 68.920166
204.53511 213.00464 68.920166
210.37888 213.00464 68.920166
216.22287 213.00464 68.920166
222.06665 213.00464 68.920166
227.91064 213.00464 68.920166
233.75441 213.00464 68.920166
239.59818 213.00464 68.920166
-204.9577 14.417969 332.2605
-198.55276 14.417969 332.2605
-192.14781 14.417969 332.2605
-185.74284 14.417969 332.2605
-179.33791 14.417969 332.2605
-172.93307 14.417969 332.2605
-166.52814 14.417969 332.2605
-160.12317 14.417969 332.2605
-153.71822 14.417969 332.2605
-147.31328 14.417969 332.2605
-140.90845 14.417969 332.2605
-134.50349 14.417969 332.2605
-128.09854 14.417969 332.2605
-121.69359 14.417969 332.2605
-115.28863 14.417969 332.2605
-108.88381 14.417969 332.2605
-102.47885 14.417969 332.2605
-96.073906 14.417969 332.2605
-89.668953 14.417969 332.2605
-82.375061 37.965332 299.8877
-76.038612 37.965332 299.8877
-69.702042 37.965332 299.8877
-63.365467 37.965332 299.8877
-57.028896 37.965332 299.8877
-50.692326 37.965332 299.8877
-44.355877 37.965332 299.8877
-38.019306 37.965332 299.8877
-32.024635 14.417969 332.2605
-25.619682 14.417969 332.2605
-19.214731 14.417969 332.2605
-12.809902 14.417969 332.2605
-6.4049511 14.417969 332.2605
154.94899 167.77637 121.42188
160.90871 167.77637 121.42188
165.19902 188.30469 93.199219
169.47203 207.62549 66.636963
175.31581 207.62549 66.636963
181.15958 207.62549 66.636963
187.00357 207.62549 66.636963
192.84734 207.62549 66.636963
198.69133 207.62549 66.636963
202.51001 227.5498 39.244385
208.29593 227.5498 39.244385
214.08206 227.5498 39.244385
219.86795 227.5498 39.244385
227.91064 207.62549 66.636963
233.75441 207.62549 66.636963
239.59818 207.62549 66.636963
-204.9577 8.5222168 329.75781
-198.55276 8.5222168 329.75781
-192.14781 8.5222168 329.75781
-185.74284 8.5222168 329.75781
-179.33791 8.5222168 329.75781
-172.93307 8.5222168 329.75781
-166.52814 8.5222168 329.75781
-160.12317 8.5222168 329.75781
-153.71822 8.5222168 329.75781
-147.31328 8.5222168 329.75781
-140.90845 8.5222168 329.75781
-134.50349 8.5222168 329.75781
-128.09854 8.5222168 329.75781
-121.69359 8.5222168 329.75781
-115.28863 8.5222168 329.75781
-108.88381 8.5222168 329.75781
-102.47885 8.5222168 329.75781
-96.073906 8.5222168 329.75781
-89.668953 8.5222168 329.75781
-82.375061 32.132324 297.41162
-76.038612 32.132324 297.41162
-69.702042 32.132324 297.41162
-63.365467 32.132324 297.41162
-57.644314 8.5222168 329.75781
-51.239365 8.5222168 329.75781
-44.834538 8.5222168 329.75781
-38.429588 8.5222168 329.75781
-32.024635 8.5222168 329.75781
-25.619682 8.5222168 329.75781
-19.214731 8.5222168 329.75781
-12.809902 8.5222168 329.75781
-6.4049511 8.5222168 329.75781
0 8.5222168 329.75781
6.4048295 8.5222168 329.75781
12.809902 8.5222168 329.75781
19.214731 8.5222168 329.75781
160.90871 162.29053 119.09326
165.19902 182.87378 90.893799
169.47203 202.24597 64.353516
175.31581 202.24597 64.353516
181.15958 202.24597 64.353516
187.00357 202.24597 64.353516
192.84734 202.24597 64.353516
198.69133 202.24597 64.353516
202.51001 222.22375 36.983643
208.29593 222.22375 36.983643
214.08206 222.22375 36.983643
219.86795 222.22375 36.983643
227.91064 202.24597 64.353516
233.75441 202.24597 64.353516
241.89856 182.87378 90.893799
-204.9577 2.6264648 327.25537
-198.55276 2.6264648 327.25537
-192.14781 2.6264648 327.25537
-185.74284 2.6264648 327.25537
-179.33791 2.6264648 327.25537
-172.93307 2.6264648 327.25537
-166.52814 2.6264648 327.25537
-160.12317 2.6264648 327.25537
-153.71822 2.6264648 327.25537
-147.31328 2.6264648 327.25537
-140.90845 2.6264648 327.25537
-134.50349 2.6264648 327.25537
-128.09854 2.6264648 327.25537
-121.69359 2.6264648 327.25537
-115.28863 2.6264648 327.25537
-108.88381 2.6264648 327.25537
-102.47885 2.6264648 327.25537
-96.073906 2.6264648 327.25537
-89.668953 2.6264648 327.25537
-83.264 2.6264648 327.25537
-76.038612 26.299561 294.93579
-69.702042 26.299561 294.93579
-63.365467 26.299561 294.93579
-57.644314 2.6264648 327.25537
-51.239365 2.6264648 327.25537
-44.834538 2.6264648 327.25537
-38.429588 2.6264648 327.25537
-32.024635 2.6264648 327.25537
-19.214731 2.6264648 327.25537
-12.809902 2.6264648 327.25537
-6.4049511 2.6264648 327.25537
0 2.6264648 327.25537
6.4048295 2.6264648 327.25537
12.809902 2.6264648 327.25537
19.214731 2.6264648 327.25537
25.619804 2.6264648 327.25537
32.024635 2.6264648 327.25537
165.19902 177.44287 88.588623
171.09912 177.44287 88.588623
176.99901 177.44287 88.588623
182.8989 177.44287 88.588623
187.00357 196.8667 62.070068
192.84734 196.8667 62.070068
198.69133 196.8667 62.070068
202.51001 216.89783 34.7229
208.29593 216.89783 34.7229
216.22287 196.8667 62.070068
222.06665 196.8667 62.070068
227.91064 196.8667 62.070068
233.75441 196.8667 62.070068
241.89856 177.44287 88.588623
247.79866 177.44287 88.588623
-69.702042 20.466797 292.45996
-63.365467 20.466797 292.45996
166.86819 151.31885 114.43604
171.09912 172.01184 86.283203
176.99901 172.01184 86.283203
182.8989 172.01184 86.283203
188.799 172.01184 86.283203
192.84734 191.48743 59.786621
198.69133 191.48743 59.786621
204.53511 191.48743 59.786621
210.37888 191.48743 59.786621
216.22287 191.48743 59.786621
222.06665 191.48743 59.786621
227.91064 191.48743 59.786621
233.75441 191.48743 59.786621
241.89856 172.01184 86.283203
247.79866 172.01184 86.283203
-6.3365707 14.633789 289.98413
0 14.633789 289.98413
6.3364501 14.633789 289.98413
166.86819 145.83301 112.10742
171.09912 166.58081 83.977783
176.99901 166.58081 83.977783
182.8989 166.58081 83.977783
188.799 166.58081 83.977783
192.84734 186.10803 57.503418
198.69133 186.10803 57.503418
204.53511 186.10803 57.503418
210.37888 186.10803 57.503418
216.22287 186.10803 57.503418
222.06665 186.10803 57.503418
227.91064 186.10803 57.503418
233.75441 186.10803 57.503418
241.89856 166.58081 83.977783
247.79866 166.58081 83.977783
-19.009592 8.8010254 287.5083
-12.673141 8.8010254 287.5083
-6.3365707 8.8010254 287.5083
0 8.8010254 287.5083
6.3364501 8.8010254 287.5083
164.17517 98.130127 166.81738
166.86819 140.34717 109.77881
171.09912 161.1499 81.672607
176.99901 161.1499 81.672607
182.8989 161.1499 81.672607
188.799 161.1499 81.672607
192.84734 180.72876 55.219971
198.69133 180.72876 55.219971
204.53511 180.72876 55.219971
210.37888 180.72876 55.219971
216.22287 180.72876 55.219971
222.06665 180.72876 55.219971
227.91064 180.72876 55.219971
233.75441 180.72876 55.219971
241.89856 161.1499 81.672607
250.30241 140.34717 109.77881
264.10281 76.715576 195.75024
-19.009592 2.9682617 285.03223
-12.673141 2.9682617 285.03223
-6.3365707 2.9682617 285.03223
0 2.9682617 285.03223
6.3364501 2.9682617 285.03223
166.86819 134.86133 107.4502
172.82793 134.86133 107.4502
176.99901 155.71899 79.367188
182.8989 155.71899 79.367188
188.799 155.71899 79.367188
194.69885 155.71899 79.367188
200.59895 155.71899 79.367188
204.53511 175.34937 52.936523
210.37888 175.34937 52.936523
216.22287 175.34937 52.936523
222.06665 175.34937 52.936523
227.91064 175.34937 52.936523
233.75441 175.34937 52.936523
241.89856 155.71899 79.367188
250.30241 134.86133 107.4502
264.10281 71.062012 193.35034
273.02216 48.977539 223.08496
165.83208 65.408203 190.95068
168.53737 108.46313 133.18115
172.82793 129.37549 105.12158
178.7874 129.37549 105.12158
182.8989 150.28809 77.062012
188.799 150.28809 77.062012
194.69885 150.28809 77.062012
200.59895 150.28809 77.062012
206.49884 150.28809 77.062012
212.39873 150.28809 77.062012
216.22287 169.97021 50.65332
222.06665 169.97021 50.65332
227.91064 169.97021 50.65332
235.99867 150.28809 77.062012
241.89856 150.28809 77.062012
252.80617 108.46313 133.18115
261.46405 86.935791 162.06567
270.24487 65.408203 190.95068
165.83208 59.754639 188.55078
170.25565 81.338379 159.68994
172.82793 123.88965 102.79297
178.7874 123.88965 102.79297
184.74689 123.88965 102.79297
190.70662 123.88965 102.79297
194.69885 144.85693 74.756592
200.59895 144.85693 74.756592
206.49884 144.85693 74.756592
212.39873 144.85693 74.756592
218.29883 144.85693 74.756592
224.19868 144.85693 74.756592
230.0988 144.85693 74.756592
235.99867 144.85693 74.756592
241.89856 144.85693 74.756592
252.80617 102.92236 130.8291
261.46405 81.338379 159.68994
270.24487 59.754639 188.55078
279.22711 37.553955 218.23608
159.69002 54.101074 186.15088
164.17517 75.741455 157.31396
168.53737 97.381836 128.47729
172.82793 118.40381 100.46436
178.7874 118.40381 100.46436
184.74689 118.40381 100.46436
190.70662 118.40381 100.46436
194.69885 139.42627 72.451416
200.59895 139.42627 72.451416
206.49884 139.42627 72.451416
212.39873 139.42627 72.451416
218.29883 139.42627 72.451416
224.19868 139.42627 72.451416
230.0988 139.42627 72.451416
235.99867 139.42627 72.451416
241.89856 139.42627 72.451416
250.30241 118.40381 100.46436
261.46405 75.741455 157.31396
270.24487 54.101074 186.15088
279.22711 31.842285 215.81152
153.54817 48.447266 183.75098
158.09448 70.144043 154.93799
162.51826 91.841064 126.12549
168.53737 91.841064 126.12549
172.82793 112.91797 98.135742
178.7874 112.91797 98.135742
184.74689 112.91797 98.135742
190.70662 112.91797 98.135742
194.69885 133.99512 70.145996
200.59895 133.99512 70.145996
206.49884 133.99512 70.145996
212.39873 133.99512 70.145996
218.29883 133.99512 70.145996
224.19868 133.99512 70.145996
230.0988 133.99512 70.145996
235.99867 133.99512 70.145996
244.3427 112.91797 98.135742
250.30241 112.91797 98.135742
261.46405 70.144043 154.93799
267.54474 70.144043 154.93799
279.22711 26.130371 213.38696
147.40634 42.793701 181.35107
152.01401 64.547119 152.56226
156.49895 86.300293 123.77344
162.51826 86.300293 123.77344
168.53737 86.300293 123.77344
172.82793 107.43237 95.807373
178.7874 107.43237 95.807373
184.74689 107.43237 95.807373
190.70662 107.43237 95.807373
194.69885 128.56421 67.84082
200.59895 128.56421 67.84082
206.49884 128.56421 67.84082
212.39873 128.56421 67.84082
218.29883 128.56421 67.84082
226.464 107.43237 95.807373
232.42372 107.43237 95.807373
238.38321 107.43237 95.807373
244.3427 107.43237 95.807373
250.30241 107.43237 95.807373
261.46405 64.547119 152.56226
267.54474 64.547119 152.56226
276.38672 42.793701 181.35107
142.71603 14.706787 208.53809
145.93353 58.949707 150.18628
150.47984 80.759766 121.42163
156.49895 80.759766 121.42163
160.90871 101.94653 93.47876
166.86819 101.94653 93.47876
172.82793 101.94653 93.47876
178.7874 101.94653 93.47876
184.74689 101.94653 93.47876
190.70662 101.94653 93.47876
194.69885 123.1333 65.5354
200.59895 123.1333 65.5354
208.58531 101.94653 93.47876
214.54478 101.94653 93.47876
220.50452 101.94653 93.47876
226.464 101.94653 93.47876
232.42372 101.94653 93.47876
238.38321 101.94653 93.47876
244.3427 101.94653 93.47876
252.80617 80.759766 121.42163
261.46405 58.949707 150.18628
267.54474 58.949707 150.18628
276.38672 37.139893 178.95142
285.43207 14.706787 208.53809
117.89599 8.9951172 206.11353
124.10094 8.9951172 206.11353
130.30589 8.9951172 206.11353
136.51108 8.9951172 206.11353
141.26427 31.486328 176.55151
144.46074 75.218994 119.06982
150.47984 75.218994 119.06982
154.94899 96.460693 91.150146
160.90871 96.460693 91.150146
166.86819 96.460693 91.150146
172.82793 96.460693 91.150146
178.7874 96.460693 91.150146
184.74689 96.460693 91.150146
190.70662 96.460693 91.150146
196.66609 96.460693 91.150146
202.62582 96.460693 91.150146
208.58531 96.460693 91.150146
214.54478 96.460693 91.150146
220.50452 96.460693 91.150146
226.464 96.460693 91.150146
232.42372 96.460693 91.150146
238.38321 96.460693 91.150146
244.3427 96.460693 91.150146
250.30241 96.460693 91.150146
258.82529 75.218994 119.06982
267.54474 53.352783 147.81055
276.38672 31.486328 176.55151
282.52853 31.486328 176.55151
291.63724 8.9951172 206.11353
117.89599 3.2832031 203.68896
122.83854 25.83252 174.15161
128.98036 25.83252 174.15161
135.12244 25.83252 174.15161
139.85284 47.755371 145.43457
143.03001 90.974854 88.821533
148.9895 90.974854 88.821533
154.94899 90.974854 88.821533
160.90871 90.974854 88.821533
166.86819 90.974854 88.821533
172.82793 90.974854 88.821533
178.7874 90.974854 88.821533
184.74689 90.974854 88.821533
190.70662 90.974854 88.821533
196.66609 90.974854 88.821533
202.62582 90.974854 88.821533
208.58531 90.974854 88.821533
214.54478 90.974854 88.821533
220.50452 90.974854 88.821533
226.464 90.974854 88.821533
232.42372 90.974854 88.821533
238.38321 90.974854 88.821533
244.3427 90.974854 88.821533
250.30241 90.974854 88.821533
256.2619 90.974854 88.821533
267.54474 47.755371 145.43457
273.62521 47.755371 145.43457
282.52853 25.83252 174.15161
291.63724 3.2832031 203.68896
116.69671 20.178955 171.75195
122.83854 20.178955 171.75195
127.69167 42.158203 143.05884
133.77237 42.158203 143.05884
138.44141 64.137695 114.36597
143.03001 85.489014 86.49292
148.9895 85.489014 86.49292
154.94899 85.489014 86.49292
160.90871 85.489014 86.49292
166.86819 85.489014 86.49292
172.82793 85.489014 86.49292
178.7874 85.489014 86.49292
184.74689 85.489014 86.49292
190.70662 85.489014 86.49292
196.66609 85.489014 86.49292
202.62582 85.489014 86.49292
208.58531 85.489014 86.49292
214.54478 85.489014 86.49292
220.50452 85.489014 86.49292
226.464 85.489014 86.49292
232.42372 85.489014 86.49292
238.38321 85.489014 86.49292
244.3427 85.489014 86.49292
250.30241 85.489014 86.49292
256.2619 85.489014 86.49292
267.54474 42.158203 143.05884
273.62521 42.158203 143.05884
282.52853 20.178955 171.75195
288.67062 20.178955 171.75195
116.69671 14.525391 169.35205
121.61121 36.561035 140.68286
127.69167 36.561035 140.68286
131.11081 80.003174 84.164307
137.0703 80.003174 84.164307
141.5993 101.40967 56.314209
147.49918 101.40967 56.314209
153.39905 101.40967 56.314209
160.90871 80.003174 84.164307
166.86819 80.003174 84.164307
172.82793 80.003174 84.164307
178.7874 80.003174 84.164307
184.74689 80.003174 84.164307
190.70662 80.003174 84.164307
198.63335 58.596924 112.01416
202.62582 80.003174 84.164307
208.58531 80.003174 84.164307
214.54478 80.003174 84.164307
220.50452 80.003174 84.164307
226.464 80.003174 84.164307
232.42372 80.003174 84.164307
238.38321 80.003174 84.164307
244.3427 80.003174 84.164307
250.30241 80.003174 84.164307
256.2619 80.003174 84.164307
267.54474 36.561035 140.68286
273.62521 36.561035 140.68286
282.52853 14.525391 169.35205
288.67062 14.525391 169.35205
110.55464 8.871582 166.95215
115.53073 30.963867 138.30713
121.61121 30.963867 138.30713
126.40298 53.056152 109.66235
129.79932 95.978516 54.009033
135.69919 95.978516 54.009033
141.5993 95.978516 54.009033
147.49918 95.978516 54.009033
153.39905 95.978516 54.009033
160.90871 74.517578 81.835693
166.86819 74.517578 81.835693
172.82793 74.517578 81.835693
178.7874 74.517578 81.835693
184.74689 74.517578 81.835693
192.61424 53.056152 109.66235
198.63335 53.056152 109.66235
202.62582 74.517578 81.835693
208.58531 74.517578 81.835693
214.54478 74.517578 81.835693
220.50452 74.517578 81.835693
226.464 74.517578 81.835693
232.42372 74.517578 81.835693
238.38321 74.517578 81.835693
244.3427 74.517578 81.835693
250.30241 74.517578 81.835693
258.82529 53.056152 109.66235
267.54474 30.963867 138.30713
273.62521 30.963867 138.30713
282.52853 8.871582 166.95215
288.67062 8.871582 166.95215
85.987076 3.2177734 164.55225
92.128906 3.2177734 164.55225
104.4128 3.2177734 164.55225
109.45004 25.366699 135.93115
114.36477 47.515381 107.3103
119.1916 69.031494 79.50708
125.1511 69.031494 79.50708
129.79932 90.547607 51.703613
135.69919 90.547607 51.703613
141.5993 90.547607 51.703613
147.49918 90.547607 51.703613
153.39905 90.547607 51.703613
160.90871 69.031494 79.50708
166.86819 69.031494 79.50708
172.82793 69.031494 79.50708
180.57581 47.515381 107.3103
186.59491 47.515381 107.3103
192.61424 47.515381 107.3103
198.63335 47.515381 107.3103
202.62582 69.031494 79.50708
208.58531 69.031494 79.50708
214.54478 69.031494 79.50708
220.50452 69.031494 79.50708
226.464 69.031494 79.50708
232.42372 69.031494 79.50708
238.38321 69.031494 79.50708
244.3427 69.031494 79.50708
250.30241 69.031494 79.50708
258.82529 47.515381 107.3103
267.54474 25.366699 135.93115
273.62521 25.366699 135.93115
279.70569 25.366699 135.93115
288.67062 3.2177734 164.55225
294.81244 3.2177734 164.55225
325.52206 3.2177734 164.55225
331.66415 3.2177734 164.55225
85.12793 19.769531 133.55518
91.208405 19.769531 133.55518
97.288872 19.769531 133.55518
102.32633 41.974609 104.9585
107.27239 63.545654 77.178467
113.23211 63.545654 77.178467
119.1916 63.545654 77.178467
125.1511 63.545654 77.178467
129.79932 85.116699 49.398438
135.69919 85.116699 49.398438
141.5993 85.116699 49.398438
147.49918 85.116699 49.398438
153.39905 85.116699 49.398438
160.90871 63.545654 77.178467
166.86819 63.545654 77.178467
172.82793 63.545654 77.178467
178.7874 63.545654 77.178467
184.74689 63.545654 77.178467
190.70662 63.545654 77.178467
198.63335 41.974609 104.9585
202.62582 63.545654 77.178467
208.58531 63.545654 77.178467
214.54478 63.545654 77.178467
220.50452 63.545654 77.178467
226.464 63.545654 77.178467
232.42372 63.545654 77.178467
238.38321 63.545654 77.178467
244.3427 63.545654 77.178467
250.30241 63.545654 77.178467
258.82529 41.974609 104.9585
264.8446 41.974609 104.9585
273.62521 19.769531 133.55518
279.70569 19.769531 133.55518
285.78638 19.769531 133.55518
66.88607 14.172363 131.17944
72.966766 14.172363 131.17944
85.12793 14.172363 131.17944
91.208405 14.172363 131.17944
97.288872 14.172363 131.17944
101.31291 58.060059 74.849854
107.27239 58.060059 74.849854
112.09946 79.685547 47.093018
117.99934 79.685547 47.093018
123.89921 79.685547 47.093018
129.79932 79.685547 47.093018
135.69919 79.685547 47.093018
141.5993 79.685547 47.093018
147.49918 79.685547 47.093018
154.94899 58.060059 74.849854
160.90871 58.060059 74.849854
166.86819 58.060059 74.849854
172.82793 58.060059 74.849854
178.7874 58.060059 74.849854
184.74689 58.060059 74.849854
190.70662 58.060059 74.849854
198.63335 36.434082 102.60645
202.62582 58.060059 74.849854
208.58531 58.060059 74.849854
214.54478 58.060059 74.849854
220.50452 58.060059 74.849854
226.464 58.060059 74.849854
232.42372 58.060059 74.849854
238.38321 58.060059 74.849854
244.3427 58.060059 74.849854
250.30241 58.060059 74.849854
258.82529 36.434082 102.60645
264.8446 36.434082 102.60645
273.62521 14.172363 131.17944
279.70569 14.172363 131.17944
285.78638 14.172363 131.17944
60.805603 8.5751953 128.80347
66.88607 8.5751953 128.80347
72.966766 8.5751953 128.80347
79.047241 8.5751953 128.80347
85.12793 8.5751953 128.80347
91.208405 8.5751953 128.80347
95.353195 52.574219 72.521484
100.29948 74.254639 44.787842
106.19936 74.254639 44.787842
112.09946 74.254639 44.787842
117.99934 74.254639 44.787842
123.89921 74.254639 44.787842
129.79932 74.254639 44.787842
135.69919 74.254639 44.787842
141.5993 74.254639 44.787842
147.49918 74.254639 44.787842
154.94899 52.574219 72.521484
160.90871 52.574219 72.521484
166.86819 52.574219 72.521484
172.82793 52.574219 72.521484
180.57581 30.893311 100.25464
186.59491 30.893311 100.25464
192.61424 30.893311 100.25464
198.63335 30.893311 100.25464
202.62582 52.574219 72.521484
208.58531 52.574219 72.521484
214.54478 52.574219 72.521484
220.50452 52.574219 72.521484
228.72931 30.893311 100.25464
234.74864 30.893311 100.25464
240.76775 30.893311 100.25464
246.78685 30.893311 100.25464
252.80617 30.893311 100.25464
258.82529 30.893311 100.25464
264.8446 30.893311 100.25464
273.62521 8.5751953 128.80347
279.70569 8.5751953 128.80347
285.78638 8.5751953 128.80347
291.86682 8.5751953 128.80347
304.02802 8.5751953 128.80347
310.10849 8.5751953 128.80347
316.18918 8.5751953 128.80347
18.241634 2.9780273 126.42773
24.322334 2.9780273 126.42773
30.402802 2.9780273 126.42773
36.483269 2.9780273 126.42773
42.563965 2.9780273 126.42773
48.644436 2.9780273 126.42773
54.725136 2.9780273 126.42773
60.805603 2.9780273 126.42773
66.211037 25.352783 97.902832
72.23037 25.352783 97.902832
79.047241 2.9780273 126.42773
84.268799 25.352783 97.902832
90.287903 25.352783 97.902832
94.399376 68.82373 42.482422
100.29948 68.82373 42.482422
106.19936 68.82373 42.482422
112.09946 68.82373 42.482422
117.99934 68.82373 42.482422
123.89921 68.82373 42.482422
129.79932 68.82373 42.482422
135.69919 68.82373 42.482422
141.5993 68.82373 42.482422
147.49918 68.82373 42.482422
154.94899 47.088379 70.192871
160.90871 47.088379 70.192871
166.86819 47.088379 70.192871
172.82793 47.088379 70.192871
178.7874 47.088379 70.192871
186.59491 25.352783 97.902832
192.61424 25.352783 97.902832
196.66609 47.088379 70.192871
202.62582 47.088379 70.192871
208.58531 47.088379 70.192871
214.54478 47.088379 70.192871
222.71021 25.352783 97.902832
228.72931 25.352783 97.902832
234.74864 25.352783 97.902832
240.76775 25.352783 97.902832
246.78685 25.352783 97.902832
252.80617 25.352783 97.902832
258.82529 25.352783 97.902832
267.54474 2.9780273 126.42773
273.62521 2.9780273 126.42773
279.70569 2.9780273 126.42773
285.78638 2.9780273 126.42773
291.86682 2.9780273 126.42773
297.94754 2.9780273 126.42773
304.02802 2.9780273 126.42773
310.10849 2.9780273 126.42773
316.18918 2.9780273 126.42773
322.26962 2.9780273 126.42773
328.35034 2.9780273 126.42773
60.191936 19.812012 95.550781
66.211037 19.812012 95.550781
72.23037 19.812012 95.550781
78.249474 19.812012 95.550781
84.268799 19.812012 95.550781
90.287903 19.812012 95.550781
94.399376 63.392822 40.177246
100.29948 63.392822 40.177246
106.19936 63.392822 40.177246
112.09946 63.392822 40.177246
117.99934 63.392822 40.177246
123.89921 63.392822 40.177246
129.79932 63.392822 40.177246
135.69919 63.392822 40.177246
141.5993 63.392822 40.177246
147.49918 63.392822 40.177246
154.94899 41.602295 67.864258
160.90871 41.602295 67.864258
166.86819 41.602295 67.864258
172.82793 41.602295 67.864258
178.7874 41.602295 67.864258
184.74689 41.602295 67.864258
190.70662 41.602295 67.864258
196.66609 41.602295 67.864258
202.62582 41.602295 67.864258
208.58531 41.602295 67.864258
214.54478 41.602295 67.864258
222.71021 19.812012 95.550781
228.72931 19.812012 95.550781
234.74864 19.812012 95.550781
240.76775 19.812012 95.550781
246.78685 19.812012 95.550781
252.80617 19.812012 95.550781
48.153503 14.27124 93.198975
54.172836 14.27124 93.198975
60.191936 14.27124 93.198975
66.211037 14.27124 93.198975
72.23037 14.27124 93.198975
78.249474 14.27124 93.198975
84.268799 14.27124 93.198975
90.287903 14.27124 93.198975
94.399376 57.961914 37.871826
100.29948 57.961914 37.871826
106.19936 57.961914 37.871826
112.09946 57.961914 37.871826
117.99934 57.961914 37.871826
123.89921 57.961914 37.871826
129.79932 57.961914 37.871826
135.69919 57.961914 37.871826
141.5993 57.961914 37.871826
147.49918 57.961914 37.871826
154.94899 36.116699 65.535645
160.90871 36.116699 65.535645
166.86819 36.116699 65.535645
172.82793 36.116699 65.535645
178.7874 36.116699 65.535645
184.74689 36.116699 65.535645
190.70662 36.116699 65.535645
196.66609 36.116699 65.535645
202.62582 36.116699 65.535645
208.58531 36.116699 65.535645
214.54478 36.116699 65.535645
222.71021 14.27124 93.198975
228.72931 14.27124 93.198975
234.74864 14.27124 93.198975
240.76775 14.27124 93.198975
246.78685 14.27124 93.198975
252.80617 14.27124 93.198975
300.95969 14.27124 93.198975
306.97879 14.27124 93.198975
48.153503 8.7304688 90.847168
54.172836 8.7304688 90.847168
60.191936 8.7304688 90.847168
65.55529 30.630859 63.207031
71.515007 30.630859 63.207031
78.249474 8.7304688 90.847168
84.268799 8.7304688 90.847168
89.3937 30.630859 63.207031
94.399376 52.530762 35.56665
100.29948 52.530762 35.56665
106.19936 52.530762 35.56665
112.09946 52.530762 35.56665
117.99934 52.530762 35.56665
123.89921 52.530762 35.56665
129.79932 52.530762 35.56665
135.69919 52.530762 35.56665
141.5993 52.530762 35.56665
147.49918 52.530762 35.56665
153.39905 52.530762 35.56665
159.29916 52.530762 35.56665
165.19902 52.530762 35.56665
171.09912 52.530762 35.56665
176.99901 52.530762 35.56665
184.74689 30.630859 63.207031
190.70662 30.630859 63.207031
196.66609 30.630859 63.207031
202.62582 30.630859 63.207031
208.58531 30.630859 63.207031
216.69087 8.7304688 90.847168
222.71021 8.7304688 90.847168
228.72931 8.7304688 90.847168
234.74864 8.7304688 90.847168
240.76775 8.7304688 90.847168
282.90213 8.7304688 90.847168
288.92123 8.7304688 90.847168
300.95969 8.7304688 90.847168
306.97879 8.7304688 90.847168
312.99814 8.7304688 90.847168
0 3.1899414 88.495361
6.0191016 3.1899414 88.495361
30.095968 3.1899414 88.495361
36.115067 3.1899414 88.495361
42.134399 3.1899414 88.495361
48.153503 3.1899414 88.495361
53.636314 25.14502 60.878418
59.595802 25.14502 60.878418
65.55529 25.14502 60.878418
71.515007 25.14502 60.878418
77.474495 25.14502 60.878418
82.599632 47.100098 33.26123
88.499504 47.100098 33.26123
94.399376 47.100098 33.26123
100.29948 47.100098 33.26123
106.19936 47.100098 33.26123
112.09946 47.100098 33.26123
117.99934 47.100098 33.26123
123.89921 47.100098 33.26123
129.79932 47.100098 33.26123
135.69919 47.100098 33.26123
141.5993 47.100098 33.26123
148.9895 25.14502 60.878418
153.39905 47.100098 33.26123
159.29916 47.100098 33.26123
165.19902 47.100098 33.26123
171.09912 47.100098 33.26123
176.99901 47.100098 33.26123
184.74689 25.14502 60.878418
190.70662 25.14502 60.878418
196.66609 25.14502 60.878418
202.62582 25.14502 60.878418
208.58531 25.14502 60.878418
216.69087 3.1899414 88.495361
222.71021 3.1899414 88.495361
234.74864 3.1899414 88.495361
240.76775 3.1899414 88.495361
264.8446 3.1899414 88.495361
270.86371 3.1899414 88.495361
276.88281 3.1899414 88.495361
282.90213 3.1899414 88.495361
288.92123 3.1899414 88.495361
294.94058 3.1899414 88.495361
300.95969 3.1899414 88.495361
306.97879 3.1899414 88.495361
312.99814 3.1899414 88.495361
35.757389 19.65918 58.549805
41.717106 19.65918 58.549805
47.676598 19.65918 58.549805
53.636314 19.65918 58.549805
59.595802 19.65918 58.549805
64.899544 41.668945 30.956055
70.799652 41.668945 30.956055
76.699524 41.668945 30.956055
82.599632 41.668945 30.956055
88.499504 41.668945 30.956055
94.399376 41.668945 30.956055
100.29948 41.668945 30.956055
106.19936 41.668945 30.956055
112.09946 41.668945 30.956055
117.99934 41.668945 30.956055
123.89921 41.668945 30.956055
129.79932 41.668945 30.956055
135.69919 41.668945 30.956055
141.5993 41.668945 30.956055
148.9895 19.65918 58.549805
154.94899 19.65918 58.549805
159.29916 41.668945 30.956055
165.19902 41.668945 30.956055
172.82793 19.65918 58.549805
178.7874 19.65918 58.549805
184.74689 19.65918 58.549805
190.70662 19.65918 58.549805
297.979 19.65918 58.549805
303.93851 19.65918 58.549805
-5.9596033 14.17334 56.221191
0 14.17334 56.221191
5.9594893 14.17334 56.221191
11.919207 14.17334 56.221191
17.878695 14.17334 56.221191
23.838413 14.17334 56.221191
29.797901 14.17334 56.221191
35.757389 14.17334 56.221191
41.717106 14.17334 56.221191
47.199688 36.238281 28.650635
53.099792 36.238281 28.650635
58.999668 36.238281 28.650635
64.899544 36.238281 28.650635
70.799652 36.238281 28.650635
76.699524 36.238281 28.650635
82.599632 36.238281 28.650635
88.499504 36.238281 28.650635
94.399376 36.238281 28.650635
100.29948 36.238281 28.650635
106.19936 36.238281 28.650635
112.09946 36.238281 28.650635
117.99934 36.238281 28.650635
123.89921 36.238281 28.650635
129.79932 36.238281 28.650635
135.69919 36.238281 28.650635
141.5993 36.238281 28.650635
148.9895 14.17334 56.221191
154.94899 14.17334 56.221191
159.29916 36.238281 28.650635
165.19902 36.238281 28.650635
171.09912 36.238281 28.650635
176.99901 36.238281 28.650635
184.74689 14.17334 56.221191
190.70662 14.17334 56.221191
262.22162 14.17334 56.221191
268.18112 14.17334 56.221191
292.01953 14.17334 56.221191
297.979 14.17334 56.221191
303.93851 14.17334 56.221191
-17.878695 8.6875 53.892578
-11.919207 8.6875 53.892578
-5.9596033 8.6875 53.892578
0 8.6875 53.892578
5.9594893 8.6875 53.892578
11.919207 8.6875 53.892578
17.878695 8.6875 53.892578
23.838413 8.6875 53.892578
29.797901 8.6875 53.892578
35.399712 30.807129 26.345459
41.299816 30.807129 26.345459
47.199688 30.807129 26.345459
53.099792 30.807129 26.345459
58.999668 30.807129 26.345459
64.899544 30.807129 26.345459
70.799652 30.807129 26.345459
76.699524 30.807129 26.345459
82.599632 30.807129 26.345459
88.499504 30.807129 26.345459
94.399376 30.807129 26.345459
100.29948 30.807129 26.345459
106.19936 30.807129 26.345459
112.09946 30.807129 26.345459
117.99934 30.807129 26.345459
123.89921 30.807129 26.345459
129.79932 30.807129 26.345459
137.0703 8.6875 53.892578
143.03001 8.6875 53.892578
148.9895 8.6875 53.892578
154.94899 8.6875 53.892578
159.29916 30.807129 26.345459
165.19902 30.807129 26.345459
171.09912 30.807129 26.345459
176.99901 30.807129 26.345459
244.3427 8.6875 53.892578
250.30241 8.6875 53.892578
256.2619 8.6875 53.892578
262.22162 8.6875 53.892578
268.18112 8.6875 53.892578
274.14059 8.6875 53.892578
280.10031 8.6875 53.892578
286.05981 8.6875 53.892578
292.01953 8.6875 53.892578
297.979 8.6875 53.892578
303.93851 8.6875 53.892578
309.89822 8.6875 53.892578
315.8577 8.6875 53.892578
321.81741 8.6875 53.892578
-17.878695 3.2016602 51.563965
-11.919207 3.2016602 51.563965
-5.9596033 3.2016602 51.563965
0 25.376465 24.040039
5.8998771 25.376465 24.040039
11.799978 25.376465 24.040039
17.699856 25.376465 24.040039
23.599957 25.376465 24.040039
29.499834 25.376465 24.040039
35.399712 25.376465 24.040039
41.299816 25.376465 24.040039
47.199688 25.376465 24.040039
53.099792 25.376465 24.040039
58.999668 25.376465 24.040039
64.899544 25.376465 24.040039
70.799652 25.376465 24.040039
76.699524 25.376465 24.040039
82.599632 25.376465 24.040039
88.499504 25.376465 24.040039
94.399376 25.376465 24.040039
100.29948 25.376465 24.040039
106.19936 25.376465 24.040039
112.09946 25.376465 24.040039
117.99934 25.376465 24.040039
123.89921 25.376465 24.040039
129.79932 25.376465 24.040039
137.0703 3.2016602 51.563965
143.03001 3.2016602 51.563965
148.9895 3.2016602 51.563965
154.94899 3.2016602 51.563965
160.90871 3.2016602 51.563965
166.86819 3.2016602 51.563965
