ply
format ascii 1.0
comment PCL generated
element vertex 1589
property float x
property float y
property float z
element camera 0
property float view_px
property float view_py
property float view_pz
property float x_axisx
property float x_axisy
property float x_axisz
property float y_axisx
property float y_axisy
property float y_axisz
property float z_axisx
property float z_axisy
property float z_axisz
property float focal
property float scalex
property float scaley
property float centerx
property float centery
property int viewportx
property int viewporty
property float k1
property float k2
end_header
-5.4213276 1061.7628 167.38403
0 1061.7628 167.38403
5.4703169 1051.2743 193.34961
10.940842 1051.2743 193.34961
16.41116 1051.2743 193.34961
21.881683 1051.2743 193.34961
27.352001 1051.2743 193.34961
32.822319 1051.2743 193.34961
37.949188 1061.7628 167.38403
43.370415 1061.7628 167.38403
49.233688 1051.2743 193.34961
54.704002 1051.2743 193.34961
60.174316 1051.2743 193.34961
65.644844 1051.2743 193.34961
71.115158 1051.2743 193.34961
76.585686 1051.2743 193.34961
82.818703 1040.411 220.24316
88.339859 1040.411 220.24316
93.861237 1040.411 220.24316
99.382401 1040.411 220.24316
104.90378 1040.411 220.24316
109.408 1051.2743 193.34961
114.87832 1051.2743 193.34961
120.34885 1051.2743 193.34961
125.81916 1051.2743 193.34961
131.28969 1051.2743 193.34961
135.53267 1061.7628 167.38403
140.9539 1061.7628 167.38403
146.37532 1061.7628 167.38403
153.17117 1051.2743 193.34961
157.21799 1061.7628 167.38403
162.63921 1061.7628 167.38403
168.06042 1061.7628 167.38403
173.48186 1061.7628 167.38403
178.90309 1061.7628 167.38403
184.32451 1061.7628 167.38403
189.74574 1061.7628 167.38403
195.16696 1061.7628 167.38403
202.40485 1051.2743 193.34961
209.80733 1040.411 220.24316
217.31174 1029.5479 247.13647
224.98775 1018.3102 274.95728
230.61235 1018.3102 274.95728
238.44638 1007.0724 302.77759
244.12358 1007.0724 302.77759
249.80101 1007.0724 302.77759
255.47821 1007.0724 302.77759
263.65567 995.46008 331.52563
269.38745 995.46008 331.52563
277.72797 983.84766 360.27368
283.5141 983.84766 360.27368
289.30002 983.84766 360.27368
295.08591 983.84766 360.27368
300.87204 983.84766 360.27368
-216.85228 1056.7725 165.26562
-211.43095 1056.7725 165.26562
-204.14407 1067.3062 139.31885
-198.77194 1067.3062 139.31885
-193.3997 1067.3062 139.31885
-188.02748 1067.3062 139.31885
-182.65524 1067.3062 139.31885
-175.72078 1077.4637 114.29858
-170.396 1077.4637 114.29858
-165.07111 1077.4637 114.29858
-159.7462 1077.4637 114.29858
-154.42131 1077.4637 114.29858
-149.09642 1077.4637 114.29858
-143.77162 1077.4637 114.29858
-138.44673 1077.4637 114.29858
-133.12184 1077.4637 114.29858
-128.93311 1067.3062 139.31885
-123.56087 1067.3062 139.31885
-118.18874 1067.3062 139.31885
-112.81651 1067.3062 139.31885
-107.44427 1067.3062 139.31885
-103.00481 1056.7725 165.26562
-97.583481 1056.7725 165.26562
-92.162254 1056.7725 165.26562
-86.740929 1056.7725 165.26562
-82.056 1046.2388 191.21216
-76.585587 1046.2388 191.21216
-71.115158 1046.2388 191.21216
-65.644844 1046.2388 191.21216
-60.174423 1046.2388 191.21216
-54.704002 1046.2388 191.21216
-49.233582 1046.2388 191.21216
-43.763157 1046.2388 191.21216
-38.292843 1046.2388 191.21216
-32.822422 1046.2388 191.21216
-27.106535 1056.7725 165.26562
-21.685207 1056.7725 165.26562
-16.26388 1056.7725 165.26562
-10.842655 1056.7725 165.26562
-5.4213276 1056.7725 165.26562
0 1056.7725 165.26562
5.4703169 1046.2388 191.21216
10.940842 1046.2388 191.21216
16.41116 1046.2388 191.21216
21.881683 1046.2388 191.21216
27.352001 1046.2388 191.21216
32.822319 1046.2388 191.21216
38.292843 1046.2388 191.21216
43.763157 1046.2388 191.21216
49.233688 1046.2388 191.21216
54.704002 1046.2388 191.21216
60.174316 1046.2388 191.21216
65.644844 1046.2388 191.21216
71.115158 1046.2388 191.21216
76.585686 1046.2388 191.21216
82.818703 1035.3287 218.08594
88.339859 1035.3287 218.08594
93.861237 1035.3287 218.08594
99.382401 1035.3287 218.08594
104.90378 1035.3287 218.08594
109.408 1046.2388 191.21216
114.87832 1046.2388 191.21216
120.34885 1046.2388 191.21216
125.81916 1046.2388 191.21216
131.28969 1046.2388 191.21216
136.76001 1046.2388 191.21216
142.23032 1046.2388 191.21216
147.70084 1046.2388 191.21216
153.17117 1046.2388 191.21216
158.64169 1046.2388 191.21216
162.63921 1056.7725 165.26562
168.06042 1056.7725 165.26562
173.48186 1056.7725 165.26562
178.90309 1056.7725 165.26562
184.32451 1056.7725 165.26562
189.74574 1056.7725 165.26562
195.16696 1056.7725 165.26562
202.40485 1046.2388 191.21216
209.80733 1035.3287 218.08594
217.31174 1024.4187 244.95923
224.98775 1013.1326 272.75952
230.61235 1013.1326 272.75952
238.44638 1001.8464 300.55933
244.12358 1001.8464 300.55933
249.80101 1001.8464 300.55933
257.9241 990.18408 329.28613
263.65567 990.18408 329.28613
269.38745 990.18408 329.28613
277.72797 978.52173 358.01294
283.5141 978.52173 358.01294
289.30002 978.52173 358.01294
295.08591 978.52173 358.01294
-216.85228 1051.7821 163.14746
-211.43095 1051.7821 163.14746
-204.14407 1062.3611 137.21973
-198.77194 1062.3611 137.21973
-193.3997 1062.3611 137.21973
-188.02748 1062.3611 137.21973
-182.65524 1062.3611 137.21973
-177.283 1062.3611 137.21973
-171.91087 1062.3611 137.21973
-166.53865 1062.3611 137.21973
-161.16641 1062.3611 137.21973
-155.79417 1062.3611 137.21973
-150.42194 1062.3611 137.21973
-143.77162 1072.5623 112.21802
-138.44673 1072.5623 112.21802
-133.12184 1072.5623 112.21802
-127.79694 1072.5623 112.21802
-122.47205 1072.5623 112.21802
-118.18874 1062.3611 137.21973
-112.81651 1062.3611 137.21973
-107.44427 1062.3611 137.21973
-102.07204 1062.3611 137.21973
-97.583481 1051.7821 163.14746
-92.162254 1051.7821 163.14746
-86.740929 1051.7821 163.14746
-82.056 1041.2032 189.07471
-76.585587 1041.2032 189.07471
-71.115158 1041.2032 189.07471
-65.644844 1041.2032 189.07471
-60.174423 1041.2032 189.07471
-54.704002 1041.2032 189.07471
-49.233582 1041.2032 189.07471
-43.763157 1041.2032 189.07471
-38.292843 1041.2032 189.07471
-32.527863 1051.7821 163.14746
-27.106535 1051.7821 163.14746
-21.685207 1051.7821 163.14746
-16.26388 1051.7821 163.14746
-10.842655 1051.7821 163.14746
-5.4213276 1051.7821 163.14746
0 1051.7821 163.14746
5.4703169 1041.2032 189.07471
10.940842 1041.2032 189.07471
16.41116 1041.2032 189.07471
21.881683 1041.2032 189.07471
27.352001 1041.2032 189.07471
32.822319 1041.2032 189.07471
38.292843 1041.2032 189.07471
43.763157 1041.2032 189.07471
49.233688 1041.2032 189.07471
54.704002 1041.2032 189.07471
60.174316 1041.2032 189.07471
65.644844 1041.2032 189.07471
71.115158 1041.2032 189.07471
77.297546 1030.2463 215.92847
82.818703 1030.2463 215.92847
88.339859 1030.2463 215.92847
93.861237 1030.2463 215.92847
99.382401 1030.2463 215.92847
104.90378 1030.2463 215.92847
109.408 1041.2032 189.07471
114.87832 1041.2032 189.07471
120.34885 1041.2032 189.07471
125.81916 1041.2032 189.07471
131.28969 1041.2032 189.07471
136.76001 1041.2032 189.07471
140.9539 1051.7821 163.14746
146.37532 1051.7821 163.14746
151.79655 1051.7821 163.14746
157.21799 1051.7821 163.14746
162.63921 1051.7821 163.14746
168.06042 1051.7821 163.14746
173.48186 1051.7821 163.14746
178.90309 1051.7821 163.14746
184.32451 1051.7821 163.14746
189.74574 1051.7821 163.14746
195.16696 1051.7821 163.14746
202.40485 1041.2032 189.07471
209.80733 1030.2463 215.92847
219.36314 1007.9551 270.56177
224.98775 1007.9551 270.56177
232.76895 996.62048 298.34106
238.44638 996.62048 298.34106
246.46077 984.90808 327.04663
252.19257 984.90808 327.04663
257.9241 984.90808 327.04663
266.15591 973.19568 355.7522
271.94205 973.19568 355.7522
277.72797 973.19568 355.7522
283.5141 973.19568 355.7522
289.30002 973.19568 355.7522
295.08591 973.19568 355.7522
-218.81601 1036.1676 186.93726
-213.3456 1036.1676 186.93726
-206.00961 1046.7917 161.02905
-200.58839 1046.7917 161.02905
-195.16707 1046.7917 161.02905
-189.74574 1046.7917 161.02905
-182.65524 1057.4158 135.12061
-177.283 1057.4158 135.12061
-171.91087 1057.4158 135.12061
-166.53865 1057.4158 135.12061
-161.16641 1057.4158 135.12061
-155.79417 1057.4158 135.12061
-149.09642 1067.6605 110.13745
-143.77162 1067.6605 110.13745
-138.44673 1067.6605 110.13745
-133.12184 1067.6605 110.13745
-127.79694 1067.6605 110.13745
-122.47205 1067.6605 110.13745
-117.14725 1067.6605 110.13745
-112.81651 1057.4158 135.12061
-107.44427 1057.4158 135.12061
-102.07204 1057.4158 135.12061
-96.699806 1057.4158 135.12061
-92.162254 1046.7917 161.02905
-86.740929 1046.7917 161.02905
-82.056 1036.1676 186.93726
-76.585587 1036.1676 186.93726
-71.115158 1036.1676 186.93726
-65.644844 1036.1676 186.93726
-60.174423 1036.1676 186.93726
-54.704002 1036.1676 186.93726
-49.233582 1036.1676 186.93726
-43.763157 1036.1676 186.93726
-38.292843 1036.1676 186.93726
-32.527863 1046.7917 161.02905
-27.106535 1046.7917 161.02905
-21.685207 1046.7917 161.02905
-16.26388 1046.7917 161.02905
-10.842655 1046.7917 161.02905
-5.4704208 1036.1676 186.93726
0 1036.1676 186.93726
5.4703169 1036.1676 186.93726
10.940842 1036.1676 186.93726
16.41116 1036.1676 186.93726
21.881683 1036.1676 186.93726
27.352001 1036.1676 186.93726
32.822319 1036.1676 186.93726
38.292843 1036.1676 186.93726
43.763157 1036.1676 186.93726
49.233688 1036.1676 186.93726
54.704002 1036.1676 186.93726
60.174316 1036.1676 186.93726
65.644844 1036.1676 186.93726
71.115158 1036.1676 186.93726
77.297546 1025.1639 213.77124
82.818703 1025.1639 213.77124
88.339859 1025.1639 213.77124
93.861237 1025.1639 213.77124
98.467163 1036.1676 186.93726
103.93769 1036.1676 186.93726
109.408 1036.1676 186.93726
114.87832 1036.1676 186.93726
120.34885 1036.1676 186.93726
125.81916 1036.1676 186.93726
131.28969 1036.1676 186.93726
136.76001 1036.1676 186.93726
140.9539 1046.7917 161.02905
146.37532 1046.7917 161.02905
151.79655 1046.7917 161.02905
157.21799 1046.7917 161.02905
162.63921 1046.7917 161.02905
168.06042 1046.7917 161.02905
173.48186 1046.7917 161.02905
178.90309 1046.7917 161.02905
184.32451 1046.7917 161.02905
189.74574 1046.7917 161.02905
196.93433 1036.1676 186.93726
202.40485 1036.1676 186.93726
211.73952 1014.1604 240.60474
219.36314 1002.7775 268.36401
227.09174 991.39441 296.1228
232.76895 991.39441 296.1228
238.44638 991.39441 296.1228
246.46077 979.63196 324.80713
252.19257 979.63196 324.80713
257.9241 979.63196 324.80713
266.15591 967.86951 353.49146
271.94205 967.86951 353.49146
277.72797 967.86951 353.49146
283.5141 967.86951 353.49146
292.19302 955.34814 384.02637
298.03677 955.34814 384.02637
-218.81601 1031.1321 184.7998
-213.3456 1031.1321 184.7998
-206.00961 1041.8014 158.91089
-200.58839 1041.8014 158.91089
-195.16707 1041.8014 158.91089
-189.74574 1041.8014 158.91089
-182.65524 1052.4707 133.02148
-177.283 1052.4707 133.02148
-171.91087 1052.4707 133.02148
-166.53865 1052.4707 133.02148
-161.16641 1052.4707 133.02148
-155.79417 1052.4707 133.02148
-149.09642 1062.759 108.05688
-143.77162 1062.759 108.05688
-138.44673 1062.759 108.05688
-133.12184 1062.759 108.05688
-127.79694 1062.759 108.05688
-122.47205 1062.759 108.05688
-117.14725 1062.759 108.05688
-111.82236 1062.759 108.05688
-107.44427 1052.4707 133.02148
-102.07204 1052.4707 133.02148
-96.699806 1052.4707 133.02148
-92.162254 1041.8014 158.91089
-86.740929 1041.8014 158.91089
-82.056 1031.1321 184.7998
-76.585587 1031.1321 184.7998
-71.115158 1031.1321 184.7998
-65.644844 1031.1321 184.7998
-60.174423 1031.1321 184.7998
-54.704002 1031.1321 184.7998
-49.233582 1031.1321 184.7998
-43.763157 1031.1321 184.7998
-37.949188 1041.8014 158.91089
-32.527863 1041.8014 158.91089
-27.106535 1041.8014 158.91089
-21.685207 1041.8014 158.91089
-16.26388 1041.8014 158.91089
-10.842655 1041.8014 158.91089
-5.4704208 1031.1321 184.7998
0 1031.1321 184.7998
5.4703169 1031.1321 184.7998
10.940842 1031.1321 184.7998
16.41116 1031.1321 184.7998
21.881683 1031.1321 184.7998
27.352001 1031.1321 184.7998
32.822319 1031.1321 184.7998
38.292843 1031.1321 184.7998
43.763157 1031.1321 184.7998
49.233688 1031.1321 184.7998
54.704002 1031.1321 184.7998
60.174316 1031.1321 184.7998
66.255005 1020.0817 211.61377
71.776169 1020.0817 211.61377
77.297546 1020.0817 211.61377
82.818703 1020.0817 211.61377
88.339859 1020.0817 211.61377
93.861237 1020.0817 211.61377
98.467163 1031.1321 184.7998
103.93769 1031.1321 184.7998
109.408 1031.1321 184.7998
114.87832 1031.1321 184.7998
120.34885 1031.1321 184.7998
125.81916 1031.1321 184.7998
131.28969 1031.1321 184.7998
135.53267 1041.8014 158.91089
140.9539 1041.8014 158.91089
146.37532 1041.8014 158.91089
151.79655 1041.8014 158.91089
157.21799 1041.8014 158.91089
162.63921 1041.8014 158.91089
168.06042 1041.8014 158.91089
173.48186 1041.8014 158.91089
178.90309 1041.8014 158.91089
184.32451 1041.8014 158.91089
189.74574 1041.8014 158.91089
196.93433 1031.1321 184.7998
202.40485 1031.1321 184.7998
213.73831 997.59985 266.16626
221.41454 986.16846 293.90454
227.09174 986.16846 293.90454
232.76895 986.16846 293.90454
240.72922 974.35596 322.56763
248.79796 962.54346 351.23071
254.58409 962.54346 351.23071
260.37 962.54346 351.23071
266.15591 962.54346 351.23071
271.94205 962.54346 351.23071
280.50525 949.96887 381.74292
286.34924 949.96887 381.74292
292.19302 949.96887 381.74292
298.03677 949.96887 381.74292
-218.81601 1026.0966 182.66235
-211.43095 1036.811 156.79248
-206.00961 1036.811 156.79248
-200.58839 1036.811 156.79248
-193.3997 1047.5255 130.92236
-188.02748 1047.5255 130.92236
-182.65524 1047.5255 130.92236
-177.283 1047.5255 130.92236
-171.91087 1047.5255 130.92236
-166.53865 1047.5255 130.92236
-161.16641 1047.5255 130.92236
-155.79417 1047.5255 130.92236
-149.09642 1057.8574 105.97632
-143.77162 1057.8574 105.97632
-138.44673 1057.8574 105.97632
-133.12184 1057.8574 105.97632
-127.79694 1057.8574 105.97632
-122.47205 1057.8574 105.97632
-117.14725 1057.8574 105.97632
-111.82236 1057.8574 105.97632
-107.44427 1047.5255 130.92236
-102.07204 1047.5255 130.92236
-96.699806 1047.5255 130.92236
-92.162254 1036.811 156.79248
-86.740929 1036.811 156.79248
-82.056 1026.0966 182.66235
-76.585587 1026.0966 182.66235
-71.115158 1026.0966 182.66235
-65.644844 1026.0966 182.66235
-60.174423 1026.0966 182.66235
-54.704002 1026.0966 182.66235
-49.233582 1026.0966 182.66235
-43.763157 1026.0966 182.66235
-37.949188 1036.811 156.79248
-32.527863 1036.811 156.79248
-26.861067 1047.5255 130.92236
-21.488834 1047.5255 130.92236
-16.26388 1036.811 156.79248
-10.842655 1036.811 156.79248
-5.4704208 1026.0966 182.66235
0 1026.0966 182.66235
5.4703169 1026.0966 182.66235
10.940842 1026.0966 182.66235
16.563698 1014.9993 209.45654
22.085073 1014.9993 209.45654
27.352001 1026.0966 182.66235
32.822319 1026.0966 182.66235
38.292843 1026.0966 182.66235
43.763157 1026.0966 182.66235
49.233688 1026.0966 182.66235
54.704002 1026.0966 182.66235
60.174316 1026.0966 182.66235
66.255005 1014.9993 209.45654
71.776169 1014.9993 209.45654
77.297546 1014.9993 209.45654
82.818703 1014.9993 209.45654
88.339859 1014.9993 209.45654
93.861237 1014.9993 209.45654
98.467163 1026.0966 182.66235
103.93769 1026.0966 182.66235
109.408 1026.0966 182.66235
114.87832 1026.0966 182.66235
120.34885 1026.0966 182.66235
125.81916 1026.0966 182.66235
131.28969 1026.0966 182.66235
135.53267 1036.811 156.79248
140.9539 1036.811 156.79248
146.37532 1036.811 156.79248
151.79655 1036.811 156.79248
157.21799 1036.811 156.79248
162.63921 1036.811 156.79248
168.06042 1036.811 156.79248
173.48186 1036.811 156.79248
178.90309 1036.811 156.79248
184.32451 1036.811 156.79248
189.74574 1036.811 156.79248
196.93433 1026.0966 182.66235
204.28618 1014.9993 209.45654
213.73831 992.42236 263.96851
221.41454 980.9425 291.68628
229.26587 969.07996 320.32812
234.99742 969.07996 320.32812
240.72922 969.07996 320.32812
248.79796 957.21741 348.96997
254.58409 957.21741 348.96997
260.37 957.21741 348.96997
266.15591 957.21741 348.96997
271.94205 957.21741 348.96997
280.50525 944.5896 379.45972
286.34924 944.5896 379.45972
292.19302 944.5896 379.45972
298.03677 944.5896 379.45972
-218.81601 1021.061 180.5249
-211.43095 1031.8207 154.67432
-204.14407 1042.5803 128.82324
-198.77194 1042.5803 128.82324
-193.3997 1042.5803 128.82324
-188.02748 1042.5803 128.82324
-182.65524 1042.5803 128.82324
-177.283 1042.5803 128.82324
-171.91087 1042.5803 128.82324
-166.53865 1042.5803 128.82324
-161.16641 1042.5803 128.82324
-155.79417 1042.5803 128.82324
-149.09642 1052.9559 103.89551
-143.77162 1052.9559 103.89551
-138.44673 1052.9559 103.89551
-133.12184 1052.9559 103.89551
-127.79694 1052.9559 103.89551
-122.47205 1052.9559 103.89551
-117.14725 1052.9559 103.89551
-111.82236 1052.9559 103.89551
-107.44427 1042.5803 128.82324
-102.07204 1042.5803 128.82324
-97.583481 1031.8207 154.67432
-92.162254 1031.8207 154.67432
-86.740929 1031.8207 154.67432
-82.056 1021.061 180.5249
-76.585587 1021.061 180.5249
-71.115158 1021.061 180.5249
-65.644844 1021.061 180.5249
-60.174423 1021.061 180.5249
-54.704002 1021.061 180.5249
-49.233582 1021.061 180.5249
-43.763157 1021.061 180.5249
-37.949188 1031.8207 154.67432
-32.527863 1031.8207 154.67432
-26.861067 1042.5803 128.82324
-21.488834 1042.5803 128.82324
-16.26388 1031.8207 154.67432
-10.842655 1031.8207 154.67432
-5.4704208 1021.061 180.5249
0 1021.061 180.5249
5.4703169 1021.061 180.5249
11.042537 1009.917 207.29932
16.563698 1009.917 207.29932
22.085073 1009.917 207.29932
27.606234 1009.917 207.29932
33.127396 1009.917 207.29932
38.292843 1021.061 180.5249
43.763157 1021.061 180.5249
49.233688 1021.061 180.5249
54.704002 1021.061 180.5249
60.174316 1021.061 180.5249
66.255005 1009.917 207.29932
71.776169 1009.917 207.29932
77.297546 1009.917 207.29932
82.818703 1009.917 207.29932
88.339859 1009.917 207.29932
93.861237 1009.917 207.29932
98.467163 1021.061 180.5249
103.93769 1021.061 180.5249
109.408 1021.061 180.5249
114.87832 1021.061 180.5249
120.34885 1021.061 180.5249
125.81916 1021.061 180.5249
131.28969 1021.061 180.5249
135.53267 1031.8207 154.67432
140.9539 1031.8207 154.67432
146.37532 1031.8207 154.67432
151.79655 1031.8207 154.67432
157.21799 1031.8207 154.67432
162.63921 1031.8207 154.67432
168.06042 1031.8207 154.67432
173.48186 1031.8207 154.67432
178.90309 1031.8207 154.67432
184.32451 1031.8207 154.67432
191.464 1021.061 180.5249
196.93433 1021.061 180.5249
208.11371 987.24475 261.77075
215.73711 975.71655 289.46802
223.53432 963.80396 318.08838
229.26587 963.80396 318.08838
234.99742 963.80396 318.08838
240.72922 963.80396 318.08838
246.46077 963.80396 318.08838
254.58409 951.89148 346.70898
260.37 951.89148 346.70898
266.15591 951.89148 346.70898
271.94205 951.89148 346.70898
280.50525 939.21033 377.17627
286.34924 939.21033 377.17627
292.19302 939.21033 377.17627
298.03677 939.21033 377.17627
-224.28642 1016.0255 178.38745
-218.81601 1016.0255 178.38745
-211.43095 1026.8303 152.55591
-204.14407 1037.6353 126.72437
-198.77194 1037.6353 126.72437
-193.3997 1037.6353 126.72437
-188.02748 1037.6353 126.72437
-182.65524 1037.6353 126.72437
-177.283 1037.6353 126.72437
-171.91087 1037.6353 126.72437
-166.53865 1037.6353 126.72437
-161.16641 1037.6353 126.72437
-155.79417 1037.6353 126.72437
-150.42194 1037.6353 126.72437
-143.77162 1048.0543 101.81494
-138.44673 1048.0543 101.81494
-133.12184 1048.0543 101.81494
-127.79694 1048.0543 101.81494
-122.47205 1048.0543 101.81494
-117.14725 1048.0543 101.81494
-112.81651 1037.6353 126.72437
-107.44427 1037.6353 126.72437
-102.07204 1037.6353 126.72437
-97.583481 1026.8303 152.55591
-92.162254 1026.8303 152.55591
-86.740929 1026.8303 152.55591
-81.319603 1026.8303 152.55591
-75.898277 1026.8303 152.55591
-71.115158 1016.0255 178.38745
-65.644844 1016.0255 178.38745
-60.174423 1016.0255 178.38745
-54.704002 1016.0255 178.38745
-49.233582 1016.0255 178.38745
-43.763157 1016.0255 178.38745
-37.949188 1026.8303 152.55591
-32.527863 1026.8303 152.55591
-27.106535 1026.8303 152.55591
-21.685207 1026.8303 152.55591
-16.26388 1026.8303 152.55591
-10.842655 1026.8303 152.55591
-5.4704208 1016.0255 178.38745
0 1016.0255 178.38745
5.4703169 1016.0255 178.38745
11.042537 1004.8346 205.14185
16.563698 1004.8346 205.14185
22.085073 1004.8346 205.14185
27.352001 1016.0255 178.38745
32.822319 1016.0255 178.38745
38.292843 1016.0255 178.38745
43.763157 1016.0255 178.38745
49.233688 1016.0255 178.38745
54.704002 1016.0255 178.38745
60.174316 1016.0255 178.38745
66.255005 1004.8346 205.14185
71.776169 1004.8346 205.14185
77.297546 1004.8346 205.14185
82.818703 1004.8346 205.14185
88.339859 1004.8346 205.14185
93.861237 1004.8346 205.14185
98.467163 1016.0255 178.38745
103.93769 1016.0255 178.38745
109.408 1016.0255 178.38745
114.87832 1016.0255 178.38745
120.34885 1016.0255 178.38745
125.81916 1016.0255 178.38745
131.28969 1016.0255 178.38745
135.53267 1026.8303 152.55591
140.9539 1026.8303 152.55591
146.37532 1026.8303 152.55591
151.79655 1026.8303 152.55591
157.21799 1026.8303 152.55591
162.63921 1026.8303 152.55591
168.06042 1026.8303 152.55591
173.48186 1026.8303 152.55591
178.90309 1026.8303 152.55591
184.32451 1026.8303 152.55591
191.464 1016.0255 178.38745
200.59528 993.64392 231.896
208.11371 982.06726 259.573
215.73711 970.49048 287.24951
223.53432 958.52795 315.84888
229.26587 958.52795 315.84888
234.99742 958.52795 315.84888
240.72922 958.52795 315.84888
246.46077 958.52795 315.84888
254.58409 946.56543 344.44824
260.37 946.56543 344.44824
266.15591 946.56543 344.44824
274.66147 933.83105 374.89282
280.50525 933.83105 374.89282
286.34924 933.83105 374.89282
292.19302 933.83105 374.89282
298.03677 933.83105 374.89282
-224.28642 1010.99 176.25
-218.81601 1010.99 176.25
-211.43095 1021.8401 150.43774
-204.14407 1032.6901 124.62524
-198.77194 1032.6901 124.62524
-193.3997 1032.6901 124.62524
-188.02748 1032.6901 124.62524
-182.65524 1032.6901 124.62524
-177.283 1032.6901 124.62524
-171.91087 1032.6901 124.62524
-166.53865 1032.6901 124.62524
-161.16641 1032.6901 124.62524
-155.79417 1032.6901 124.62524
-150.42194 1032.6901 124.62524
-143.77162 1043.1527 99.734375
-138.44673 1043.1527 99.734375
-133.12184 1043.1527 99.734375
-127.79694 1043.1527 99.734375
-122.47205 1043.1527 99.734375
-117.14725 1043.1527 99.734375
-111.82236 1043.1527 99.734375
-106.49747 1043.1527 99.734375
-102.07204 1032.6901 124.62524
-96.699806 1032.6901 124.62524
-92.162254 1021.8401 150.43774
-86.740929 1021.8401 150.43774
-81.319603 1021.8401 150.43774
-75.898277 1021.8401 150.43774
-71.115158 1010.99 176.25
-65.644844 1010.99 176.25
-60.174423 1010.99 176.25
-54.704002 1010.99 176.25
-49.233582 1010.99 176.25
-43.763157 1010.99 176.25
-38.292843 1010.99 176.25
-32.822422 1010.99 176.25
-27.106535 1021.8401 150.43774
-21.685207 1021.8401 150.43774
-16.26388 1021.8401 150.43774
-10.842655 1021.8401 150.43774
-5.4704208 1010.99 176.25
0 1010.99 176.25
5.4703169 1010.99 176.25
11.042537 999.75232 202.98462
16.563698 999.75232 202.98462
22.085073 999.75232 202.98462
27.352001 1010.99 176.25
32.822319 1010.99 176.25
38.292843 1010.99 176.25
43.763157 1010.99 176.25
49.233688 1010.99 176.25
54.704002 1010.99 176.25
60.174316 1010.99 176.25
66.255005 999.75232 202.98462
72.437172 988.51477 229.71899
78.009399 988.51477 229.71899
82.818703 999.75232 202.98462
88.339859 999.75232 202.98462
93.861237 999.75232 202.98462
98.467163 1010.99 176.25
103.93769 1010.99 176.25
109.408 1010.99 176.25
114.87832 1010.99 176.25
120.34885 1010.99 176.25
125.81916 1010.99 176.25
131.28969 1010.99 176.25
135.53267 1021.8401 150.43774
140.9539 1021.8401 150.43774
146.37532 1021.8401 150.43774
151.79655 1021.8401 150.43774
157.21799 1021.8401 150.43774
162.63921 1021.8401 150.43774
168.06042 1021.8401 150.43774
173.48186 1021.8401 150.43774
178.90309 1021.8401 150.43774
184.32451 1021.8401 150.43774
191.464 1010.99 176.25
200.59528 988.51477 229.71899
208.11371 976.88965 257.37524
215.73711 965.26453 285.03125
223.53432 953.25195 313.60938
231.44 941.23938 342.1875
237.22592 941.23938 342.1875
243.01205 941.23938 342.1875
248.79796 941.23938 342.1875
254.58409 941.23938 342.1875
260.37 941.23938 342.1875
266.15591 941.23938 342.1875
274.66147 928.45166 372.60938
280.50525 928.45166 372.60938
286.34924 928.45166 372.60938
292.19302 928.45166 372.60938
298.03677 928.45166 372.60938
-222.27361 1016.8497 148.31934
-216.85228 1016.8497 148.31934
-211.43095 1016.8497 148.31934
-204.14407 1027.745 122.52612
-198.77194 1027.745 122.52612
-193.3997 1027.745 122.52612
-188.02748 1027.745 122.52612
-182.65524 1027.745 122.52612
-177.283 1027.745 122.52612
-171.91087 1027.745 122.52612
-166.53865 1027.745 122.52612
-161.16641 1027.745 122.52612
-155.79417 1027.745 122.52612
-150.42194 1027.745 122.52612
-143.77162 1038.2512 97.653809
-138.44673 1038.2512 97.653809
-133.12184 1038.2512 97.653809
-127.79694 1038.2512 97.653809
-122.47205 1038.2512 97.653809
-117.14725 1038.2512 97.653809
-111.82236 1038.2512 97.653809
-106.49747 1038.2512 97.653809
-102.07204 1027.745 122.52612
-96.699806 1027.745 122.52612
-92.162254 1016.8497 148.31934
-86.740929 1016.8497 148.31934
-81.319603 1016.8497 148.31934
-75.898277 1016.8497 148.31934
-71.115158 1005.9545 174.11255
-65.644844 1005.9545 174.11255
-60.174423 1005.9545 174.11255
-54.704002 1005.9545 174.11255
-49.233582 1005.9545 174.11255
-43.763157 1005.9545 174.11255
-38.292843 1005.9545 174.11255
-32.822422 1005.9545 174.11255
-27.106535 1016.8497 148.31934
-21.685207 1016.8497 148.31934
-16.26388 1016.8497 148.31934
-10.842655 1016.8497 148.31934
-5.4704208 1005.9545 174.11255
0 1005.9545 174.11255
5.4703169 1005.9545 174.11255
11.042537 994.66992 200.82715
16.563698 994.66992 200.82715
22.085073 994.66992 200.82715
27.606234 994.66992 200.82715
33.127396 994.66992 200.82715
38.648773 994.66992 200.82715
44.16993 994.66992 200.82715
49.691303 994.66992 200.82715
55.212467 994.66992 200.82715
60.733631 994.66992 200.82715
66.255005 994.66992 200.82715
72.437172 983.38562 227.54175
78.009399 983.38562 227.54175
82.818703 994.66992 200.82715
88.339859 994.66992 200.82715
93.861237 994.66992 200.82715
98.467163 1005.9545 174.11255
103.93769 1005.9545 174.11255
109.408 1005.9545 174.11255
114.87832 1005.9545 174.11255
120.34885 1005.9545 174.11255
125.81916 1005.9545 174.11255
131.28969 1005.9545 174.11255
135.53267 1016.8497 148.31934
140.9539 1016.8497 148.31934
146.37532 1016.8497 148.31934
151.79655 1016.8497 148.31934
157.21799 1016.8497 148.31934
162.63921 1016.8497 148.31934
168.06042 1016.8497 148.31934
173.48186 1016.8497 148.31934
178.90309 1016.8497 148.31934
184.32451 1016.8497 148.31934
191.464 1005.9545 174.11255
198.7648 994.66992 200.82715
206.16751 983.38562 227.54175
215.73711 960.03857 282.81299
223.53432 947.97595 311.36987
231.44 935.91333 339.92676
237.22592 935.91333 339.92676
243.01205 935.91333 339.92676
248.79796 935.91333 339.92676
254.58409 935.91333 339.92676
260.37 935.91333 339.92676
268.81747 923.07239 370.32617
274.66147 923.07239 370.32617
280.50525 923.07239 370.32617
289.09848 910.62073 399.8042
294.99835 910.62073 399.8042
300.89819 910.62073 399.8042
-220.26077 1022.7998 120.427
-214.88853 1022.7998 120.427
-209.5163 1022.7998 120.427
-202.34515 1033.3496 95.573242
-197.02036 1033.3496 95.573242
-191.69547 1033.3496 95.573242
-186.37057 1033.3496 95.573242
-181.04568 1033.3496 95.573242
-175.72078 1033.3496 95.573242
-170.396 1033.3496 95.573242
-166.53865 1022.7998 120.427
-161.16641 1022.7998 120.427
-155.79417 1022.7998 120.427
-150.42194 1022.7998 120.427
-143.77162 1033.3496 95.573242
-138.44673 1033.3496 95.573242
-133.12184 1033.3496 95.573242
-127.79694 1033.3496 95.573242
-122.47205 1033.3496 95.573242
-117.14725 1033.3496 95.573242
-111.82236 1033.3496 95.573242
-106.49747 1033.3496 95.573242
-102.07204 1022.7998 120.427
-96.699806 1022.7998 120.427
-92.162254 1011.8594 146.20117
-86.740929 1011.8594 146.20117
-81.319603 1011.8594 146.20117
-75.898277 1011.8594 146.20117
-71.115158 1000.9189 171.9751
-65.644844 1000.9189 171.9751
-60.174423 1000.9189 171.9751
-54.704002 1000.9189 171.9751
-49.233582 1000.9189 171.9751
-43.763157 1000.9189 171.9751
-38.292843 1000.9189 171.9751
-32.822422 1000.9189 171.9751
-27.106535 1011.8594 146.20117
-21.685207 1011.8594 146.20117
-16.26388 1011.8594 146.20117
-10.842655 1011.8594 146.20117
-5.4213276 1011.8594 146.20117
0 1000.9189 171.9751
5.4703169 1000.9189 171.9751
11.042537 989.58765 198.66992
16.563698 989.58765 198.66992
22.085073 989.58765 198.66992
27.606234 989.58765 198.66992
33.127396 989.58765 198.66992
38.648773 989.58765 198.66992
44.16993 989.58765 198.66992
49.691303 989.58765 198.66992
55.212467 989.58765 198.66992
60.733631 989.58765 198.66992
66.255005 989.58765 198.66992
72.437172 978.25647 225.3645
78.009399 978.25647 225.3645
82.818703 989.58765 198.66992
88.339859 989.58765 198.66992
93.861237 989.58765 198.66992
99.382401 989.58765 198.66992
103.93769 1000.9189 171.9751
109.408 1000.9189 171.9751
114.87832 1000.9189 171.9751
120.34885 1000.9189 171.9751
125.81916 1000.9189 171.9751
131.28969 1000.9189 171.9751
135.53267 1011.8594 146.20117
140.9539 1011.8594 146.20117
146.37532 1011.8594 146.20117
151.79655 1011.8594 146.20117
157.21799 1011.8594 146.20117
162.63921 1011.8594 146.20117
168.06042 1011.8594 146.20117
173.48186 1011.8594 146.20117
178.90309 1011.8594 146.20117
185.9937 1000.9189 171.9751
191.464 1000.9189 171.9751
198.7648 989.58765 198.66992
206.16751 978.25647 225.3645
213.73831 966.53455 252.97974
223.53432 942.69995 309.13037
231.44 930.58728 337.66602
237.22592 930.58728 337.66602
245.44217 917.69312 368.04272
251.28595 917.69312 368.04272
254.58409 930.58728 337.66602
260.37 930.58728 337.66602
268.81747 917.69312 368.04272
274.66147 917.69312 368.04272
280.50525 917.69312 368.04272
289.09848 905.18982 397.49878
294.99835 905.18982 397.49878
300.89819 905.18982 397.49878
-220.26077 1017.8546 118.32788
-214.88853 1017.8546 118.32788
-209.5163 1017.8546 118.32788
-202.34515 1028.448 93.492676
-197.02036 1028.448 93.492676
-191.69547 1028.448 93.492676
-186.37057 1028.448 93.492676
-181.04568 1028.448 93.492676
-175.72078 1028.448 93.492676
-170.396 1028.448 93.492676
-165.07111 1028.448 93.492676
-161.16641 1017.8546 118.32788
-155.79417 1017.8546 118.32788
-150.42194 1017.8546 118.32788
-145.04982 1017.8546 118.32788
-139.67758 1017.8546 118.32788
-134.30534 1017.8546 118.32788
-128.93311 1017.8546 118.32788
-122.47205 1028.448 93.492676
-117.14725 1028.448 93.492676
-112.81651 1017.8546 118.32788
-107.44427 1017.8546 118.32788
-102.07204 1017.8546 118.32788
-96.699806 1017.8546 118.32788
-92.162254 1006.869 144.08276
-86.740929 1006.869 144.08276
-81.319603 1006.869 144.08276
-75.898277 1006.869 144.08276
-71.115158 995.8833 169.83765
-65.644844 995.8833 169.83765
-60.174423 995.8833 169.83765
-54.704002 995.8833 169.83765
-49.233582 995.8833 169.83765
-43.763157 995.8833 169.83765
-38.292843 995.8833 169.83765
-32.822422 995.8833 169.83765
-27.106535 1006.869 144.08276
-21.685207 1006.869 144.08276
-16.26388 1006.869 144.08276
-10.842655 1006.869 144.08276
-5.4213276 1006.869 144.08276
0 995.8833 169.83765
5.4703169 995.8833 169.83765
11.042537 984.50525 196.51245
16.563698 984.50525 196.51245
21.881683 995.8833 169.83765
27.352001 995.8833 169.83765
32.822319 995.8833 169.83765
38.648773 984.50525 196.51245
44.16993 984.50525 196.51245
49.691303 984.50525 196.51245
55.212467 984.50525 196.51245
60.733631 984.50525 196.51245
66.255005 984.50525 196.51245
72.437172 973.12732 223.18726
78.009399 973.12732 223.18726
83.581406 973.12732 223.18726
89.153404 973.12732 223.18726
93.861237 984.50525 196.51245
99.382401 984.50525 196.51245
104.90378 984.50525 196.51245
109.408 995.8833 169.83765
114.87832 995.8833 169.83765
120.34885 995.8833 169.83765
125.81916 995.8833 169.83765
130.11145 1006.869 144.08276
135.53267 1006.869 144.08276
140.9539 1006.869 144.08276
146.37532 1006.869 144.08276
151.79655 1006.869 144.08276
157.21799 1006.869 144.08276
162.63921 1006.869 144.08276
168.06042 1006.869 144.08276
173.48186 1006.869 144.08276
178.90309 1006.869 144.08276
185.9937 995.8833 169.83765
191.464 995.8833 169.83765
196.93433 995.8833 169.83765
204.28618 984.50525 196.51245
213.73831 961.35693 250.78198
221.41454 949.58655 278.37646
229.26587 937.42383 306.89087
237.22592 925.26111 335.40527
245.44217 912.31372 365.75928
251.28595 912.31372 365.75928
257.12994 912.31372 365.75928
262.97372 912.31372 365.75928
268.81747 912.31372 365.75928
274.66147 912.31372 365.75928
283.19836 899.75879 395.19336
289.09848 899.75879 395.19336
294.99835 899.75879 395.19336
300.89819 899.75879 395.19336
-225.63301 1012.9095 116.22876
-220.26077 1012.9095 116.22876
-214.88853 1012.9095 116.22876
-209.5163 1012.9095 116.22876
-202.34515 1023.5465 91.412109
-197.02036 1023.5465 91.412109
-191.69547 1023.5465 91.412109
-186.37057 1023.5465 91.412109
-181.04568 1023.5465 91.412109
-175.72078 1023.5465 91.412109
-170.396 1023.5465 91.412109
-165.07111 1023.5465 91.412109
-161.16641 1012.9095 116.22876
-155.79417 1012.9095 116.22876
-150.42194 1012.9095 116.22876
-145.04982 1012.9095 116.22876
-139.67758 1012.9095 116.22876
-134.30534 1012.9095 116.22876
-127.79694 1023.5465 91.412109
-122.47205 1023.5465 91.412109
-118.18874 1012.9095 116.22876
-111.82236 1023.5465 91.412109
-106.49747 1023.5465 91.412109
-102.07204 1012.9095 116.22876
-97.583481 1001.8787 141.9646
-92.162254 1001.8787 141.9646
-86.740929 1001.8787 141.9646
-81.319603 1001.8787 141.9646
-75.898277 1001.8787 141.9646
-71.115158 990.8479 167.7002
-65.644844 990.8479 167.7002
-60.174423 990.8479 167.7002
-54.704002 990.8479 167.7002
-49.233582 990.8479 167.7002
-43.763157 990.8479 167.7002
-38.292843 990.8479 167.7002
-32.822422 990.8479 167.7002
-27.106535 1001.8787 141.9646
-21.685207 1001.8787 141.9646
-16.26388 1001.8787 141.9646
-10.842655 1001.8787 141.9646
-5.4704208 990.8479 167.7002
0 990.8479 167.7002
5.4703169 990.8479 167.7002
11.042537 979.42297 194.35522
16.563698 979.42297 194.35522
21.881683 990.8479 167.7002
27.352001 990.8479 167.7002
32.822319 990.8479 167.7002
38.292843 990.8479 167.7002
43.763157 990.8479 167.7002
49.233688 990.8479 167.7002
54.704002 990.8479 167.7002
60.733631 979.42297 194.35522
66.255005 979.42297 194.35522
71.776169 979.42297 194.35522
78.009399 967.99817 221.01001
83.581406 967.99817 221.01001
89.153404 967.99817 221.01001
94.725632 967.99817 221.01001
99.382401 979.42297 194.35522
104.90378 979.42297 194.35522
109.408 990.8479 167.7002
114.87832 990.8479 167.7002
120.34885 990.8479 167.7002
125.81916 990.8479 167.7002
130.11145 1001.8787 141.9646
135.53267 1001.8787 141.9646
140.9539 1001.8787 141.9646
146.37532 1001.8787 141.9646
151.79655 1001.8787 141.9646
157.21799 1001.8787 141.9646
162.63921 1001.8787 141.9646
168.06042 1001.8787 141.9646
173.48186 1001.8787 141.9646
178.90309 1001.8787 141.9646
185.9937 990.8479 167.7002
191.464 990.8479 167.7002
196.93433 990.8479 167.7002
204.28618 979.42297 194.35522
211.73952 967.99817 221.01001
221.41454 944.36072 276.1582
229.26587 932.14795 304.65137
237.22592 919.93518 333.14453
245.44217 906.93457 363.47607
251.28595 906.93457 363.47607
257.12994 906.93457 363.47607
262.97372 906.93457 363.47607
268.81747 906.93457 363.47607
274.66147 906.93457 363.47607
283.19836 894.32788 392.88818
289.09848 894.32788 392.88818
294.99835 894.32788 392.88818
300.89819 894.32788 392.88818
-223.64473 1018.6449 89.331543
-218.31984 1018.6449 89.331543
-214.88853 1007.9644 114.12964
-209.5163 1007.9644 114.12964
-204.14407 1007.9644 114.12964
-197.02036 1018.6449 89.331543
-191.69547 1018.6449 89.331543
-186.37057 1018.6449 89.331543
-181.04568 1018.6449 89.331543
-175.72078 1018.6449 89.331543
-170.396 1018.6449 89.331543
-165.07111 1018.6449 89.331543
-159.7462 1018.6449 89.331543
-154.42131 1018.6449 89.331543
-150.42194 1007.9644 114.12964
-143.77162 1018.6449 89.331543
-138.44673 1018.6449 89.331543
-133.12184 1018.6449 89.331543
-127.79694 1018.6449 89.331543
-122.47205 1018.6449 89.331543
-117.14725 1018.6449 89.331543
-111.82236 1018.6449 89.331543
-106.49747 1018.6449 89.331543
-102.07204 1007.9644 114.12964
-97.583481 996.88831 139.84644
-92.162254 996.88831 139.84644
-86.740929 996.88831 139.84644
-82.056 985.81226 165.56274
-76.585587 985.81226 165.56274
-71.115158 985.81226 165.56274
-66.255005 974.34058 192.198
-60.174423 985.81226 165.56274
-54.704002 985.81226 165.56274
-49.233582 985.81226 165.56274
-43.763157 985.81226 165.56274
-38.292843 985.81226 165.56274
-32.822422 985.81226 165.56274
-27.106535 996.88831 139.84644
-21.685207 996.88831 139.84644
-16.26388 996.88831 139.84644
-10.940842 985.81226 165.56274
-5.4704208 985.81226 165.56274
0 985.81226 165.56274
5.4703169 985.81226 165.56274
11.042537 974.34058 192.198
16.563698 974.34058 192.198
21.881683 985.81226 165.56274
27.352001 985.81226 165.56274
32.822319 985.81226 165.56274
38.292843 985.81226 165.56274
43.763157 985.81226 165.56274
49.233688 985.81226 165.56274
54.704002 985.81226 165.56274
60.174316 985.81226 165.56274
65.644844 985.81226 165.56274
71.776169 974.34058 192.198
78.009399 962.86902 218.83301
83.581406 962.86902 218.83301
89.153404 962.86902 218.83301
94.725632 962.86902 218.83301
100.29764 962.86902 218.83301
104.90378 974.34058 192.198
109.408 985.81226 165.56274
114.87832 985.81226 165.56274
120.34885 985.81226 165.56274
125.81916 985.81226 165.56274
130.11145 996.88831 139.84644
135.53267 996.88831 139.84644
140.9539 996.88831 139.84644
146.37532 996.88831 139.84644
151.79655 996.88831 139.84644
158.64169 985.81226 165.56274
162.63921 996.88831 139.84644
168.06042 996.88831 139.84644
173.48186 996.88831 139.84644
180.52318 985.81226 165.56274
185.9937 985.81226 165.56274
191.464 985.81226 165.56274
196.93433 985.81226 165.56274
204.28618 974.34058 192.198
211.73952 962.86902 218.83301
219.36314 951.00183 246.38647
231.44 914.60913 330.88379
239.59818 901.55518 361.19263
245.44217 901.55518 361.19263
251.28595 901.55518 361.19263
257.12994 901.55518 361.19263
262.97372 901.55518 361.19263
271.39838 888.89697 390.58276
277.29849 888.89697 390.58276
283.19836 888.89697 390.58276
289.09848 888.89697 390.58276
294.99835 888.89697 390.58276
-223.64473 1013.7433 87.250977
-218.31984 1013.7433 87.250977
-214.88853 1003.0193 112.03076
-209.5163 1003.0193 112.03076
-204.14407 1003.0193 112.03076
-197.02036 1013.7433 87.250977
-191.69547 1013.7433 87.250977
-186.37057 1013.7433 87.250977
-181.04568 1013.7433 87.250977
-175.72078 1013.7433 87.250977
-170.396 1013.7433 87.250977
-165.07111 1013.7433 87.250977
-159.7462 1013.7433 87.250977
-154.42131 1013.7433 87.250977
-150.42194 1003.0193 112.03076
-143.77162 1013.7433 87.250977
-138.44673 1013.7433 87.250977
-133.12184 1013.7433 87.250977
-127.79694 1013.7433 87.250977
-122.47205 1013.7433 87.250977
-117.14725 1013.7433 87.250977
-111.82236 1013.7433 87.250977
-107.44427 1003.0193 112.03076
-102.07204 1003.0193 112.03076
-97.583481 991.89807 137.72803
-92.162254 991.89807 137.72803
-86.740929 991.89807 137.72803
-82.056 980.77686 163.42529
-76.585587 980.77686 163.42529
-71.115158 980.77686 163.42529
-66.255005 969.2583 190.04053
-60.174423 980.77686 163.42529
-54.704002 980.77686 163.42529
-49.6912 969.2583 190.04053
-44.16993 969.2583 190.04053
-38.292843 980.77686 163.42529
-32.822422 980.77686 163.42529
-27.106535 991.89807 137.72803
-21.685207 991.89807 137.72803
-16.26388 991.89807 137.72803
-10.940842 980.77686 163.42529
-5.4704208 980.77686 163.42529
0 980.77686 163.42529
5.4703169 980.77686 163.42529
11.042537 969.2583 190.04053
16.563698 969.2583 190.04053
21.881683 980.77686 163.42529
27.352001 980.77686 163.42529
32.822319 980.77686 163.42529
38.292843 980.77686 163.42529
43.763157 980.77686 163.42529
49.691303 969.2583 190.04053
55.212467 969.2583 190.04053
60.174316 980.77686 163.42529
65.644844 980.77686 163.42529
71.776169 969.2583 190.04053
78.009399 957.73999 216.65576
83.581406 957.73999 216.65576
89.153404 957.73999 216.65576
94.725632 957.73999 216.65576
100.29764 957.73999 216.65576
105.86987 957.73999 216.65576
111.44187 957.73999 216.65576
114.87832 980.77686 163.42529
120.34885 980.77686 163.42529
125.81916 980.77686 163.42529
130.11145 991.89807 137.72803
135.53267 991.89807 137.72803
140.9539 991.89807 137.72803
146.37532 991.89807 137.72803
151.79655 991.89807 137.72803
158.64169 980.77686 163.42529
162.63921 991.89807 137.72803
168.06042 991.89807 137.72803
173.48186 991.89807 137.72803
180.52318 980.77686 163.42529
185.9937 980.77686 163.42529
191.464 980.77686 163.42529
196.93433 980.77686 163.42529
204.28618 969.2583 190.04053
211.73952 957.73999 216.65576
219.36314 945.82434 244.18872
231.44 909.28308 328.62305
239.59818 896.1759 358.90918
247.79866 883.46606 388.27759
253.69853 883.46606 388.27759
259.59863 883.46606 388.27759
265.4985 883.46606 388.27759
271.39838 883.46606 388.27759
277.29849 883.46606 388.27759
283.19836 883.46606 388.27759
292.01953 869.96167 419.48169
297.979 869.96167 419.48169
-223.64473 1008.8417 85.170166
-218.31984 1008.8417 85.170166
-214.88853 998.07397 109.93164
-209.5163 998.07397 109.93164
-204.14407 998.07397 109.93164
-197.02036 1008.8417 85.170166
-191.69547 1008.8417 85.170166
-186.37057 1008.8417 85.170166
-181.04568 1008.8417 85.170166
-175.72078 1008.8417 85.170166
-170.396 1008.8417 85.170166
-165.07111 1008.8417 85.170166
-159.7462 1008.8417 85.170166
-154.42131 1008.8417 85.170166
-150.42194 998.07397 109.93164
-143.77162 1008.8417 85.170166
-138.44673 1008.8417 85.170166
-133.12184 1008.8417 85.170166
-127.79694 1008.8417 85.170166
-123.56087 998.07397 109.93164
-118.18874 998.07397 109.93164
-112.81651 998.07397 109.93164
-107.44427 998.07397 109.93164
-102.07204 998.07397 109.93164
-97.583481 986.90759 135.60986
-92.996849 975.74121 161.28784
-87.526421 975.74121 161.28784
-82.056 975.74121 161.28784
-76.585587 975.74121 161.28784
-71.115158 975.74121 161.28784
-66.255005 964.1759 187.8833
-60.733734 964.1759 187.8833
-55.212467 964.1759 187.8833
-49.6912 964.1759 187.8833
-44.16993 964.1759 187.8833
-38.648773 964.1759 187.8833
-32.822422 975.74121 161.28784
-27.106535 986.90759 135.60986
-21.685207 986.90759 135.60986
-16.26388 986.90759 135.60986
-10.940842 975.74121 161.28784
-5.4704208 975.74121 161.28784
0 975.74121 161.28784
5.4703169 975.74121 161.28784
11.042537 964.1759 187.8833
16.563698 964.1759 187.8833
22.085073 964.1759 187.8833
27.606234 964.1759 187.8833
33.127396 964.1759 187.8833
38.648773 964.1759 187.8833
44.16993 964.1759 187.8833
49.691303 964.1759 187.8833
55.212467 964.1759 187.8833
60.733631 964.1759 187.8833
66.255005 964.1759 187.8833
72.437172 952.61072 214.47852
78.009399 952.61072 214.47852
83.581406 952.61072 214.47852
89.153404 952.61072 214.47852
94.725632 952.61072 214.47852
100.29764 952.61072 214.47852
105.86987 952.61072 214.47852
111.44187 952.61072 214.47852
115.9461 964.1759 187.8833
120.34885 975.74121 161.28784
125.81916 975.74121 161.28784
131.28969 975.74121 161.28784
135.53267 986.90759 135.60986
140.9539 986.90759 135.60986
146.37532 986.90759 135.60986
151.79655 986.90759 135.60986
158.64169 975.74121 161.28784
164.112 975.74121 161.28784
169.58232 975.74121 161.28784
175.05284 975.74121 161.28784
180.52318 975.74121 161.28784
185.9937 975.74121 161.28784
191.464 975.74121 161.28784
196.93433 975.74121 161.28784
204.28618 964.1759 187.8833
211.73952 952.61072 214.47852
221.41454 928.68274 269.50317
231.44 903.95703 326.36206
239.59818 890.79651 356.62573
247.79866 878.03503 385.97217
253.69853 878.03503 385.97217
259.59863 878.03503 385.97217
265.4985 878.03503 385.97217
271.39838 878.03503 385.97217
277.29849 878.03503 385.97217
283.19836 878.03503 385.97217
292.01953 864.47571 417.15308
297.979 864.47571 417.15308
-228.96953 1003.9402 83.0896
-223.64473 1003.9402 83.0896
-218.31984 1003.9402 83.0896
-214.88853 993.12891 107.83252
-209.5163 993.12891 107.83252
-202.34515 1003.9402 83.0896
-197.02036 1003.9402 83.0896
-191.69547 1003.9402 83.0896
-186.37057 1003.9402 83.0896
-181.04568 1003.9402 83.0896
-175.72078 1003.9402 83.0896
-170.396 1003.9402 83.0896
-165.07111 1003.9402 83.0896
-159.7462 1003.9402 83.0896
-154.42131 1003.9402 83.0896
-149.09642 1003.9402 83.0896
-143.77162 1003.9402 83.0896
-138.44673 1003.9402 83.0896
-133.12184 1003.9402 83.0896
-127.79694 1003.9402 83.0896
-123.56087 993.12891 107.83252
-118.18874 993.12891 107.83252
-112.81651 993.12891 107.83252
-107.44427 993.12891 107.83252
-102.07204 993.12891 107.83252
-97.583481 981.91736 133.49146
-92.996849 970.70581 159.15039
-87.526421 970.70581 159.15039
-82.056 970.70581 159.15039
-76.585587 970.70581 159.15039
-71.115158 970.70581 159.15039
-66.255005 959.09363 185.72607
-60.733734 959.09363 185.72607
-55.212467 959.09363 185.72607
-49.6912 959.09363 185.72607
-44.16993 959.09363 185.72607
-38.648773 959.09363 185.72607
-33.127502 959.09363 185.72607
-27.352001 970.70581 159.15039
-21.685207 981.91736 133.49146
-16.26388 981.91736 133.49146
-10.940842 970.70581 159.15039
-5.4704208 970.70581 159.15039
0 970.70581 159.15039
5.4703169 970.70581 159.15039
11.042537 959.09363 185.72607
16.563698 959.09363 185.72607
22.085073 959.09363 185.72607
27.606234 959.09363 185.72607
33.127396 959.09363 185.72607
38.648773 959.09363 185.72607
44.16993 959.09363 185.72607
49.691303 959.09363 185.72607
55.212467 959.09363 185.72607
61.292946 947.48169 212.30127
66.865166 947.48169 212.30127
72.437172 947.48169 212.30127
78.009399 947.48169 212.30127
83.581406 947.48169 212.30127
89.153404 947.48169 212.30127
94.725632 947.48169 212.30127
100.29764 947.48169 212.30127
105.86987 947.48169 212.30127
111.44187 947.48169 212.30127
115.9461 959.09363 185.72607
121.46747 959.09363 185.72607
126.98864 959.09363 185.72607
131.28969 970.70581 159.15039
136.76001 970.70581 159.15039
142.23032 970.70581 159.15039
147.70084 970.70581 159.15039
153.17117 970.70581 159.15039
158.64169 970.70581 159.15039
164.112 970.70581 159.15039
169.58232 970.70581 159.15039
175.05284 970.70581 159.15039
180.52318 970.70581 159.15039
185.9937 970.70581 159.15039
191.464 970.70581 159.15039
196.93433 970.70581 159.15039
204.28618 959.09363 185.72607
213.73831 935.46924 239.79321
223.53432 911.04395 295.69312
231.44 898.6311 324.10132
239.59818 885.41736 354.34253
247.79866 872.60413 383.66699
253.69853 872.60413 383.66699
259.59863 872.60413 383.66699
265.4985 872.60413 383.66699
274.14059 858.98999 414.82471
280.10031 858.98999 414.82471
286.05981 858.98999 414.82471
294.94058 845.37585 445.98193
304.02802 831.36133 478.05566
-228.96953 999.03857 81.009033
-223.64473 999.03857 81.009033
-218.31984 999.03857 81.009033
-214.88853 988.18372 105.7334
-209.5163 988.18372 105.7334
-202.34515 999.03857 81.009033
-197.02036 999.03857 81.009033
-191.69547 999.03857 81.009033
-186.37057 999.03857 81.009033
-181.04568 999.03857 81.009033
-175.72078 999.03857 81.009033
-170.396 999.03857 81.009033
-165.07111 999.03857 81.009033
-159.7462 999.03857 81.009033
-154.42131 999.03857 81.009033
-149.09642 999.03857 81.009033
-143.77162 999.03857 81.009033
-138.44673 999.03857 81.009033
-133.12184 999.03857 81.009033
-127.79694 999.03857 81.009033
-123.56087 988.18372 105.7334
-118.18874 988.18372 105.7334
-112.81651 988.18372 105.7334
-108.42614 976.927 131.37329
-103.00481 976.927 131.37329
-97.583481 976.927 131.37329
-92.996849 965.67017 157.01294
-87.526421 965.67017 157.01294
-82.056 965.67017 157.01294
-76.585587 965.67017 157.01294
-71.115158 965.67017 157.01294
-66.255005 954.01123 183.5686
-60.733734 954.01123 183.5686
-55.212467 954.01123 183.5686
-49.6912 954.01123 183.5686
-44.16993 954.01123 183.5686
-38.648773 954.01123 183.5686
-33.127502 954.01123 183.5686
-27.352001 965.67017 157.01294
-21.685207 976.927 131.37329
-16.26388 976.927 131.37329
-10.940842 965.67017 157.01294
-5.4704208 965.67017 157.01294
0 965.67017 157.01294
5.4703169 965.67017 157.01294
11.042537 954.01123 183.5686
16.563698 954.01123 183.5686
22.085073 954.01123 183.5686
27.606234 954.01123 183.5686
33.127396 954.01123 183.5686
39.0047 942.35242 210.12427
