ply
format ascii 1.0
comment PCL generated
element vertex 1584
property float x
property float y
property float z
element camera 0
property float view_px
property float view_py
property float view_pz
property float x_axisx
property float x_axisy
property float x_axisz
property float y_axisx
property float y_axisy
property float y_axisz
property float z_axisx
property float z_axisy
property float z_axisz
property float focal
property float scalex
property float scaley
property float centerx
property float centery
property int viewportx
property int viewporty
property float k1
property float k2
end_header
-76.585587 965.67017 157.01294
-71.115158 965.67017 157.01294
-65.644844 965.67017 157.01294
-60.174423 965.67017 157.01294
-54.704002 965.67017 157.01294
-49.233582 965.67017 157.01294
-43.370415 976.927 131.37329
-37.949188 976.927 131.37329
-32.822422 965.67017 157.01294
-27.106535 976.927 131.37329
-21.488834 988.18372 105.7334
-16.116598 988.18372 105.7334
-10.842655 976.927 131.37329
-5.4213276 976.927 131.37329
0 976.927 131.37329
5.4212241 976.927 131.37329
10.842655 976.927 131.37329
16.26388 976.927 131.37329
21.488937 988.18372 105.7334
26.861067 988.18372 105.7334
32.233196 988.18372 105.7334
37.605534 988.18372 105.7334
42.977669 988.18372 105.7334
48.350006 988.18372 105.7334
53.722134 988.18372 105.7334
59.094265 988.18372 105.7334
64.466599 988.18372 105.7334
70.476952 976.927 131.37329
75.898376 976.927 131.37329
81.319603 976.927 131.37329
86.740829 976.927 131.37329
92.162254 976.927 131.37329
97.583481 976.927 131.37329
103.00491 976.927 131.37329
109.408 965.67017 157.01294
114.87832 965.67017 157.01294
121.46747 954.01123 183.5686
126.98864 954.01123 183.5686
132.51001 954.01123 183.5686
136.76001 965.67017 157.01294
140.9539 976.927 131.37329
146.37532 976.927 131.37329
151.79655 976.927 131.37329
157.21799 976.927 131.37329
162.63921 976.927 131.37329
168.06042 976.927 131.37329
173.48186 976.927 131.37329
178.90309 976.927 131.37329
184.32451 976.927 131.37329
189.74574 976.927 131.37329
195.16696 976.927 131.37329
200.58839 976.927 131.37329
206.00961 976.927 131.37329
211.43105 976.927 131.37329
216.85228 976.927 131.37329
222.2735 976.927 131.37329
227.69493 976.927 131.37329
233.11615 976.927 131.37329
238.53758 976.927 131.37329
243.9588 976.927 131.37329
251.63832 965.67017 157.01294
257.10886 965.67017 157.01294
-234.99754 900.49194 291.21411
-229.26587 900.49194 291.21411
-223.53421 900.49194 291.21411
-217.80254 900.49194 291.21411
-212.07098 900.49194 291.21411
-206.33931 900.49194 291.21411
-200.60764 900.49194 291.21411
-194.87598 900.49194 291.21411
-189.1443 900.49194 291.21411
-183.41275 900.49194 291.21411
-177.68108 900.49194 291.21411
-171.9494 900.49194 291.21411
-166.21774 900.49194 291.21411
-162.00795 887.979 319.57983
-154.75452 900.49194 291.21411
-147.60965 913.00488 262.84839
-139.30234 937.22339 207.94702
-133.73022 937.22339 207.94702
-126.98864 948.92896 181.41138
-121.46747 948.92896 181.41138
-115.94621 948.92896 181.41138
-110.42493 948.92896 181.41138
-103.93758 960.63477 154.87549
-98.467163 960.63477 154.87549
-92.996849 960.63477 154.87549
-87.526421 960.63477 154.87549
-82.056 960.63477 154.87549
-76.585587 960.63477 154.87549
-71.115158 960.63477 154.87549
-65.644844 960.63477 154.87549
-60.174423 960.63477 154.87549
-54.704002 960.63477 154.87549
-49.233582 960.63477 154.87549
-43.370415 971.93665 129.25488
-37.949188 971.93665 129.25488
-32.527863 971.93665 129.25488
-27.106535 971.93665 129.25488
-21.488834 983.23865 103.63428
-16.116598 983.23865 103.63428
-10.842655 971.93665 129.25488
-5.4213276 971.93665 129.25488
0 971.93665 129.25488
5.4212241 971.93665 129.25488
10.842655 971.93665 129.25488
16.26388 971.93665 129.25488
21.488937 983.23865 103.63428
26.861067 983.23865 103.63428
32.233196 983.23865 103.63428
37.605534 983.23865 103.63428
42.977669 983.23865 103.63428
48.350006 983.23865 103.63428
53.722134 983.23865 103.63428
59.094265 983.23865 103.63428
65.055725 971.93665 129.25488
70.476952 971.93665 129.25488
75.898376 971.93665 129.25488
81.319603 971.93665 129.25488
86.740829 971.93665 129.25488
92.162254 971.93665 129.25488
98.467163 960.63477 154.87549
103.93769 960.63477 154.87549
109.408 960.63477 154.87549
114.87832 960.63477 154.87549
121.46747 948.92896 181.41138
126.98864 948.92896 181.41138
132.51001 948.92896 181.41138
138.03117 948.92896 181.41138
142.23032 960.63477 154.87549
146.37532 971.93665 129.25488
151.79655 971.93665 129.25488
157.21799 971.93665 129.25488
162.63921 971.93665 129.25488
168.06042 971.93665 129.25488
173.48186 971.93665 129.25488
178.90309 971.93665 129.25488
184.32451 971.93665 129.25488
189.74574 971.93665 129.25488
195.16696 971.93665 129.25488
200.58839 971.93665 129.25488
206.00961 971.93665 129.25488
211.43105 971.93665 129.25488
216.85228 971.93665 129.25488
222.2735 971.93665 129.25488
227.69493 971.93665 129.25488
233.11615 971.93665 129.25488
240.69769 960.63477 154.87549
246.16801 960.63477 154.87549
251.63832 960.63477 154.87549
257.10886 960.63477 154.87549
-234.99754 895.21582 288.97461
-229.26587 895.21582 288.97461
-223.53421 895.21582 288.97461
-217.80254 895.21582 288.97461
-212.07098 895.21582 288.97461
-206.33931 895.21582 288.97461
-200.60764 895.21582 288.97461
-194.87598 895.21582 288.97461
-189.1443 895.21582 288.97461
-183.41275 895.21582 288.97461
-177.68108 895.21582 288.97461
-171.9494 895.21582 288.97461
-166.21774 895.21582 288.97461
-162.00795 882.65283 317.31909
-154.75452 895.21582 288.97461
-147.60965 907.77881 260.63013
-139.30234 932.09424 205.76978
-133.73022 932.09424 205.76978
-126.98864 943.84656 179.25391
-121.46747 943.84656 179.25391
-115.94621 943.84656 179.25391
-110.42493 943.84656 179.25391
-103.93758 955.59912 152.73804
-98.467163 955.59912 152.73804
-92.996849 955.59912 152.73804
-87.526421 955.59912 152.73804
-82.056 955.59912 152.73804
-76.585587 955.59912 152.73804
-71.115158 955.59912 152.73804
-65.644844 955.59912 152.73804
-60.174423 955.59912 152.73804
-54.704002 955.59912 152.73804
-49.233582 955.59912 152.73804
-43.370415 966.94629 127.13672
-37.949188 966.94629 127.13672
-32.527863 966.94629 127.13672
-27.106535 966.94629 127.13672
-21.488834 978.29346 101.53516
-16.116598 978.29346 101.53516
-10.842655 966.94629 127.13672
-5.4213276 966.94629 127.13672
0 966.94629 127.13672
5.4212241 966.94629 127.13672
10.842655 966.94629 127.13672
16.26388 966.94629 127.13672
21.488937 978.29346 101.53516
26.861067 978.29346 101.53516
32.233196 978.29346 101.53516
37.605534 978.29346 101.53516
42.977669 978.29346 101.53516
48.350006 978.29346 101.53516
53.722134 978.29346 101.53516
59.094265 978.29346 101.53516
65.055725 966.94629 127.13672
70.476952 966.94629 127.13672
75.898376 966.94629 127.13672
81.319603 966.94629 127.13672
86.740829 966.94629 127.13672
92.162254 966.94629 127.13672
98.467163 955.59912 152.73804
103.93769 955.59912 152.73804
109.408 955.59912 152.73804
115.9461 943.84656 179.25391
122.58611 932.09424 205.76978
128.15811 932.09424 205.76978
133.73033 932.09424 205.76978
138.03117 943.84656 179.25391
142.23032 955.59912 152.73804
147.70084 955.59912 152.73804
153.17117 955.59912 152.73804
157.21799 966.94629 127.13672
162.63921 966.94629 127.13672
168.06042 966.94629 127.13672
173.48186 966.94629 127.13672
178.90309 966.94629 127.13672
184.32451 966.94629 127.13672
189.74574 966.94629 127.13672
195.16696 966.94629 127.13672
200.58839 966.94629 127.13672
206.00961 966.94629 127.13672
211.43105 966.94629 127.13672
216.85228 966.94629 127.13672
222.2735 966.94629 127.13672
227.69493 966.94629 127.13672
233.11615 966.94629 127.13672
238.53758 966.94629 127.13672
243.9588 966.94629 127.13672
251.63832 955.59912 152.73804
257.10886 955.59912 152.73804
262.57916 955.59912 152.73804
-237.22603 877.3269 315.05835
-229.26587 889.93994 286.73511
-223.53421 889.93994 286.73511
-217.80254 889.93994 286.73511
-212.07098 889.93994 286.73511
-206.33931 889.93994 286.73511
-200.60764 889.93994 286.73511
-194.87598 889.93994 286.73511
-189.1443 889.93994 286.73511
-183.41275 889.93994 286.73511
-177.68108 889.93994 286.73511
-171.9494 889.93994 286.73511
-166.21774 889.93994 286.73511
-162.00795 877.3269 315.05835
-156.22206 877.3269 315.05835
-147.60965 902.55286 258.41187
-139.30234 926.96509 203.59253
-133.73022 926.96509 203.59253
-126.98864 938.7644 177.09668
-121.46747 938.7644 177.09668
-115.94621 938.7644 177.09668
-110.42493 938.7644 177.09668
-103.93758 950.56372 150.60059
-98.467163 950.56372 150.60059
-92.996849 950.56372 150.60059
-87.526421 950.56372 150.60059
-82.056 950.56372 150.60059
-76.585587 950.56372 150.60059
-71.115158 950.56372 150.60059
-65.644844 950.56372 150.60059
-60.174423 950.56372 150.60059
-54.704002 950.56372 150.60059
-49.233582 950.56372 150.60059
-43.370415 961.95605 125.01855
-37.949188 961.95605 125.01855
-32.527863 961.95605 125.01855
-27.106535 961.95605 125.01855
-21.488834 973.34839 99.436035
-16.116598 973.34839 99.436035
-10.842655 961.95605 125.01855
-5.4213276 961.95605 125.01855
0 961.95605 125.01855
5.4212241 961.95605 125.01855
10.842655 961.95605 125.01855
16.26388 961.95605 125.01855
21.68531 961.95605 125.01855
26.861067 973.34839 99.436035
32.233196 973.34839 99.436035
37.949188 961.95605 125.01855
43.370415 961.95605 125.01855
48.791843 961.95605 125.01855
54.21307 961.95605 125.01855
59.634293 961.95605 125.01855
65.055725 961.95605 125.01855
70.476952 961.95605 125.01855
75.898376 961.95605 125.01855
81.319603 961.95605 125.01855
86.740829 961.95605 125.01855
92.996849 950.56372 150.60059
98.467163 950.56372 150.60059
103.93769 950.56372 150.60059
109.408 950.56372 150.60059
115.9461 938.7644 177.09668
122.58611 926.96509 203.59253
128.15811 926.96509 203.59253
133.73033 926.96509 203.59253
139.30234 926.96509 203.59253
142.23032 950.56372 150.60059
147.70084 950.56372 150.60059
153.17117 950.56372 150.60059
157.21799 961.95605 125.01855
162.63921 961.95605 125.01855
168.06042 961.95605 125.01855
173.48186 961.95605 125.01855
178.90309 961.95605 125.01855
184.32451 961.95605 125.01855
189.74574 961.95605 125.01855
195.16696 961.95605 125.01855
200.58839 961.95605 125.01855
206.00961 961.95605 125.01855
211.43105 961.95605 125.01855
216.85228 961.95605 125.01855
222.2735 961.95605 125.01855
227.69493 961.95605 125.01855
233.11615 961.95605 125.01855
238.53758 961.95605 125.01855
243.9588 961.95605 125.01855
251.63832 950.56372 150.60059
257.10886 950.56372 150.60059
262.57916 950.56372 150.60059
-237.22603 872.00085 312.79761
-231.44 872.00085 312.79761
-223.53421 884.66382 284.49561
-217.80254 884.66382 284.49561
-212.07098 884.66382 284.49561
-206.33931 884.66382 284.49561
-200.60764 884.66382 284.49561
-194.87598 884.66382 284.49561
-189.1443 884.66382 284.49561
-183.41275 884.66382 284.49561
-179.36603 872.00085 312.79761
-173.58 872.00085 312.79761
-167.79399 872.00085 312.79761
-162.00795 872.00085 312.79761
-156.22206 872.00085 312.79761
-149.02284 884.66382 284.49561
-139.30234 921.83594 201.41528
-133.73022 921.83594 201.41528
-126.98864 933.68188 174.93945
-121.46747 933.68188 174.93945
-115.94621 933.68188 174.93945
-110.42493 933.68188 174.93945
-103.93758 945.52808 148.46313
-98.467163 945.52808 148.46313
-92.996849 945.52808 148.46313
-87.526421 945.52808 148.46313
-82.056 945.52808 148.46313
-76.585587 945.52808 148.46313
-71.115158 945.52808 148.46313
-65.644844 945.52808 148.46313
-60.174423 945.52808 148.46313
-54.704002 945.52808 148.46313
-49.233582 945.52808 148.46313
-43.370415 956.96558 122.90015
-37.949188 956.96558 122.90015
-32.527863 956.96558 122.90015
-27.106535 956.96558 122.90015
-21.488834 968.4032 97.336914
-16.116598 968.4032 97.336914
-10.842655 956.96558 122.90015
-5.4213276 956.96558 122.90015
0 956.96558 122.90015
5.4212241 956.96558 122.90015
10.842655 956.96558 122.90015
16.26388 956.96558 122.90015
21.68531 956.96558 122.90015
27.106535 956.96558 122.90015
32.52776 956.96558 122.90015
37.949188 956.96558 122.90015
43.370415 956.96558 122.90015
48.791843 956.96558 122.90015
54.21307 956.96558 122.90015
59.634293 956.96558 122.90015
65.055725 956.96558 122.90015
70.476952 956.96558 122.90015
75.898376 956.96558 122.90015
81.319603 956.96558 122.90015
87.526314 945.52808 148.46313
92.996849 945.52808 148.46313
98.467163 945.52808 148.46313
103.93769 945.52808 148.46313
109.408 945.52808 148.46313
115.9461 933.68188 174.93945
122.58611 921.83594 201.41528
128.15811 921.83594 201.41528
133.73033 921.83594 201.41528
138.03117 933.68188 174.93945
142.23032 945.52808 148.46313
147.70084 945.52808 148.46313
153.17117 945.52808 148.46313
157.21799 956.96558 122.90015
162.63921 956.96558 122.90015
168.06042 956.96558 122.90015
173.48186 956.96558 122.90015
178.90309 956.96558 122.90015
184.32451 956.96558 122.90015
189.74574 956.96558 122.90015
195.16696 956.96558 122.90015
200.58839 956.96558 122.90015
206.00961 956.96558 122.90015
211.43105 956.96558 122.90015
216.85228 956.96558 122.90015
222.2735 956.96558 122.90015
227.69493 956.96558 122.90015
233.11615 956.96558 122.90015
238.53758 956.96558 122.90015
243.9588 956.96558 122.90015
251.63832 945.52808 148.46313
257.10886 945.52808 148.46313
262.57916 945.52808 148.46313
-237.22603 866.6748 310.53687
-231.44 866.6748 310.53687
-223.53421 879.38794 282.2561
-217.80254 879.38794 282.2561
-214.08206 866.6748 310.53687
-208.29602 866.6748 310.53687
-202.51001 866.6748 310.53687
-196.72398 866.6748 310.53687
-190.93796 866.6748 310.53687
-185.15205 866.6748 310.53687
-179.36603 866.6748 310.53687
-175.31581 853.1416 340.64233
-169.47191 853.1416 340.64233
-163.62804 853.1416 340.64233
-156.22206 866.6748 310.53687
-149.02284 879.38794 282.2561
-139.30234 916.70691 199.23828
-133.73022 916.70691 199.23828
-126.98864 928.59973 172.78198
-121.46747 928.59973 172.78198
-115.94621 928.59973 172.78198
-110.42493 928.59973 172.78198
-103.93758 940.49268 146.32568
-98.467163 940.49268 146.32568
-92.996849 940.49268 146.32568
-87.526421 940.49268 146.32568
-82.056 940.49268 146.32568
-76.585587 940.49268 146.32568
-71.115158 940.49268 146.32568
-65.644844 940.49268 146.32568
-60.174423 940.49268 146.32568
-54.704002 940.49268 146.32568
-49.233582 940.49268 146.32568
-43.763157 940.49268 146.32568
-38.292843 940.49268 146.32568
-32.822422 940.49268 146.32568
-27.106535 951.97534 120.78198
-21.685207 951.97534 120.78198
-16.26388 951.97534 120.78198
-10.842655 951.97534 120.78198
-5.4213276 951.97534 120.78198
0 951.97534 120.78198
5.4212241 951.97534 120.78198
10.842655 951.97534 120.78198
16.26388 951.97534 120.78198
21.68531 951.97534 120.78198
27.106535 951.97534 120.78198
32.52776 951.97534 120.78198
37.949188 951.97534 120.78198
43.370415 951.97534 120.78198
48.791843 951.97534 120.78198
54.21307 951.97534 120.78198
59.634293 951.97534 120.78198
65.055725 951.97534 120.78198
70.476952 951.97534 120.78198
75.898376 951.97534 120.78198
81.319603 951.97534 120.78198
87.526314 940.49268 146.32568
92.996849 940.49268 146.32568
98.467163 940.49268 146.32568
103.93769 940.49268 146.32568
109.408 940.49268 146.32568
115.9461 928.59973 172.78198
122.58611 916.70691 199.23828
126.98864 928.59973 172.78198
132.51001 928.59973 172.78198
138.03117 928.59973 172.78198
142.23032 940.49268 146.32568
147.70084 940.49268 146.32568
153.17117 940.49268 146.32568
157.21799 951.97534 120.78198
162.63921 951.97534 120.78198
168.06042 951.97534 120.78198
173.48186 951.97534 120.78198
178.90309 951.97534 120.78198
184.32451 951.97534 120.78198
189.74574 951.97534 120.78198
195.16696 951.97534 120.78198
200.58839 951.97534 120.78198
206.00961 951.97534 120.78198
211.43105 951.97534 120.78198
216.85228 951.97534 120.78198
222.2735 951.97534 120.78198
227.69493 951.97534 120.78198
233.11615 951.97534 120.78198
238.53758 951.97534 120.78198
243.9588 951.97534 120.78198
249.38004 951.97534 120.78198
254.80147 951.97534 120.78198
260.22269 951.97534 120.78198
265.6441 951.97534 120.78198
-237.22603 861.34875 308.27588
-231.44 861.34875 308.27588
-223.53421 874.11182 280.01636
-217.80254 874.11182 280.01636
-214.08206 861.34875 308.27588
-208.29602 861.34875 308.27588
-202.51001 861.34875 308.27588
-196.72398 861.34875 308.27588
-190.93796 861.34875 308.27588
-185.15205 861.34875 308.27588
-181.1597 847.76221 338.35889
-175.31581 847.76221 338.35889
-169.47191 847.76221 338.35889
-163.62804 847.76221 338.35889
-156.22206 861.34875 308.27588
-149.02284 874.11182 280.01636
-139.30234 911.57764 197.06104
-133.73022 911.57764 197.06104
-126.98864 923.51733 170.62476
-121.46747 923.51733 170.62476
-115.94621 923.51733 170.62476
-110.42493 923.51733 170.62476
-103.93758 935.45703 144.18823
-98.467163 935.45703 144.18823
-92.996849 935.45703 144.18823
-87.526421 935.45703 144.18823
-82.056 935.45703 144.18823
-76.585587 935.45703 144.18823
-71.115158 935.45703 144.18823
-65.644844 935.45703 144.18823
-60.174423 935.45703 144.18823
-54.704002 935.45703 144.18823
-48.79174 946.98499 118.66357
-43.370415 946.98499 118.66357
-38.292843 935.45703 144.18823
-32.822422 935.45703 144.18823
-27.352001 935.45703 144.18823
-21.685207 946.98499 118.66357
-16.26388 946.98499 118.66357
-10.842655 946.98499 118.66357
-5.4213276 946.98499 118.66357
0 946.98499 118.66357
5.4212241 946.98499 118.66357
10.842655 946.98499 118.66357
16.26388 946.98499 118.66357
21.68531 946.98499 118.66357
27.106535 946.98499 118.66357
32.52776 946.98499 118.66357
37.949188 946.98499 118.66357
43.370415 946.98499 118.66357
48.791843 946.98499 118.66357
54.21307 946.98499 118.66357
59.634293 946.98499 118.66357
65.644844 935.45703 144.18823
71.115158 935.45703 144.18823
76.585686 935.45703 144.18823
82.056 935.45703 144.18823
87.526314 935.45703 144.18823
92.996849 935.45703 144.18823
98.467163 935.45703 144.18823
103.93769 935.45703 144.18823
109.408 935.45703 144.18823
117.01388 911.57764 197.06104
122.58611 911.57764 197.06104
126.98864 923.51733 170.62476
132.51001 923.51733 170.62476
138.03117 923.51733 170.62476
142.23032 935.45703 144.18823
147.70084 935.45703 144.18823
153.17117 935.45703 144.18823
158.64169 935.45703 144.18823
164.112 935.45703 144.18823
169.58232 935.45703 144.18823
173.48186 946.98499 118.66357
178.90309 946.98499 118.66357
184.32451 946.98499 118.66357
189.74574 946.98499 118.66357
195.16696 946.98499 118.66357
200.58839 946.98499 118.66357
206.00961 946.98499 118.66357
211.43105 946.98499 118.66357
216.85228 946.98499 118.66357
222.2735 946.98499 118.66357
227.69493 946.98499 118.66357
233.11615 946.98499 118.66357
238.53758 946.98499 118.66357
243.9588 946.98499 118.66357
249.38004 946.98499 118.66357
254.80147 946.98499 118.66357
260.22269 946.98499 118.66357
265.6441 946.98499 118.66357
-237.22603 856.02283 306.01538
-231.44 856.02283 306.01538
-227.91052 842.38293 336.07544
-219.86795 856.02283 306.01538
-214.08206 856.02283 306.01538
-208.29602 856.02283 306.01538
-202.51001 856.02283 306.01538
-196.72398 856.02283 306.01538
-190.93796 856.02283 306.01538
-185.15205 856.02283 306.01538
-181.1597 842.38293 336.07544
-175.31581 842.38293 336.07544
-171.09903 829.15662 365.22461
-163.62804 842.38293 336.07544
-156.22206 856.02283 306.01538
-149.02284 868.83594 277.77686
-140.61734 894.04883 222.21143
-133.73022 906.44861 194.88379
-126.98864 918.43506 168.46753
-121.46747 918.43506 168.46753
-115.94621 918.43506 168.46753
-110.42493 918.43506 168.46753
-103.93758 930.42163 142.05078
-98.467163 930.42163 142.05078
-92.996849 930.42163 142.05078
-87.526421 930.42163 142.05078
-82.056 930.42163 142.05078
-76.585587 930.42163 142.05078
-71.115158 930.42163 142.05078
-65.644844 930.42163 142.05078
-60.174423 930.42163 142.05078
-54.704002 930.42163 142.05078
-48.79174 941.99463 116.54541
-43.370415 941.99463 116.54541
-38.292843 930.42163 142.05078
-32.822422 930.42163 142.05078
-27.352001 930.42163 142.05078
-21.685207 941.99463 116.54541
-16.26388 941.99463 116.54541
-10.842655 941.99463 116.54541
-5.4213276 941.99463 116.54541
0 941.99463 116.54541
5.4212241 941.99463 116.54541
10.842655 941.99463 116.54541
16.26388 941.99463 116.54541
21.68531 941.99463 116.54541
27.106535 941.99463 116.54541
32.52776 941.99463 116.54541
37.949188 941.99463 116.54541
43.370415 941.99463 116.54541
48.791843 941.99463 116.54541
54.21307 941.99463 116.54541
59.634293 941.99463 116.54541
65.644844 930.42163 142.05078
71.115158 930.42163 142.05078
76.585686 930.42163 142.05078
82.056 930.42163 142.05078
87.526314 930.42163 142.05078
92.996849 930.42163 142.05078
98.467163 930.42163 142.05078
103.93769 930.42163 142.05078
109.408 930.42163 142.05078
115.9461 918.43506 168.46753
122.58611 906.44861 194.88379
126.98864 918.43506 168.46753
132.51001 918.43506 168.46753
138.03117 918.43506 168.46753
142.23032 930.42163 142.05078
147.70084 930.42163 142.05078
153.17117 930.42163 142.05078
158.64169 930.42163 142.05078
162.63921 941.99463 116.54541
168.06042 941.99463 116.54541
173.48186 941.99463 116.54541
178.90309 941.99463 116.54541
184.32451 941.99463 116.54541
188.02748 953.56775 91.039795
193.39961 953.56775 91.039795
200.58839 941.99463 116.54541
206.00961 941.99463 116.54541
211.43105 941.99463 116.54541
216.85228 941.99463 116.54541
222.2735 941.99463 116.54541
227.69493 941.99463 116.54541
233.11615 941.99463 116.54541
240.69769 930.42163 142.05078
246.16801 930.42163 142.05078
251.63832 930.42163 142.05078
254.80147 941.99463 116.54541
260.22269 941.99463 116.54541
-239.5983 837.00354 333.79199
-233.75441 837.00354 333.79199
-227.91052 837.00354 333.79199
-219.86795 850.69666 303.75439
-214.08206 850.69666 303.75439
-208.29602 850.69666 303.75439
-202.51001 850.69666 303.75439
-196.72398 850.69666 303.75439
-192.84734 837.00354 333.79199
-187.00357 837.00354 333.79199
-181.1597 837.00354 333.79199
-176.99901 823.72559 362.91919
-171.09903 823.72559 362.91919
-165.19902 823.72559 362.91919
-157.78427 837.00354 333.79199
-149.02284 863.55981 275.53735
-140.61734 888.87122 220.01367
-133.73022 901.31934 192.70654
-126.98864 913.35266 166.31006
-121.46747 913.35266 166.31006
-115.94621 913.35266 166.31006
-110.42493 913.35266 166.31006
-103.93758 925.38599 139.91333
-98.467163 925.38599 139.91333
-92.996849 925.38599 139.91333
-87.526421 925.38599 139.91333
-82.056 925.38599 139.91333
-76.585587 925.38599 139.91333
-71.115158 925.38599 139.91333
-65.644844 925.38599 139.91333
-60.174423 925.38599 139.91333
-54.704002 925.38599 139.91333
-48.79174 937.00427 114.427
-43.370415 937.00427 114.427
-38.292843 925.38599 139.91333
-32.822422 925.38599 139.91333
-27.352001 925.38599 139.91333
-21.685207 937.00427 114.427
-16.26388 937.00427 114.427
-10.842655 937.00427 114.427
-5.4213276 937.00427 114.427
0 937.00427 114.427
5.4212241 937.00427 114.427
10.842655 937.00427 114.427
16.26388 937.00427 114.427
21.68531 937.00427 114.427
27.106535 937.00427 114.427
32.52776 937.00427 114.427
37.949188 937.00427 114.427
43.370415 937.00427 114.427
48.791843 937.00427 114.427
54.21307 937.00427 114.427
59.634293 937.00427 114.427
65.644844 925.38599 139.91333
71.115158 925.38599 139.91333
76.585686 925.38599 139.91333
82.056 925.38599 139.91333
87.526314 925.38599 139.91333
92.996849 925.38599 139.91333
98.467163 925.38599 139.91333
103.93769 925.38599 139.91333
109.408 925.38599 139.91333
115.9461 913.35266 166.31006
122.58611 901.31934 192.70654
128.15811 901.31934 192.70654
132.51001 913.35266 166.31006
138.03117 913.35266 166.31006
143.55234 913.35266 166.31006
147.70084 925.38599 139.91333
153.17117 925.38599 139.91333
158.64169 925.38599 139.91333
162.63921 937.00427 114.427
168.06042 937.00427 114.427
173.48186 937.00427 114.427
178.90309 937.00427 114.427
184.32451 937.00427 114.427
188.02748 948.62256 88.940674
193.39961 948.62256 88.940674
200.58839 937.00427 114.427
206.00961 937.00427 114.427
211.43105 937.00427 114.427
216.85228 937.00427 114.427
222.2735 937.00427 114.427
227.69493 937.00427 114.427
233.11615 937.00427 114.427
240.69769 925.38599 139.91333
246.16801 925.38599 139.91333
251.63832 925.38599 139.91333
257.10886 925.38599 139.91333
-239.5983 831.62427 331.50854
-233.75441 831.62427 331.50854
-227.91052 831.62427 331.50854
-222.06665 831.62427 331.50854
-214.08206 845.37061 301.49365
-208.29602 845.37061 301.49365
-204.53511 831.62427 331.50854
-198.69122 831.62427 331.50854
-192.84734 831.62427 331.50854
-187.00357 831.62427 331.50854
-182.89899 818.29456 360.61401
-176.99901 818.29456 360.61401
-171.09903 818.29456 360.61401
-165.19902 818.29456 360.61401
-157.78427 831.62427 331.50854
-149.02284 858.28369 273.29785
-139.30234 896.19019 190.52954
-132.5099 908.27026 164.15283
-126.98864 908.27026 164.15283
-121.46747 908.27026 164.15283
-115.94621 908.27026 164.15283
-109.408 920.35034 137.77588
-103.93758 920.35034 137.77588
-98.467163 920.35034 137.77588
-92.996849 920.35034 137.77588
-87.526421 920.35034 137.77588
-82.056 920.35034 137.77588
-76.585587 920.35034 137.77588
-71.115158 920.35034 137.77588
-65.644844 920.35034 137.77588
-60.174423 920.35034 137.77588
-54.704002 920.35034 137.77588
-49.233582 920.35034 137.77588
-43.763157 920.35034 137.77588
-38.292843 920.35034 137.77588
-32.822422 920.35034 137.77588
-27.352001 920.35034 137.77588
-21.685207 932.01392 112.30884
-16.26388 932.01392 112.30884
-10.842655 932.01392 112.30884
-5.4213276 932.01392 112.30884
0 932.01392 112.30884
5.4212241 932.01392 112.30884
10.842655 932.01392 112.30884
16.26388 932.01392 112.30884
21.68531 932.01392 112.30884
27.106535 932.01392 112.30884
32.52776 932.01392 112.30884
37.949188 932.01392 112.30884
43.370415 932.01392 112.30884
48.791843 932.01392 112.30884
54.21307 932.01392 112.30884
59.634293 932.01392 112.30884
65.644844 920.35034 137.77588
71.115158 920.35034 137.77588
76.585686 920.35034 137.77588
82.056 920.35034 137.77588
87.526314 920.35034 137.77588
92.996849 920.35034 137.77588
98.467163 920.35034 137.77588
103.93769 920.35034 137.77588
110.42493 908.27026 164.15283
115.9461 908.27026 164.15283
122.58611 896.19019 190.52954
128.15811 896.19019 190.52954
133.73033 896.19019 190.52954
138.03117 908.27026 164.15283
143.55234 908.27026 164.15283
147.70084 920.35034 137.77588
153.17117 920.35034 137.77588
158.64169 920.35034 137.77588
162.63921 932.01392 112.30884
168.06042 932.01392 112.30884
173.48186 932.01392 112.30884
178.90309 932.01392 112.30884
184.32451 932.01392 112.30884
188.02748 943.67737 86.841553
193.39961 943.67737 86.841553
200.58839 932.01392 112.30884
206.00961 932.01392 112.30884
211.43105 932.01392 112.30884
216.85228 932.01392 112.30884
222.2735 932.01392 112.30884
227.69493 932.01392 112.30884
233.11615 932.01392 112.30884
240.69769 920.35034 137.77588
246.16801 920.35034 137.77588
251.63832 920.35034 137.77588
257.10886 920.35034 137.77588
-241.89867 812.86377 358.30859
-235.99867 812.86377 358.30859
-227.91052 826.245 329.22534
-222.06665 826.245 329.22534
-216.22287 826.245 329.22534
-210.379 826.245 329.22534
-204.53511 826.245 329.22534
-198.69122 826.245 329.22534
-192.84734 826.245 329.22534
-188.799 812.86377 358.30859
-182.89899 812.86377 358.30859
-176.99901 812.86377 358.30859
-171.09903 812.86377 358.30859
-165.19902 812.86377 358.30859
-159.29916 812.86377 358.30859
-150.43602 840.04456 299.23291
-139.30234 891.06116 188.35229
-132.5099 903.18799 161.99536
-126.98864 903.18799 161.99536
-121.46747 903.18799 161.99536
-115.94621 903.18799 161.99536
-109.408 915.31494 135.63843
-103.93758 915.31494 135.63843
-98.467163 915.31494 135.63843
-92.996849 915.31494 135.63843
-87.526421 915.31494 135.63843
-82.056 915.31494 135.63843
-76.585587 915.31494 135.63843
-71.115158 915.31494 135.63843
-65.644844 915.31494 135.63843
-60.174423 915.31494 135.63843
-54.704002 915.31494 135.63843
-49.233582 915.31494 135.63843
-43.763157 915.31494 135.63843
-38.292843 915.31494 135.63843
-32.822422 915.31494 135.63843
-27.352001 915.31494 135.63843
-21.685207 927.02356 110.19043
-16.26388 927.02356 110.19043
-10.842655 927.02356 110.19043
-5.4213276 927.02356 110.19043
0 927.02356 110.19043
5.4212241 927.02356 110.19043
10.842655 927.02356 110.19043
16.26388 927.02356 110.19043
21.68531 927.02356 110.19043
27.106535 927.02356 110.19043
32.52776 927.02356 110.19043
37.949188 927.02356 110.19043
43.370415 927.02356 110.19043
49.233688 915.31494 135.63843
54.21307 927.02356 110.19043
59.634293 927.02356 110.19043
65.644844 915.31494 135.63843
71.115158 915.31494 135.63843
76.585686 915.31494 135.63843
82.056 915.31494 135.63843
87.526314 915.31494 135.63843
92.996849 915.31494 135.63843
98.467163 915.31494 135.63843
103.93769 915.31494 135.63843
110.42493 903.18799 161.99536
117.01388 891.06116 188.35229
122.58611 891.06116 188.35229
128.15811 891.06116 188.35229
133.73033 891.06116 188.35229
138.03117 903.18799 161.99536
143.55234 903.18799 161.99536
147.70084 915.31494 135.63843
153.17117 915.31494 135.63843
158.64169 915.31494 135.63843
164.112 915.31494 135.63843
169.58232 915.31494 135.63843
175.05284 915.31494 135.63843
178.90309 927.02356 110.19043
184.32451 927.02356 110.19043
188.02748 938.7323 84.742432
193.39961 938.7323 84.742432
200.58839 927.02356 110.19043
206.00961 927.02356 110.19043
211.43105 927.02356 110.19043
216.85228 927.02356 110.19043
222.2735 927.02356 110.19043
227.69493 927.02356 110.19043
233.11615 927.02356 110.19043
240.69769 915.31494 135.63843
246.16801 915.31494 135.63843
251.63832 915.31494 135.63843
257.10886 915.31494 135.63843
-239.5983 820.8656 326.94189
-233.75441 820.8656 326.94189
-230.09869 807.43274 356.00342
-222.06665 820.8656 326.94189
-216.22287 820.8656 326.94189
-210.379 820.8656 326.94189
-204.53511 820.8656 326.94189
-198.69122 820.8656 326.94189
-194.69885 807.43274 356.00342
-188.799 807.43274 356.00342
-182.89899 807.43274 356.00342
-176.99901 807.43274 356.00342
-171.09903 807.43274 356.00342
-165.19902 807.43274 356.00342
-159.29916 807.43274 356.00342
-153.39915 807.43274 356.00342
-138.03117 898.10559 159.83813
-132.5099 898.10559 159.83813
-126.98864 898.10559 159.83813
-121.46747 898.10559 159.83813
-115.94621 898.10559 159.83813
-109.408 910.2793 133.50098
-103.93758 910.2793 133.50098
-98.467163 910.2793 133.50098
-92.996849 910.2793 133.50098
-87.526421 910.2793 133.50098
-82.056 910.2793 133.50098
-76.585587 910.2793 133.50098
-71.115158 910.2793 133.50098
-65.644844 910.2793 133.50098
-60.174423 910.2793 133.50098
-54.704002 910.2793 133.50098
-49.233582 910.2793 133.50098
-43.763157 910.2793 133.50098
-38.292843 910.2793 133.50098
-32.822422 910.2793 133.50098
-27.352001 910.2793 133.50098
-21.685207 922.0332 108.07227
-16.26388 922.0332 108.07227
-10.842655 922.0332 108.07227
-5.4213276 922.0332 108.07227
0 922.0332 108.07227
5.4212241 922.0332 108.07227
10.842655 922.0332 108.07227
16.26388 922.0332 108.07227
21.68531 922.0332 108.07227
27.106535 922.0332 108.07227
32.52776 922.0332 108.07227
37.949188 922.0332 108.07227
43.370415 922.0332 108.07227
49.233688 910.2793 133.50098
54.704002 910.2793 133.50098
60.174316 910.2793 133.50098
65.644844 910.2793 133.50098
71.115158 910.2793 133.50098
76.585686 910.2793 133.50098
82.056 910.2793 133.50098
87.526314 910.2793 133.50098
92.996849 910.2793 133.50098
99.382401 898.10559 159.83813
104.90378 898.10559 159.83813
111.44187 885.93188 186.17505
117.01388 885.93188 186.17505
122.58611 885.93188 186.17505
128.15811 885.93188 186.17505
133.73033 885.93188 186.17505
138.03117 898.10559 159.83813
143.55234 898.10559 159.83813
147.70084 910.2793 133.50098
153.17117 910.2793 133.50098
158.64169 910.2793 133.50098
164.112 910.2793 133.50098
169.58232 910.2793 133.50098
175.05284 910.2793 133.50098
178.90309 922.0332 108.07227
184.32451 922.0332 108.07227
189.74574 922.0332 108.07227
195.16696 922.0332 108.07227
200.58839 922.0332 108.07227
206.00961 922.0332 108.07227
211.43105 922.0332 108.07227
216.85228 922.0332 108.07227
222.2735 922.0332 108.07227
227.69493 922.0332 108.07227
233.11615 922.0332 108.07227
240.69769 910.2793 133.50098
246.16801 910.2793 133.50098
251.63832 910.2793 133.50098
257.10886 910.2793 133.50098
-239.5983 815.48645 324.65845
-233.75441 815.48645 324.65845
-230.09869 802.00183 353.698
-222.06665 815.48645 324.65845
-216.22287 815.48645 324.65845
-210.379 815.48645 324.65845
-204.53511 815.48645 324.65845
-198.69122 815.48645 324.65845
-194.69885 802.00183 353.698
-188.799 802.00183 353.698
-182.89899 802.00183 353.698
-176.99901 802.00183 353.698
-171.09903 802.00183 353.698
-165.19902 802.00183 353.698
-159.29916 802.00183 353.698
-153.39915 802.00183 353.698
-138.03117 893.02332 157.68091
-132.5099 893.02332 157.68091
-126.98864 893.02332 157.68091
-121.46747 893.02332 157.68091
-115.94621 893.02332 157.68091
-109.408 905.2439 131.36353
-103.93758 905.2439 131.36353
-98.467163 905.2439 131.36353
-92.996849 905.2439 131.36353
-87.526421 905.2439 131.36353
-82.056 905.2439 131.36353
-76.585587 905.2439 131.36353
-71.115158 905.2439 131.36353
-65.644844 905.2439 131.36353
-60.174423 905.2439 131.36353
-54.704002 905.2439 131.36353
-49.233582 905.2439 131.36353
-43.763157 905.2439 131.36353
-38.292843 905.2439 131.36353
-32.822422 905.2439 131.36353
-27.352001 905.2439 131.36353
-21.685207 917.04297 105.9541
-16.26388 917.04297 105.9541
-10.842655 917.04297 105.9541
-5.4213276 917.04297 105.9541
0 917.04297 105.9541
5.4212241 917.04297 105.9541
10.842655 917.04297 105.9541
16.26388 917.04297 105.9541
21.68531 917.04297 105.9541
27.106535 917.04297 105.9541
32.52776 917.04297 105.9541
37.949188 917.04297 105.9541
43.370415 917.04297 105.9541
49.233688 905.2439 131.36353
54.704002 905.2439 131.36353
60.174316 905.2439 131.36353
65.644844 905.2439 131.36353
71.115158 905.2439 131.36353
76.585686 905.2439 131.36353
82.056 905.2439 131.36353
87.526314 905.2439 131.36353
92.996849 905.2439 131.36353
99.382401 893.02332 157.68091
104.90378 893.02332 157.68091
111.44187 880.80286 183.9978
117.01388 880.80286 183.9978
122.58611 880.80286 183.9978
128.15811 880.80286 183.9978
133.73033 880.80286 183.9978
138.03117 893.02332 157.68091
143.55234 893.02332 157.68091
147.70084 905.2439 131.36353
153.17117 905.2439 131.36353
158.64169 905.2439 131.36353
162.63921 917.04297 105.9541
168.06042 917.04297 105.9541
175.05284 905.2439 131.36353
178.90309 917.04297 105.9541
184.32451 917.04297 105.9541
189.74574 917.04297 105.9541
195.16696 917.04297 105.9541
200.58839 917.04297 105.9541
206.00961 917.04297 105.9541
211.43105 917.04297 105.9541
216.85228 917.04297 105.9541
222.2735 917.04297 105.9541
229.75684 905.2439 131.36353
235.22717 905.2439 131.36353
240.69769 905.2439 131.36353
246.16801 905.2439 131.36353
251.63832 905.2439 131.36353
257.10886 905.2439 131.36353
-239.5983 810.10706 322.37524
-233.75441 810.10706 322.37524
-227.91052 810.10706 322.37524
-224.19868 796.5708 351.39282
-218.29883 796.5708 351.39282
-212.39882 796.5708 351.39282
-206.49884 796.5708 351.39282
-200.59886 796.5708 351.39282
-194.69885 796.5708 351.39282
-188.799 796.5708 351.39282
-184.74701 782.18848 382.22437
-178.7874 782.18848 382.22437
-171.09903 796.5708 351.39282
-165.19902 796.5708 351.39282
-159.29916 796.5708 351.39282
-153.39915 796.5708 351.39282
-138.03117 887.94092 155.52344
-132.5099 887.94092 155.52344
-126.98864 887.94092 155.52344
-121.46747 887.94092 155.52344
-115.94621 887.94092 155.52344
-110.42493 887.94092 155.52344
-104.90366 887.94092 155.52344
-99.382401 887.94092 155.52344
-93.861237 887.94092 155.52344
-88.339973 887.94092 155.52344
-82.056 900.20825 129.22607
-76.585587 900.20825 129.22607
-71.115158 900.20825 129.22607
-65.644844 900.20825 129.22607
-60.174423 900.20825 129.22607
-54.704002 900.20825 129.22607
-49.233582 900.20825 129.22607
-43.763157 900.20825 129.22607
-38.292843 900.20825 129.22607
-32.822422 900.20825 129.22607
-27.352001 900.20825 129.22607
-21.685207 912.05249 103.83569
-16.26388 912.05249 103.83569
-10.842655 912.05249 103.83569
-5.4213276 912.05249 103.83569
0 912.05249 103.83569
5.4212241 912.05249 103.83569
10.842655 912.05249 103.83569
16.26388 912.05249 103.83569
21.68531 912.05249 103.83569
27.106535 912.05249 103.83569
32.52776 912.05249 103.83569
37.949188 912.05249 103.83569
43.370415 912.05249 103.83569
49.233688 900.20825 129.22607
54.704002 900.20825 129.22607
60.174316 900.20825 129.22607
65.644844 900.20825 129.22607
71.115158 900.20825 129.22607
76.585686 900.20825 129.22607
82.056 900.20825 129.22607
87.526314 900.20825 129.22607
92.996849 900.20825 129.22607
99.382401 887.94092 155.52344
104.90378 887.94092 155.52344
111.44187 875.67358 181.82056
117.01388 875.67358 181.82056
122.58611 875.67358 181.82056
128.15811 875.67358 181.82056
133.73033 875.67358 181.82056
138.03117 887.94092 155.52344
143.55234 887.94092 155.52344
147.70084 900.20825 129.22607
153.17117 900.20825 129.22607
158.64169 900.20825 129.22607
162.63921 912.05249 103.83569
168.06042 912.05249 103.83569
173.48186 912.05249 103.83569
178.90309 912.05249 103.83569
184.32451 912.05249 103.83569
189.74574 912.05249 103.83569
195.16696 912.05249 103.83569
200.58839 912.05249 103.83569
206.00961 912.05249 103.83569
209.5164 923.89673 78.445068
214.88853 923.89673 78.445068
222.2735 912.05249 103.83569
227.69493 912.05249 103.83569
233.11615 912.05249 103.83569
238.53758 912.05249 103.83569
243.9588 912.05249 103.83569
251.63832 900.20825 129.22607
-239.5983 804.72778 320.0918
-233.75441 804.72778 320.0918
-227.91052 804.72778 320.0918
-224.19868 791.13989 349.0874
-218.29883 791.13989 349.0874
-212.39882 791.13989 349.0874
-206.49884 791.13989 349.0874
-200.59886 791.13989 349.0874
-194.69885 791.13989 349.0874
-188.799 791.13989 349.0874
-184.74701 776.70264 379.89575
-178.7874 776.70264 379.89575
-171.09903 791.13989 349.0874
-165.19902 791.13989 349.0874
-159.29916 791.13989 349.0874
-153.39915 791.13989 349.0874
-140.61734 857.80591 206.82715
-132.5099 882.85864 153.36621
-126.98864 882.85864 153.36621
-121.46747 882.85864 153.36621
-115.94621 882.85864 153.36621
-110.42493 882.85864 153.36621
-104.90366 882.85864 153.36621
-99.382401 882.85864 153.36621
-93.861237 882.85864 153.36621
-88.339973 882.85864 153.36621
-82.056 895.17285 127.08862
-76.585587 895.17285 127.08862
-71.115158 895.17285 127.08862
-65.644844 895.17285 127.08862
-60.174423 895.17285 127.08862
-54.704002 895.17285 127.08862
-49.233582 895.17285 127.08862
-43.763157 895.17285 127.08862
-38.292843 895.17285 127.08862
-32.822422 895.17285 127.08862
-27.352001 895.17285 127.08862
-21.685207 907.06226 101.71753
-16.26388 907.06226 101.71753
-10.842655 907.06226 101.71753
-5.4213276 907.06226 101.71753
0 907.06226 101.71753
5.4212241 907.06226 101.71753
10.842655 907.06226 101.71753
16.26388 907.06226 101.71753
21.68531 907.06226 101.71753
27.106535 907.06226 101.71753
32.52776 907.06226 101.71753
37.949188 907.06226 101.71753
43.370415 907.06226 101.71753
49.233688 895.17285 127.08862
54.704002 895.17285 127.08862
59.634293 907.06226 101.71753
65.055725 907.06226 101.71753
70.476952 907.06226 101.71753
76.585686 895.17285 127.08862
82.056 895.17285 127.08862
87.526314 895.17285 127.08862
93.861237 882.85864 153.36621
99.382401 882.85864 153.36621
105.86987 870.54456 179.64355
111.44187 870.54456 179.64355
118.11848 857.80591 206.82715
123.7433 857.80591 206.82715
129.3679 857.80591 206.82715
134.99274 857.80591 206.82715
139.30234 870.54456 179.64355
144.87434 870.54456 179.64355
149.07372 882.85864 153.36621
153.17117 895.17285 127.08862
158.64169 895.17285 127.08862
162.63921 907.06226 101.71753
168.06042 907.06226 101.71753
173.48186 907.06226 101.71753
178.90309 907.06226 101.71753
184.32451 907.06226 101.71753
189.74574 907.06226 101.71753
195.16696 907.06226 101.71753
200.58839 907.06226 101.71753
206.00961 907.06226 101.71753
209.5164 918.95166 76.346191
214.88853 918.95166 76.346191
222.2735 907.06226 101.71753
227.69493 907.06226 101.71753
233.11615 907.06226 101.71753
238.53758 907.06226 101.71753
243.9588 907.06226 101.71753
249.38004 907.06226 101.71753
-239.5983 799.34839 317.80835
-233.75441 799.34839 317.80835
-227.91052 799.34839 317.80835
-224.19868 785.70886 346.78223
-218.29883 785.70886 346.78223
-212.39882 785.70886 346.78223
-206.49884 785.70886 346.78223
-200.59886 785.70886 346.78223
-194.69885 785.70886 346.78223
-190.70662 771.2168 377.56714
-184.74701 771.2168 377.56714
-178.7874 771.2168 377.56714
-172.8278 771.2168 377.56714
-166.86819 771.2168 377.56714
-160.90871 771.2168 377.56714
-146.24205 852.62817 204.62939
-140.61734 852.62817 204.62939
-132.5099 877.77625 151.20874
-126.98864 877.77625 151.20874
-122.58611 865.41541 177.46631
-115.94621 877.77625 151.20874
-110.42493 877.77625 151.20874
-104.90366 877.77625 151.20874
-99.382401 877.77625 151.20874
-93.861237 877.77625 151.20874
-88.339973 877.77625 151.20874
-82.056 890.13721 124.95117
-76.585587 890.13721 124.95117
-71.115158 890.13721 124.95117
-65.644844 890.13721 124.95117
-60.174423 890.13721 124.95117
-54.704002 890.13721 124.95117
-49.233582 890.13721 124.95117
-43.763157 890.13721 124.95117
-38.292843 890.13721 124.95117
-32.822422 890.13721 124.95117
-27.352001 890.13721 124.95117
-21.685207 902.0719 99.599121
-16.26388 902.0719 99.599121
-10.842655 902.0719 99.599121
-5.4213276 902.0719 99.599121
0 902.0719 99.599121
5.4212241 902.0719 99.599121
10.842655 902.0719 99.599121
16.26388 902.0719 99.599121
21.68531 902.0719 99.599121
27.106535 902.0719 99.599121
32.52776 902.0719 99.599121
37.949188 902.0719 99.599121
43.370415 902.0719 99.599121
49.233688 890.13721 124.95117
54.704002 890.13721 124.95117
59.634293 902.0719 99.599121
65.055725 902.0719 99.599121
70.476952 902.0719 99.599121
76.585686 890.13721 124.95117
82.056 890.13721 124.95117
87.526314 890.13721 124.95117
92.996849 890.13721 124.95117
99.382401 877.77625 151.20874
105.86987 865.41541 177.46631
111.44187 865.41541 177.46631
118.11848 852.62817 204.62939
123.7433 852.62817 204.62939
129.3679 852.62817 204.62939
134.99274 852.62817 204.62939
139.30234 865.41541 177.46631
144.87434 865.41541 177.46631
147.70084 890.13721 124.95117
153.17117 890.13721 124.95117
157.21799 902.0719 99.599121
162.63921 902.0719 99.599121
168.06042 902.0719 99.599121
173.48186 902.0719 99.599121
178.90309 902.0719 99.599121
184.32451 902.0719 99.599121
189.74574 902.0719 99.599121
195.16696 902.0719 99.599121
200.58839 902.0719 99.599121
206.00961 902.0719 99.599121
211.43105 902.0719 99.599121
216.85228 902.0719 99.599121
222.2735 902.0719 99.599121
227.69493 902.0719 99.599121
233.11615 902.0719 99.599121
236.37747 914.00647 74.24707
241.7496 914.00647 74.24707
249.38004 902.0719 99.599121
-239.5983 793.96924 315.52515
-233.75441 793.96924 315.52515
-227.91052 793.96924 315.52515
-224.19868 780.27808 344.47681
-218.29883 780.27808 344.47681
-212.39882 780.27808 344.47681
-206.49884 780.27808 344.47681
-200.59886 780.27808 344.47681
-196.66609 765.73108 375.23853
-190.70662 765.73108 375.23853
-184.74701 765.73108 375.23853
-178.7874 765.73108 375.23853
-172.8278 765.73108 375.23853
-166.86819 765.73108 375.23853
-153.28697 834.61523 229.57397
-146.24205 847.45081 202.43164
-140.61734 847.45081 202.43164
-133.73022 860.28638 175.28906
-128.15811 860.28638 175.28906
-122.58611 860.28638 175.28906
-115.94621 872.69397 149.05151
-110.42493 872.69397 149.05151
-104.90366 872.69397 149.05151
-99.382401 872.69397 149.05151
-93.861237 872.69397 149.05151
-88.339973 872.69397 149.05151
-82.818703 872.69397 149.05151
-77.297432 872.69397 149.05151
-71.115158 885.10181 122.81372
-65.644844 885.10181 122.81372
-60.174423 885.10181 122.81372
-54.704002 885.10181 122.81372
-49.6912 872.69397 149.05151
-43.763157 885.10181 122.81372
-38.292843 885.10181 122.81372
-33.127502 872.69397 149.05151
-27.606234 872.69397 149.05151
-21.881578 885.10181 122.81372
-16.26388 897.08167 97.480957
-10.842655 897.08167 97.480957
-5.4213276 897.08167 97.480957
0 897.08167 97.480957
5.4212241 897.08167 97.480957
10.842655 897.08167 97.480957
16.26388 897.08167 97.480957
21.68531 897.08167 97.480957
27.352001 885.10181 122.81372
32.52776 897.08167 97.480957
37.949188 897.08167 97.480957
43.370415 897.08167 97.480957
48.791843 897.08167 97.480957
54.21307 897.08167 97.480957
59.634293 897.08167 97.480957
65.055725 897.08167 97.480957
71.115158 885.10181 122.81372
76.585686 885.10181 122.81372
82.056 885.10181 122.81372
87.526314 885.10181 122.81372
92.996849 885.10181 122.81372
99.382401 872.69397 149.05151
105.86987 860.28638 175.28906
111.44187 860.28638 175.28906
118.11848 847.45081 202.43164
123.7433 847.45081 202.43164
129.3679 847.45081 202.43164
133.73033 860.28638 175.28906
139.30234 860.28638 175.28906
143.55234 872.69397 149.05151
147.70084 885.10181 122.81372
153.17117 885.10181 122.81372
157.21799 897.08167 97.480957
162.63921 897.08167 97.480957
168.06042 897.08167 97.480957
173.48186 897.08167 97.480957
178.90309 897.08167 97.480957
182.65533 909.0614 72.147949
188.02748 909.0614 72.147949
195.16696 897.08167 97.480957
200.58839 897.08167 97.480957
206.00961 897.08167 97.480957
209.5164 909.0614 72.147949
214.88853 909.0614 72.147949
222.2735 897.08167 97.480957
227.69493 897.08167 97.480957
233.11615 897.08167 97.480957
236.37747 909.0614 72.147949
241.7496 909.0614 72.147949
251.63832 885.10181 122.81372
-239.5983 788.58984 313.2417
-233.75441 788.58984 313.2417
-227.91052 788.58984 313.2417
-224.19868 774.84705 342.17163
-218.29883 774.84705 342.17163
-212.39882 774.84705 342.17163
-206.49884 774.84705 342.17163
-200.59886 774.84705 342.17163
-196.66609 760.24512 372.90991
-190.70662 760.24512 372.90991
-184.74701 760.24512 372.90991
-180.57581 745.64319 403.64795
-174.55658 745.64319 403.64795
-153.28697 829.38916 227.35571
-147.60965 829.38916 227.35571
-140.61734 842.27319 200.23389
-133.73022 855.1571 173.11182
-128.15811 855.1571 173.11182
-122.58611 855.1571 173.11182
-115.94621 867.61157 146.89404
-110.42493 867.61157 146.89404
-104.90366 867.61157 146.89404
-99.382401 867.61157 146.89404
-93.861237 867.61157 146.89404
-88.339973 867.61157 146.89404
-82.818703 867.61157 146.89404
-77.297432 867.61157 146.89404
-71.776169 867.61157 146.89404
-66.255005 867.61157 146.89404
-60.174423 880.06616 120.67627
-54.704002 880.06616 120.67627
-49.6912 867.61157 146.89404
-43.763157 880.06616 120.67627
-38.292843 880.06616 120.67627
-33.127502 867.61157 146.89404
-27.606234 867.61157 146.89404
-21.881578 880.06616 120.67627
-16.26388 892.09119 95.362549
-10.842655 892.09119 95.362549
-5.4213276 892.09119 95.362549
0 892.09119 95.362549
5.4212241 892.09119 95.362549
10.842655 892.09119 95.362549
16.26388 892.09119 95.362549
21.68531 892.09119 95.362549
27.352001 880.06616 120.67627
32.52776 892.09119 95.362549
37.949188 892.09119 95.362549
43.370415 892.09119 95.362549
48.791843 892.09119 95.362549
54.21307 892.09119 95.362549
59.634293 892.09119 95.362549
65.055725 892.09119 95.362549
70.476952 892.09119 95.362549
76.585686 880.06616 120.67627
82.056 880.06616 120.67627
87.526314 880.06616 120.67627
93.861237 867.61157 146.89404
99.382401 867.61157 146.89404
105.86987 855.1571 173.11182
111.44187 855.1571 173.11182
118.11848 842.27319 200.23389
123.7433 842.27319 200.23389
129.3679 842.27319 200.23389
133.73033 855.1571 173.11182
138.03117 867.61157 146.89404
143.55234 867.61157 146.89404
147.70084 880.06616 120.67627
153.17117 880.06616 120.67627
157.21799 892.09119 95.362549
162.63921 892.09119 95.362549
168.06042 892.09119 95.362549
171.91087 904.11621 70.048828
177.283 904.11621 70.048828
182.65533 904.11621 70.048828
188.02748 904.11621 70.048828
193.39961 904.11621 70.048828
198.77194 904.11621 70.048828
206.00961 892.09119 95.362549
209.5164 904.11621 70.048828
214.88853 904.11621 70.048828
222.2735 892.09119 95.362549
227.69493 892.09119 95.362549
233.11615 892.09119 95.362549
236.37747 904.11621 70.048828
241.7496 904.11621 70.048828
-237.22603 797.43628 281.14673
-231.44 797.43628 281.14673
-227.91052 783.21057 310.95825
-222.06665 783.21057 310.95825
-218.29883 769.41614 339.86621
-212.39882 769.41614 339.86621
-206.49884 769.41614 339.86621
-200.59886 769.41614 339.86621
