ply
format ascii 1.0
comment PCL generated
element vertex 1566
property float x
property float y
property float z
element camera 0
property float view_px
property float view_py
property float view_pz
property float x_axisx
property float x_axisy
property float x_axisz
property float y_axisx
property float y_axisy
property float y_axisz
property float z_axisx
property float z_axisy
property float z_axisz
property float focal
property float scalex
property float scaley
property float centerx
property float centery
property int viewportx
property int viewporty
property float k1
property float k2
end_header
-202.48898 738.72205 156.27905
-196.86427 738.72205 156.27905
-191.23956 738.72205 156.27905
-185.61484 738.72205 156.27905
-179.99023 738.72205 156.27905
-172.73491 752.57446 129.56812
-167.16281 752.57446 129.56812
-161.5907 752.57446 129.56812
-157.49138 738.72205 156.27905
-151.86678 738.72205 156.27905
-146.24205 738.72205 156.27905
-140.61734 738.72205 156.27905
-134.99263 738.72205 156.27905
-129.3679 738.72205 156.27905
-123.7433 738.72205 156.27905
-118.11858 738.72205 156.27905
-112.49387 738.72205 156.27905
-106.86916 738.72205 156.27905
-101.24444 738.72205 156.27905
-95.619835 738.72205 156.27905
-90.836716 724.86975 182.98975
-85.159401 724.86975 182.98975
-79.482086 724.86975 182.98975
-73.804771 724.86975 182.98975
-68.127563 724.86975 182.98975
-62.450253 724.86975 182.98975
-56.772934 724.86975 182.98975
-51.095619 724.86975 182.98975
-45.85313 710.55566 210.59106
-39.7411 724.86975 182.98975
-34.063782 724.86975 182.98975
-28.658234 710.55566 210.59106
-22.926565 710.55566 210.59106
-17.194897 710.55566 210.59106
-11.463337 710.55566 210.59106
-5.7860222 696.24158 238.19214
0 681.00391 267.57422
5.843771 681.00391 267.57422
11.687765 681.00391 267.57422
17.531536 681.00391 267.57422
23.37553 681.00391 267.57422
29.219301 681.00391 267.57422
35.399712 666.22815 296.06567
41.299816 666.22815 296.06567
47.199688 666.22815 296.06567
53.099792 666.22815 296.06567
59.595802 650.52881 326.33813
65.55529 650.52881 326.33813
71.515007 650.52881 326.33813
77.474495 650.52881 326.33813
83.434212 650.52881 326.33813
89.3937 650.52881 326.33813
95.353195 650.52881 326.33813
101.31291 650.52881 326.33813
108.34544 634.82947 356.61035
114.36477 634.82947 356.61035
120.38387 634.82947 356.61035
126.40298 634.82947 356.61035
133.77237 618.66846 387.77271
-238.44638 719.64368 180.77148
-232.76904 719.64368 180.77148
-227.09174 719.64368 180.77148
-221.41443 719.64368 180.77148
-215.73711 719.64368 180.77148
-210.05991 719.64368 180.77148
-204.38258 719.64368 180.77148
-196.86427 733.54443 154.0813
-191.23956 733.54443 154.0813
-185.61484 733.54443 154.0813
-179.99023 733.54443 154.0813
-174.36551 733.54443 154.0813
-168.7408 733.54443 154.0813
-163.1161 733.54443 154.0813
-157.49138 733.54443 154.0813
-151.86678 733.54443 154.0813
-146.24205 733.54443 154.0813
-140.61734 733.54443 154.0813
-134.99263 733.54443 154.0813
-129.3679 733.54443 154.0813
-123.7433 733.54443 154.0813
-118.11858 733.54443 154.0813
-112.49387 733.54443 154.0813
-106.86916 733.54443 154.0813
-101.24444 733.54443 154.0813
-95.619835 733.54443 154.0813
-90.836716 719.64368 180.77148
-85.159401 719.64368 180.77148
-79.482086 719.64368 180.77148
-73.804771 719.64368 180.77148
-68.127563 719.64368 180.77148
-62.450253 719.64368 180.77148
-56.772934 719.64368 180.77148
-51.095619 719.64368 180.77148
-45.85313 705.27954 208.35132
-40.121571 705.27954 208.35132
-34.389904 705.27954 208.35132
-28.658234 705.27954 208.35132
-23.14398 690.91541 235.9314
-17.357956 690.91541 235.9314
-11.572044 690.91541 235.9314
-5.8438826 675.62451 265.29077
0 675.62451 265.29077
5.843771 675.62451 265.29077
11.687765 675.62451 265.29077
17.531536 675.62451 265.29077
23.37553 675.62451 265.29077
29.499834 660.79712 293.76025
35.399712 660.79712 293.76025
41.299816 660.79712 293.76025
47.199688 660.79712 293.76025
53.636314 645.04297 324.00952
59.595802 645.04297 324.00952
65.55529 645.04297 324.00952
71.515007 645.04297 324.00952
77.474495 645.04297 324.00952
83.434212 645.04297 324.00952
89.3937 645.04297 324.00952
95.353195 645.04297 324.00952
101.31291 645.04297 324.00952
108.34544 629.28857 354.2583
114.36477 629.28857 354.2583
120.38387 629.28857 354.2583
126.40298 629.28857 354.2583
132.4223 629.28857 354.2583
-244.12358 714.41772 178.55322
-238.44638 714.41772 178.55322
-232.76904 714.41772 178.55322
-227.09174 714.41772 178.55322
-221.41443 714.41772 178.55322
-215.73711 714.41772 178.55322
-210.05991 714.41772 178.55322
-204.38258 714.41772 178.55322
-198.70528 714.41772 178.55322
-193.02797 714.41772 178.55322
-185.61484 728.36682 151.88354
-179.99023 728.36682 151.88354
-174.36551 728.36682 151.88354
-168.7408 728.36682 151.88354
-163.1161 728.36682 151.88354
-157.49138 728.36682 151.88354
-151.86678 728.36682 151.88354
-146.24205 728.36682 151.88354
-140.61734 728.36682 151.88354
-134.99263 728.36682 151.88354
-129.3679 728.36682 151.88354
-123.7433 728.36682 151.88354
-118.11858 728.36682 151.88354
-112.49387 728.36682 151.88354
-106.86916 728.36682 151.88354
-101.24444 728.36682 151.88354
-95.619835 728.36682 151.88354
-90.836716 714.41772 178.55322
-85.159401 714.41772 178.55322
-79.482086 714.41772 178.55322
-73.804771 714.41772 178.55322
-68.127563 714.41772 178.55322
-62.450253 714.41772 178.55322
-56.772934 714.41772 178.55322
-51.095619 714.41772 178.55322
-45.85313 700.00342 206.11182
-40.121571 700.00342 206.11182
-34.389904 700.00342 206.11182
-28.658234 700.00342 206.11182
-23.14398 685.58936 233.67065
-17.357956 685.58936 233.67065
-11.572044 685.58936 233.67065
-5.8438826 670.24512 263.00732
0 670.24512 263.00732
5.843771 670.24512 263.00732
11.687765 670.24512 263.00732
17.531536 670.24512 263.00732
23.599957 655.36621 291.45483
29.499834 655.36621 291.45483
35.399712 655.36621 291.45483
41.299816 655.36621 291.45483
47.199688 655.36621 291.45483
53.636314 639.55701 321.68091
59.595802 639.55701 321.68091
65.55529 639.55701 321.68091
71.515007 639.55701 321.68091
77.474495 639.55701 321.68091
83.434212 639.55701 321.68091
89.3937 639.55701 321.68091
95.353195 639.55701 321.68091
102.32633 623.7478 351.90649
108.34544 623.7478 351.90649
114.36477 623.7478 351.90649
120.38387 623.7478 351.90649
126.40298 623.7478 351.90649
132.4223 623.7478 351.90649
-244.12358 709.19177 176.33496
-238.44638 709.19177 176.33496
-230.61244 723.18933 149.68579
-224.98775 723.18933 149.68579
-221.41443 709.19177 176.33496
-215.73711 709.19177 176.33496
-210.05991 709.19177 176.33496
-204.38258 709.19177 176.33496
-196.86427 723.18933 149.68579
-191.23956 723.18933 149.68579
-185.61484 723.18933 149.68579
-179.99023 723.18933 149.68579
-174.36551 723.18933 149.68579
-168.7408 723.18933 149.68579
-163.1161 723.18933 149.68579
-157.49138 723.18933 149.68579
-151.86678 723.18933 149.68579
-146.24205 723.18933 149.68579
-140.61734 723.18933 149.68579
-134.99263 723.18933 149.68579
-129.3679 723.18933 149.68579
-123.7433 723.18933 149.68579
-118.11858 723.18933 149.68579
-112.49387 723.18933 149.68579
-106.86916 723.18933 149.68579
-101.24444 723.18933 149.68579
-95.619835 723.18933 149.68579
-90.836716 709.19177 176.33496
-85.159401 709.19177 176.33496
-79.482086 709.19177 176.33496
-73.804771 709.19177 176.33496
-68.127563 709.19177 176.33496
-62.450253 709.19177 176.33496
-56.772934 709.19177 176.33496
-51.095619 709.19177 176.33496
-45.85313 694.72754 203.87231
-40.121571 694.72754 203.87231
-34.389904 694.72754 203.87231
-28.93 680.26331 231.40991
-23.14398 680.26331 231.40991
-17.357956 680.26331 231.40991
-11.572044 680.26331 231.40991
-5.8438826 664.86597 260.72388
0 664.86597 260.72388
5.843771 664.86597 260.72388
11.687765 664.86597 260.72388
17.531536 664.86597 260.72388
23.599957 649.9353 289.14966
29.499834 649.9353 289.14966
35.399712 649.9353 289.14966
41.299816 649.9353 289.14966
47.199688 649.9353 289.14966
53.636314 634.07129 319.35229
59.595802 634.07129 319.35229
65.55529 634.07129 319.35229
71.515007 634.07129 319.35229
77.474495 634.07129 319.35229
83.434212 634.07129 319.35229
89.3937 634.07129 319.35229
95.353195 634.07129 319.35229
101.31291 634.07129 319.35229
107.27239 634.07129 319.35229
113.23211 634.07129 319.35229
119.1916 634.07129 319.35229
126.40298 618.20728 349.55469
-244.12358 703.9657 174.11646
-238.44638 703.9657 174.11646
-230.61244 718.01172 147.48804
-224.98775 718.01172 147.48804
-221.41443 703.9657 174.11646
-215.73711 703.9657 174.11646
-210.05991 703.9657 174.11646
-204.38258 703.9657 174.11646
-196.86427 718.01172 147.48804
-191.23956 718.01172 147.48804
-185.61484 718.01172 147.48804
-179.99023 718.01172 147.48804
-174.36551 718.01172 147.48804
-168.7408 718.01172 147.48804
-163.1161 718.01172 147.48804
-157.49138 718.01172 147.48804
-151.86678 718.01172 147.48804
-146.24205 718.01172 147.48804
-140.61734 718.01172 147.48804
-134.99263 718.01172 147.48804
-129.3679 718.01172 147.48804
-123.7433 718.01172 147.48804
-118.11858 718.01172 147.48804
-113.54587 703.9657 174.11646
-107.86855 703.9657 174.11646
-101.24444 718.01172 147.48804
-95.619835 718.01172 147.48804
-90.836716 703.9657 174.11646
-85.159401 703.9657 174.11646
-79.482086 703.9657 174.11646
-73.804771 703.9657 174.11646
-68.127563 703.9657 174.11646
-62.450253 703.9657 174.11646
-56.772934 703.9657 174.11646
-51.095619 703.9657 174.11646
-45.85313 689.45142 201.63281
-40.121571 689.45142 201.63281
-34.389904 689.45142 201.63281
-28.93 674.93726 229.14893
-23.375418 659.48657 258.44067
-17.531536 659.48657 258.44067
-11.687765 659.48657 258.44067
-5.8999891 644.50427 286.84424
0 644.50427 286.84424
5.8998771 644.50427 286.84424
11.799978 644.50427 286.84424
17.699856 644.50427 286.84424
23.599957 644.50427 286.84424
29.499834 644.50427 286.84424
35.399712 644.50427 286.84424
41.299816 644.50427 286.84424
47.199688 644.50427 286.84424
53.636314 628.58533 317.02368
59.595802 628.58533 317.02368
65.55529 628.58533 317.02368
71.515007 628.58533 317.02368
77.474495 628.58533 317.02368
83.434212 628.58533 317.02368
89.3937 628.58533 317.02368
95.353195 628.58533 317.02368
101.31291 628.58533 317.02368
107.27239 628.58533 317.02368
113.23211 628.58533 317.02368
119.1916 628.58533 317.02368
-244.12358 698.73975 171.89819
-238.44638 698.73975 171.89819
-232.76904 698.73975 171.89819
-227.09174 698.73975 171.89819
-221.41443 698.73975 171.89819
-215.73711 698.73975 171.89819
-210.05991 698.73975 171.89819
-204.38258 698.73975 171.89819
-196.86427 712.83423 145.29028
-191.23956 712.83423 145.29028
-185.61484 712.83423 145.29028
-179.99023 712.83423 145.29028
-174.36551 712.83423 145.29028
-168.7408 712.83423 145.29028
-163.1161 712.83423 145.29028
-157.49138 712.83423 145.29028
-151.86678 712.83423 145.29028
-146.24205 712.83423 145.29028
-140.61734 712.83423 145.29028
-134.99263 712.83423 145.29028
-129.3679 712.83423 145.29028
-123.7433 712.83423 145.29028
-118.11858 712.83423 145.29028
-112.49387 712.83423 145.29028
-106.86916 712.83423 145.29028
-101.24444 712.83423 145.29028
-95.619835 712.83423 145.29028
-90.836716 698.73975 171.89819
-85.159401 698.73975 171.89819
-79.482086 698.73975 171.89819
-73.804771 698.73975 171.89819
-68.127563 698.73975 171.89819
-62.450253 698.73975 171.89819
-56.772934 698.73975 171.89819
-51.584797 684.17554 199.39331
-45.85313 684.17554 199.39331
-40.121571 684.17554 199.39331
-34.716022 669.61133 226.88818
-29.219301 654.10742 256.15723
-23.599844 639.07336 284.53906
-17.531536 654.10742 256.15723
-11.687765 654.10742 256.15723
-5.8999891 639.07336 284.53906
0 639.07336 284.53906
5.8998771 639.07336 284.53906
11.799978 639.07336 284.53906
17.699856 639.07336 284.53906
23.599957 639.07336 284.53906
29.499834 639.07336 284.53906
35.399712 639.07336 284.53906
41.299816 639.07336 284.53906
47.199688 639.07336 284.53906
53.636314 623.09961 314.69507
59.595802 623.09961 314.69507
65.55529 623.09961 314.69507
71.515007 623.09961 314.69507
77.474495 623.09961 314.69507
83.434212 623.09961 314.69507
89.3937 623.09961 314.69507
95.353195 623.09961 314.69507
101.31291 623.09961 314.69507
107.27239 623.09961 314.69507
113.23211 623.09961 314.69507
120.38387 607.12585 344.85083
127.69167 590.68237 375.89355
-247.4865 707.65662 143.09253
-241.86177 707.65662 143.09253
-238.44638 693.51379 169.67993
-230.61244 707.65662 143.09253
-224.98775 707.65662 143.09253
-221.41443 693.51379 169.67993
-215.73711 693.51379 169.67993
-210.05991 693.51379 169.67993
-204.38258 693.51379 169.67993
-196.86427 707.65662 143.09253
-191.23956 707.65662 143.09253
-185.61484 707.65662 143.09253
-179.99023 707.65662 143.09253
-174.36551 707.65662 143.09253
-168.7408 707.65662 143.09253
-163.1161 707.65662 143.09253
-157.49138 707.65662 143.09253
-151.86678 707.65662 143.09253
-146.24205 707.65662 143.09253
-140.61734 707.65662 143.09253
-134.99263 707.65662 143.09253
-129.3679 707.65662 143.09253
-123.7433 707.65662 143.09253
-118.11858 707.65662 143.09253
-112.49387 707.65662 143.09253
-106.86916 707.65662 143.09253
-101.24444 707.65662 143.09253
-95.619835 707.65662 143.09253
-90.836716 693.51379 169.67993
-85.159401 693.51379 169.67993
-79.482086 693.51379 169.67993
-73.804771 693.51379 169.67993
-68.127563 693.51379 169.67993
-63.048141 678.89941 197.15381
-57.316467 678.89941 197.15381
-51.584797 678.89941 197.15381
-46.28796 664.28516 224.62744
-40.502045 664.28516 224.62744
-34.716022 664.28516 224.62744
-29.219301 648.72803 253.87378
-23.599844 633.64233 282.23364
-17.531536 648.72803 253.87378
-11.687765 648.72803 253.87378
-5.8999891 633.64233 282.23364
0 633.64233 282.23364
5.8998771 633.64233 282.23364
11.799978 633.64233 282.23364
17.699856 633.64233 282.23364
23.599957 633.64233 282.23364
29.499834 633.64233 282.23364
35.399712 633.64233 282.23364
41.299816 633.64233 282.23364
47.199688 633.64233 282.23364
53.636314 617.61377 312.36646
59.595802 617.61377 312.36646
65.55529 617.61377 312.36646
71.515007 617.61377 312.36646
77.474495 617.61377 312.36646
83.434212 617.61377 312.36646
89.3937 617.61377 312.36646
95.353195 617.61377 312.36646
102.32633 601.58508 342.49902
108.34544 601.58508 342.49902
114.36477 601.58508 342.49902
121.61121 585.08521 373.51758
127.69167 585.08521 373.51758
-247.4865 702.47913 140.89478
-241.86177 702.47913 140.89478
-236.23717 702.47913 140.89478
-230.61244 702.47913 140.89478
-224.98775 702.47913 140.89478
-221.41443 688.28784 167.46167
-215.73711 688.28784 167.46167
-210.05991 688.28784 167.46167
-204.38258 688.28784 167.46167
-196.86427 702.47913 140.89478
-191.23956 702.47913 140.89478
-185.61484 702.47913 140.89478
-179.99023 702.47913 140.89478
-174.36551 702.47913 140.89478
-168.7408 702.47913 140.89478
-163.1161 702.47913 140.89478
-157.49138 702.47913 140.89478
-151.86678 702.47913 140.89478
-146.24205 702.47913 140.89478
-141.93234 688.28784 167.46167
-136.25502 688.28784 167.46167
-129.3679 702.47913 140.89478
-123.7433 702.47913 140.89478
-119.22319 688.28784 167.46167
-113.54587 688.28784 167.46167
-107.86855 688.28784 167.46167
-102.19124 688.28784 167.46167
-96.514038 688.28784 167.46167
-90.836716 688.28784 167.46167
-85.159401 688.28784 167.46167
-79.482086 688.28784 167.46167
-73.804771 688.28784 167.46167
-68.127563 688.28784 167.46167
-63.048141 673.62354 194.91431
-57.316467 673.62354 194.91431
-52.073982 658.95923 222.3667
-46.28796 658.95923 222.3667
-40.907066 643.34875 251.59058
-35.063183 643.34875 251.59058
-29.219301 643.34875 251.59058
-23.599844 628.21143 279.92847
-17.699856 628.21143 279.92847
-11.799978 628.21143 279.92847
-5.8999891 628.21143 279.92847
0 628.21143 279.92847
5.8998771 628.21143 279.92847
11.799978 628.21143 279.92847
17.699856 628.21143 279.92847
23.599957 628.21143 279.92847
29.499834 628.21143 279.92847
35.399712 628.21143 279.92847
41.299816 628.21143 279.92847
47.199688 628.21143 279.92847
53.636314 612.12793 310.03784
59.595802 612.12793 310.03784
65.55529 612.12793 310.03784
71.515007 612.12793 310.03784
77.474495 612.12793 310.03784
84.268799 596.04443 340.14697
90.287903 596.04443 340.14697
96.307007 596.04443 340.14697
102.32633 596.04443 340.14697
109.45004 579.48804 371.14185
116.69671 562.93164 402.13672
122.83854 562.93164 402.13672
-247.4865 697.30151 138.69702
-241.86177 697.30151 138.69702
-236.23717 697.30151 138.69702
-230.61244 697.30151 138.69702
-224.98775 697.30151 138.69702
-221.41443 683.06177 165.24341
-215.73711 683.06177 165.24341
-210.05991 683.06177 165.24341
-204.38258 683.06177 165.24341
-198.70528 683.06177 165.24341
-191.23956 697.30151 138.69702
-185.61484 697.30151 138.69702
-179.99023 697.30151 138.69702
-174.36551 697.30151 138.69702
-168.7408 697.30151 138.69702
-163.1161 697.30151 138.69702
-157.49138 697.30151 138.69702
-151.86678 697.30151 138.69702
-146.24205 697.30151 138.69702
-140.61734 697.30151 138.69702
-136.25502 683.06177 165.24341
-130.57771 683.06177 165.24341
-124.90051 683.06177 165.24341
-119.22319 683.06177 165.24341
-113.54587 683.06177 165.24341
-107.86855 683.06177 165.24341
-102.19124 683.06177 165.24341
-96.514038 683.06177 165.24341
-90.836716 683.06177 165.24341
-85.159401 683.06177 165.24341
-79.482086 683.06177 165.24341
-73.804771 683.06177 165.24341
-68.779808 668.34741 192.67456
-63.048141 668.34741 192.67456
-57.316467 668.34741 192.67456
-52.073982 653.63306 220.10596
-46.750835 637.96936 249.30713
-40.907066 637.96936 249.30713
-35.063183 637.96936 249.30713
-29.499834 622.78052 277.62305
-23.599844 622.78052 277.62305
-17.699856 622.78052 277.62305
-11.799978 622.78052 277.62305
-5.8999891 622.78052 277.62305
0 622.78052 277.62305
5.8998771 622.78052 277.62305
11.799978 622.78052 277.62305
17.699856 622.78052 277.62305
23.599957 622.78052 277.62305
29.499834 622.78052 277.62305
35.399712 622.78052 277.62305
41.299816 622.78052 277.62305
47.676598 606.64209 307.70923
53.636314 606.64209 307.70923
59.595802 606.64209 307.70923
65.55529 606.64209 307.70923
71.515007 606.64209 307.70923
78.249474 590.50366 337.79517
84.268799 590.50366 337.79517
91.208405 573.89087 368.76587
97.288872 573.89087 368.76587
103.36957 573.89087 368.76587
110.55464 557.27783 399.73682
116.69671 557.27783 399.73682
-247.4865 692.12402 136.49951
-241.86177 692.12402 136.49951
-236.23717 692.12402 136.49951
-230.61244 692.12402 136.49951
-224.98775 692.12402 136.49951
-221.41443 677.83594 163.02515
-215.73711 677.83594 163.02515
-210.05991 677.83594 163.02515
-204.38258 677.83594 163.02515
-198.70528 677.83594 163.02515
-191.23956 692.12402 136.49951
-185.61484 692.12402 136.49951
-179.99023 692.12402 136.49951
-174.36551 692.12402 136.49951
-168.7408 692.12402 136.49951
-163.1161 692.12402 136.49951
-157.49138 692.12402 136.49951
-151.86678 692.12402 136.49951
-146.24205 692.12402 136.49951
-140.61734 692.12402 136.49951
-136.25502 677.83594 163.02515
-130.57771 677.83594 163.02515
-124.90051 677.83594 163.02515
-119.22319 677.83594 163.02515
-113.54587 677.83594 163.02515
-107.86855 677.83594 163.02515
-102.19124 677.83594 163.02515
-96.514038 677.83594 163.02515
-90.836716 677.83594 163.02515
-85.159401 677.83594 163.02515
-79.482086 677.83594 163.02515
-74.51136 663.07153 190.43506
-68.779808 663.07153 190.43506
-63.048141 663.07153 190.43506
-57.860001 648.30713 217.84521
-52.073982 648.30713 217.84521
-46.750835 632.59009 247.02368
-40.907066 632.59009 247.02368
-35.399826 617.34961 275.31787
-29.499834 617.34961 275.31787
-23.838299 601.15637 305.38062
-17.878695 601.15637 305.38062
-11.919207 601.15637 305.38062
-5.9596033 601.15637 305.38062
0 617.34961 275.31787
5.8998771 617.34961 275.31787
11.799978 617.34961 275.31787
17.699856 617.34961 275.31787
23.838413 601.15637 305.38062
29.797901 601.15637 305.38062
35.757389 601.15637 305.38062
41.717106 601.15637 305.38062
47.676598 601.15637 305.38062
53.636314 601.15637 305.38062
59.595802 601.15637 305.38062
65.55529 601.15637 305.38062
71.515007 601.15637 305.38062
78.249474 584.96313 335.44336
84.268799 584.96313 335.44336
91.208405 568.2937 366.38989
97.288872 568.2937 366.38989
103.36957 568.2937 366.38989
109.45004 568.2937 366.38989
116.69671 551.62427 397.33691
-244.12358 672.60986 160.80688
-238.44638 672.60986 160.80688
-232.76904 672.60986 160.80688
-227.09174 672.60986 160.80688
-221.41443 672.60986 160.80688
-215.73711 672.60986 160.80688
-208.11371 686.94641 134.30151
-202.48898 686.94641 134.30151
-196.86427 686.94641 134.30151
-191.23956 686.94641 134.30151
-185.61484 686.94641 134.30151
-179.99023 686.94641 134.30151
-174.36551 686.94641 134.30151
-168.7408 686.94641 134.30151
-163.1161 686.94641 134.30151
-157.49138 686.94641 134.30151
-151.86678 686.94641 134.30151
-146.24205 686.94641 134.30151
-140.61734 686.94641 134.30151
-136.25502 672.60986 160.80688
-130.57771 672.60986 160.80688
-124.90051 672.60986 160.80688
-119.22319 672.60986 160.80688
-113.54587 672.60986 160.80688
-107.86855 672.60986 160.80688
-102.19124 672.60986 160.80688
-96.514038 672.60986 160.80688
-90.836716 672.60986 160.80688
-85.159401 672.60986 160.80688
-79.482086 672.60986 160.80688
-74.51136 657.79541 188.19556
-68.779808 657.79541 188.19556
-63.048141 657.79541 188.19556
-57.860001 642.98096 215.58447
-52.594719 627.21082 244.74023
-46.750835 627.21082 244.74023
-41.299816 611.91858 273.01245
-35.399826 611.91858 273.01245
-29.499834 611.91858 273.01245
-23.838299 595.67041 303.052
-17.878695 595.67041 303.052
-11.919207 595.67041 303.052
-5.9596033 595.67041 303.052
0 595.67041 303.052
5.9594893 595.67041 303.052
11.919207 595.67041 303.052
17.878695 595.67041 303.052
23.838413 595.67041 303.052
29.797901 595.67041 303.052
35.757389 595.67041 303.052
41.717106 595.67041 303.052
47.676598 595.67041 303.052
53.636314 595.67041 303.052
59.595802 595.67041 303.052
66.211037 579.42236 333.09131
72.23037 579.42236 333.09131
78.249474 579.42236 333.09131
84.268799 579.42236 333.09131
91.208405 562.69641 364.01416
97.288872 562.69641 364.01416
103.36957 562.69641 364.01416
109.45004 562.69641 364.01416
116.69671 545.97046 394.93701
-244.12358 667.38403 158.58838
-238.44638 667.38403 158.58838
-232.76904 667.38403 158.58838
-227.09174 667.38403 158.58838
-221.41443 667.38403 158.58838
-215.73711 667.38403 158.58838
-208.11371 681.76892 132.104
-202.48898 681.76892 132.104
-196.86427 681.76892 132.104
-191.23956 681.76892 132.104
-185.61484 681.76892 132.104
-179.99023 681.76892 132.104
-174.36551 681.76892 132.104
-168.7408 681.76892 132.104
-163.1161 681.76892 132.104
-157.49138 681.76892 132.104
-151.86678 681.76892 132.104
-146.24205 681.76892 132.104
-141.93234 667.38403 158.58838
-136.25502 667.38403 158.58838
-130.57771 667.38403 158.58838
-124.90051 667.38403 158.58838
-119.22319 667.38403 158.58838
-113.54587 667.38403 158.58838
-107.86855 667.38403 158.58838
-102.19124 667.38403 158.58838
-97.438042 652.51953 185.95605
-91.706375 652.51953 185.95605
-85.974701 652.51953 185.95605
-80.243034 652.51953 185.95605
-74.51136 652.51953 185.95605
-68.779808 652.51953 185.95605
-63.646023 637.65503 213.32373
-57.860001 637.65503 213.32373
-52.594719 621.83154 242.45703
-47.199688 606.48779 270.70728
-41.717106 590.18469 300.72363
-35.757504 590.18469 300.72363
-29.797901 590.18469 300.72363
-24.076752 573.88171 330.7395
-17.878695 590.18469 300.72363
-11.919207 590.18469 300.72363
-5.9596033 590.18469 300.72363
0 590.18469 300.72363
5.9594893 590.18469 300.72363
11.919207 590.18469 300.72363
17.878695 590.18469 300.72363
23.838413 590.18469 300.72363
29.797901 590.18469 300.72363
35.757389 590.18469 300.72363
41.717106 590.18469 300.72363
47.676598 590.18469 300.72363
53.636314 590.18469 300.72363
59.595802 590.18469 300.72363
66.211037 573.88171 330.7395
72.966766 557.09937 361.63818
79.047241 557.09937 361.63818
85.12793 557.09937 361.63818
92.128906 540.31689 392.53735
98.270729 540.31689 392.53735
104.4128 540.31689 392.53735
110.55464 540.31689 392.53735
-244.12358 662.15796 156.37012
-238.44638 662.15796 156.37012
-232.76904 662.15796 156.37012
-227.09174 662.15796 156.37012
-221.41443 662.15796 156.37012
-215.73711 662.15796 156.37012
-208.11371 676.59131 129.90625
-202.48898 676.59131 129.90625
-196.86427 676.59131 129.90625
-191.23956 676.59131 129.90625
-185.61484 676.59131 129.90625
-179.99023 676.59131 129.90625
-174.36551 676.59131 129.90625
-168.7408 676.59131 129.90625
-163.1161 676.59131 129.90625
-157.49138 676.59131 129.90625
-151.86678 676.59131 129.90625
-146.24205 676.59131 129.90625
-140.61734 676.59131 129.90625
-136.25502 662.15796 156.37012
-130.57771 662.15796 156.37012
-124.90051 662.15796 156.37012
-119.22319 662.15796 156.37012
-113.54587 662.15796 156.37012
-107.86855 662.15796 156.37012
-102.19124 662.15796 156.37012
-97.438042 647.24341 183.71655
-91.706375 647.24341 183.71655
-85.974701 647.24341 183.71655
-80.243034 647.24341 183.71655
-74.51136 647.24341 183.71655
-68.779808 647.24341 183.71655
-63.048141 647.24341 183.71655
-57.860001 632.32898 211.06299
-52.594719 616.45215 240.17358
-47.199688 601.05664 268.40186
-41.717106 584.69885 298.39502
-36.115185 568.34094 328.3877
-30.095968 568.34094 328.3877
-24.322218 551.50208 359.26245
-18.241634 551.50208 359.26245
-12.161167 551.50208 359.26245
-6.0192165 568.34094 328.3877
0 568.34094 328.3877
6.0191016 568.34094 328.3877
11.919207 584.69885 298.39502
17.878695 584.69885 298.39502
23.838413 584.69885 298.39502
29.797901 584.69885 298.39502
35.757389 584.69885 298.39502
41.717106 584.69885 298.39502
47.676598 584.69885 298.39502
53.636314 584.69885 298.39502
59.595802 584.69885 298.39502
66.211037 568.34094 328.3877
72.966766 551.50208 359.26245
79.047241 551.50208 359.26245
85.12793 551.50208 359.26245
92.128906 534.66321 390.13745
98.270729 534.66321 390.13745
104.4128 534.66321 390.13745
110.55464 534.66321 390.13745
-244.12358 656.93201 154.15186
-238.44638 656.93201 154.15186
-232.76904 656.93201 154.15186
-227.09174 656.93201 154.15186
-219.36304 671.41382 127.7085
-213.73831 671.41382 127.7085
-208.11371 671.41382 127.7085
-202.48898 671.41382 127.7085
-196.86427 671.41382 127.7085
-191.23956 671.41382 127.7085
-185.61484 671.41382 127.7085
-179.99023 671.41382 127.7085
-174.36551 671.41382 127.7085
-168.7408 671.41382 127.7085
-163.1161 671.41382 127.7085
-157.49138 671.41382 127.7085
-151.86678 671.41382 127.7085
-146.24205 671.41382 127.7085
-140.61734 671.41382 127.7085
-136.25502 656.93201 154.15186
-130.57771 656.93201 154.15186
-124.90051 656.93201 154.15186
-119.22319 656.93201 154.15186
-113.54587 656.93201 154.15186
-108.90127 641.96753 181.47705
-103.16959 641.96753 181.47705
-97.438042 641.96753 181.47705
-92.576027 627.00305 208.80225
-85.974701 641.96753 181.47705
-80.243034 641.96753 181.47705
-74.51136 641.96753 181.47705
-68.779808 641.96753 181.47705
-63.048141 641.96753 181.47705
-57.316467 641.96753 181.47705
-52.594719 611.073 237.89014
-48.153503 562.80029 326.03564
-42.134399 562.80029 326.03564
-36.483383 545.90503 356.88647
-30.402802 545.90503 356.88647
-24.322218 545.90503 356.88647
-18.241634 545.90503 356.88647
-12.161167 545.90503 356.88647
-6.0805836 545.90503 356.88647
0 562.80029 326.03564
6.0191016 562.80029 326.03564
12.038433 562.80029 326.03564
18.057533 562.80029 326.03564
24.076866 562.80029 326.03564
30.095968 562.80029 326.03564
35.757389 579.21313 296.06641
41.717106 579.21313 296.06641
48.153503 562.80029 326.03564
54.172836 562.80029 326.03564
60.191936 562.80029 326.03564
66.88607 545.90503 356.88647
72.966766 545.90503 356.88647
79.047241 545.90503 356.88647
85.12793 545.90503 356.88647
92.128906 529.00964 387.73755
98.270729 529.00964 387.73755
104.4128 529.00964 387.73755
-244.12358 651.70605 151.93359
-238.44638 651.70605 151.93359
-232.76904 651.70605 151.93359
-224.98775 666.23621 125.51074
-219.36304 666.23621 125.51074
-213.73831 666.23621 125.51074
-208.11371 666.23621 125.51074
-202.48898 666.23621 125.51074
-196.86427 666.23621 125.51074
-191.23956 666.23621 125.51074
-185.61484 666.23621 125.51074
-179.99023 666.23621 125.51074
-174.36551 666.23621 125.51074
-168.7408 666.23621 125.51074
-163.1161 666.23621 125.51074
-157.49138 666.23621 125.51074
-151.86678 666.23621 125.51074
-146.24205 666.23621 125.51074
-140.61734 666.23621 125.51074
-134.99263 666.23621 125.51074
-130.57771 651.70605 151.93359
-124.90051 651.70605 151.93359
-119.22319 651.70605 151.93359
-114.63293 636.69141 179.23755
-108.90127 636.69141 179.23755
-103.16959 636.69141 179.23755
-97.438042 636.69141 179.23755
-92.576027 621.67688 206.54126
-85.974701 636.69141 179.23755
-80.243034 636.69141 179.23755
-74.51136 636.69141 179.23755
-68.127563 651.70605 151.93359
-62.450253 651.70605 151.93359
-57.316467 636.69141 179.23755
-51.584797 636.69141 179.23755
-48.644436 540.30774 354.51074
-42.563965 540.30774 354.51074
-36.483383 540.30774 354.51074
-30.402802 540.30774 354.51074
-24.567682 523.35583 385.33765
-18.241634 540.30774 354.51074
-12.161167 540.30774 354.51074
-6.0805836 540.30774 354.51074
0 540.30774 354.51074
6.0804672 540.30774 354.51074
12.161167 540.30774 354.51074
18.241634 540.30774 354.51074
24.322334 540.30774 354.51074
30.402802 540.30774 354.51074
36.115067 557.25952 323.68384
42.134399 557.25952 323.68384
48.153503 557.25952 323.68384
54.172836 557.25952 323.68384
60.191936 557.25952 323.68384
66.88607 540.30774 354.51074
72.966766 540.30774 354.51074
79.047241 540.30774 354.51074
85.12793 540.30774 354.51074
92.128906 523.35583 385.33765
98.270729 523.35583 385.33765
105.48585 505.91943 417.04541
-246.46077 631.41553 176.99805
-238.44638 646.4801 149.71533
-232.76904 646.4801 149.71533
-224.98775 661.05872 123.31299
-219.36304 661.05872 123.31299
-213.73831 661.05872 123.31299
-208.11371 661.05872 123.31299
-202.48898 661.05872 123.31299
-196.86427 661.05872 123.31299
-191.23956 661.05872 123.31299
-185.61484 661.05872 123.31299
-179.99023 661.05872 123.31299
-174.36551 661.05872 123.31299
-168.7408 661.05872 123.31299
-163.1161 661.05872 123.31299
-157.49138 661.05872 123.31299
-151.86678 661.05872 123.31299
-146.24205 661.05872 123.31299
-140.61734 661.05872 123.31299
-134.99263 661.05872 123.31299
-130.57771 646.4801 149.71533
-124.90051 646.4801 149.71533
-119.22319 646.4801 149.71533
-113.54587 646.4801 149.71533
-108.90127 631.41553 176.99805
-103.16959 631.41553 176.99805
-98.362045 616.35095 204.28052
-92.576027 616.35095 204.28052
-86.790001 616.35095 204.28052
-81.003975 616.35095 204.28052
-74.51136 631.41553 176.99805
-68.127563 646.4801 149.71533
-62.450253 646.4801 149.71533
-60.805603 534.71057 352.13477
-54.725021 534.71057 352.13477
-48.644436 534.71057 352.13477
-42.563965 534.71057 352.13477
-36.483383 534.71057 352.13477
-30.402802 534.71057 352.13477
-24.567682 517.70227 382.93799
-18.425734 517.70227 382.93799
-12.2839 517.70227 382.93799
-6.1419501 517.70227 382.93799
0 534.71057 352.13477
6.0804672 534.71057 352.13477
12.161167 534.71057 352.13477
18.241634 534.71057 352.13477
24.322334 534.71057 352.13477
30.402802 534.71057 352.13477
36.115067 551.71899 321.33203
42.134399 551.71899 321.33203
48.644436 534.71057 352.13477
54.725136 534.71057 352.13477
60.805603 534.71057 352.13477
66.88607 534.71057 352.13477
72.966766 534.71057 352.13477
79.047241 534.71057 352.13477
85.987076 517.70227 382.93799
92.128906 517.70227 382.93799
99.280655 500.20776 414.62109
105.48585 500.20776 414.62109
-244.12358 641.25403 147.49707
-238.44638 641.25403 147.49707
-232.76904 641.25403 147.49707
-224.98775 655.8811 121.11523
-219.36304 655.8811 121.11523
-213.73831 655.8811 121.11523
-208.11371 655.8811 121.11523
-202.48898 655.8811 121.11523
-196.86427 655.8811 121.11523
-191.23956 655.8811 121.11523
-185.61484 655.8811 121.11523
-179.99023 655.8811 121.11523
-174.36551 655.8811 121.11523
-168.7408 655.8811 121.11523
-163.1161 655.8811 121.11523
-157.49138 655.8811 121.11523
-151.86678 655.8811 121.11523
-146.24205 655.8811 121.11523
-141.93234 641.25403 147.49707
-136.25502 641.25403 147.49707
-130.57771 641.25403 147.49707
-124.90051 641.25403 147.49707
-119.22319 641.25403 147.49707
-113.54587 641.25403 147.49707
-108.90127 626.1394 174.7583
-103.16959 626.1394 174.7583
-97.438042 626.1394 174.7583
-92.576027 611.02478 202.01978
-86.790001 611.02478 202.01978
-81.003975 611.02478 202.01978
-74.51136 626.1394 174.7583
-68.779808 626.1394 174.7583
-64.282486 594.93506 231.04004
-60.805603 529.1134 349.75903
-54.725021 529.1134 349.75903
-48.644436 529.1134 349.75903
-42.563965 529.1134 349.75903
-36.483383 529.1134 349.75903
-30.402802 529.1134 349.75903
-24.567682 512.04858 380.53809
-18.425734 512.04858 380.53809
-12.2839 512.04858 380.53809
-6.1419501 512.04858 380.53809
0 512.04858 380.53809
6.0804672 529.1134 349.75903
12.161167 529.1134 349.75903
18.241634 529.1134 349.75903
24.322334 529.1134 349.75903
30.402802 529.1134 349.75903
36.483269 529.1134 349.75903
42.563965 529.1134 349.75903
48.644436 529.1134 349.75903
54.725136 529.1134 349.75903
60.805603 529.1134 349.75903
67.561104 512.04858 380.53809
73.703171 512.04858 380.53809
79.845009 512.04858 380.53809
85.987076 512.04858 380.53809
92.128906 512.04858 380.53809
99.280655 494.49597 412.19653
-244.12358 636.02808 145.27881
-238.44638 636.02808 145.27881
-232.76904 636.02808 145.27881
-224.98775 650.70349 118.91748
-219.36304 650.70349 118.91748
-213.73831 650.70349 118.91748
-208.11371 650.70349 118.91748
-202.48898 650.70349 118.91748
-196.86427 650.70349 118.91748
-191.23956 650.70349 118.91748
-185.61484 650.70349 118.91748
-179.99023 650.70349 118.91748
-174.36551 650.70349 118.91748
-168.7408 650.70349 118.91748
-163.1161 650.70349 118.91748
-157.49138 650.70349 118.91748
-151.86678 650.70349 118.91748
-147.60965 636.02808 145.27881
-141.93234 636.02808 145.27881
-136.25502 636.02808 145.27881
-130.57771 636.02808 145.27881
-124.90051 636.02808 145.27881
-119.22319 636.02808 145.27881
-113.54587 636.02808 145.27881
-107.86855 636.02808 145.27881
-102.19124 636.02808 145.27881
-97.438042 620.86328 172.5188
-91.706375 620.86328 172.5188
-86.790001 605.69873 199.75903
-81.003975 605.69873 199.75903
-75.217957 605.69873 199.75903
-69.432045 605.69873 199.75903
-63.646023 605.69873 199.75903
-60.805603 523.51611 347.38306
-54.725021 523.51611 347.38306
-48.644436 523.51611 347.38306
-42.563965 523.51611 347.38306
-36.483383 523.51611 347.38306
-30.402802 523.51611 347.38306
-24.567682 506.39478 378.13818
-18.425734 506.39478 378.13818
-12.2839 506.39478 378.13818
-6.1419501 506.39478 378.13818
0 506.39478 378.13818
6.1418328 506.39478 378.13818
12.2839 506.39478 378.13818
18.425734 506.39478 378.13818
24.567801 506.39478 378.13818
30.709635 506.39478 378.13818
36.483269 523.51611 347.38306
42.563965 523.51611 347.38306
48.644436 523.51611 347.38306
54.725136 523.51611 347.38306
60.805603 523.51611 347.38306
67.561104 506.39478 378.13818
73.703171 506.39478 378.13818
79.845009 506.39478 378.13818
85.987076 506.39478 378.13818
93.075706 488.78418 409.77197
99.280655 488.78418 409.77197
106.58869 470.68433 442.28418
-244.12358 630.80212 143.06055
-238.44638 630.80212 143.06055
-232.76904 630.80212 143.06055
-224.98775 645.526 116.71973
-219.36304 645.526 116.71973
-213.73831 645.526 116.71973
-208.11371 645.526 116.71973
-202.48898 645.526 116.71973
-196.86427 645.526 116.71973
-191.23956 645.526 116.71973
-185.61484 645.526 116.71973
-179.99023 645.526 116.71973
-174.36551 645.526 116.71973
-168.7408 645.526 116.71973
-163.1161 645.526 116.71973
-157.49138 645.526 116.71973
-151.86678 645.526 116.71973
-147.60965 630.80212 143.06055
-141.93234 630.80212 143.06055
-136.25502 630.80212 143.06055
-130.57771 630.80212 143.06055
-124.90051 630.80212 143.06055
-119.22319 630.80212 143.06055
-113.54587 630.80212 143.06055
-107.86855 630.80212 143.06055
-102.19124 630.80212 143.06055
-97.438042 615.5874 170.2793
-91.706375 615.5874 170.2793
-85.974701 615.5874 170.2793
-80.243034 615.5874 170.2793
-74.51136 615.5874 170.2793
-69.432045 600.3728 197.49829
-63.646023 600.3728 197.49829
-57.860001 600.3728 197.49829
-55.277321 500.74121 375.73828
-49.135365 500.74121 375.73828
-42.993538 500.74121 375.73828
-36.851585 500.74121 375.73828
-30.709635 500.74121 375.73828
-24.820164 483.07239 407.34741
-18.425734 500.74121 375.73828
-12.2839 500.74121 375.73828
-6.1419501 500.74121 375.73828
0 500.74121 375.73828
6.1418328 500.74121 375.73828
12.2839 500.74121 375.73828
18.425734 500.74121 375.73828
24.567801 500.74121 375.73828
30.709635 500.74121 375.73828
36.483269 517.91895 345.00732
42.563965 517.91895 345.00732
49.135365 500.74121 375.73828
55.277435 500.74121 375.73828
61.41927 500.74121 375.73828
67.561104 500.74121 375.73828
73.703171 500.74121 375.73828
79.845009 500.74121 375.73828
86.87075 483.07239 407.34741
93.075706 483.07239 407.34741
100.31863 464.91296 439.83447
106.58869 464.91296 439.83447
-244.12358 625.57605 140.84204
-238.44638 625.57605 140.84204
-232.76904 625.57605 140.84204
-227.09174 625.57605 140.84204
-221.41443 625.57605 140.84204
-213.73831 640.34839 114.52197
-208.11371 640.34839 114.52197
-202.48898 640.34839 114.52197
-196.86427 640.34839 114.52197
-191.23956 640.34839 114.52197
-185.61484 640.34839 114.52197
-179.99023 640.34839 114.52197
-174.36551 640.34839 114.52197
-168.7408 640.34839 114.52197
-163.1161 640.34839 114.52197
-157.49138 640.34839 114.52197
-151.86678 640.34839 114.52197
-146.24205 640.34839 114.52197
-140.61734 640.34839 114.52197
-136.25502 625.57605 140.84204
-130.57771 625.57605 140.84204
-124.90051 625.57605 140.84204
-119.22319 625.57605 140.84204
-113.54587 625.57605 140.84204
-107.86855 625.57605 140.84204
-102.19124 625.57605 140.84204
-97.438042 610.31128 168.03979
-91.706375 610.31128 168.03979
-85.974701 610.31128 168.03979
-80.243034 610.31128 168.03979
-74.51136 610.31128 168.03979
-69.432045 595.04663 195.23755
-63.646023 595.04663 195.23755
-55.277321 495.0874 373.33838
-49.135365 495.0874 373.33838
-42.993538 495.0874 373.33838
-36.851585 495.0874 373.33838
-30.709635 495.0874 373.33838
-24.820164 477.3606 404.92285
-18.615093 477.3606 404.92285
-12.410141 477.3606 404.92285
-6.1419501 495.0874 373.33838
0 495.0874 373.33838
6.1418328 495.0874 373.33838
12.2839 495.0874 373.33838
18.425734 495.0874 373.33838
24.567801 495.0874 373.33838
30.709635 495.0874 373.33838
36.851467 495.0874 373.33838
42.993538 495.0874 373.33838
49.135365 495.0874 373.33838
55.277435 495.0874 373.33838
61.41927 495.0874 373.33838
68.255417 477.3606 404.92285
74.460609 477.3606 404.92285
80.665558 477.3606 404.92285
87.778976 459.14136 437.38452
94.048805 459.14136 437.38452
100.31863 459.14136 437.38452
106.58869 459.14136 437.38452
-244.12358 620.35022 138.62378
-238.44638 620.35022 138.62378
-232.76904 620.35022 138.62378
-227.09174 620.35022 138.62378
-221.41443 620.35022 138.62378
-215.73711 620.35022 138.62378
-208.11371 635.1709 112.32422
-202.48898 635.1709 112.32422
-196.86427 635.1709 112.32422
-191.23956 635.1709 112.32422
-185.61484 635.1709 112.32422
-179.99023 635.1709 112.32422
-174.36551 635.1709 112.32422
-168.7408 635.1709 112.32422
-163.1161 635.1709 112.32422
-157.49138 635.1709 112.32422
-151.86678 635.1709 112.32422
-146.24205 635.1709 112.32422
-140.61734 635.1709 112.32422
-134.99263 635.1709 112.32422
-129.3679 635.1709 112.32422
-124.90051 620.35022 138.62378
-119.22319 620.35022 138.62378
-113.54587 620.35022 138.62378
-107.86855 620.35022 138.62378
-102.19124 620.35022 138.62378
-97.438042 605.0354 165.80029
-91.706375 605.0354 165.80029
-86.790001 589.7207 192.97681
-81.003975 589.7207 192.97681
-75.217957 589.7207 192.97681
-70.126366 573.41785 221.90649
-64.282486 573.41785 221.90649
-55.277321 489.43384 370.93872
-49.135365 489.43384 370.93872
-42.993538 489.43384 370.93872
-36.851585 489.43384 370.93872
-30.709635 489.43384 370.93872
-24.820164 471.64893 402.49854
-18.615093 471.64893 402.49854
-12.410141 471.64893 402.49854
-6.2050705 471.64893 402.49854
0 489.43384 370.93872
6.1418328 489.43384 370.93872
12.2839 489.43384 370.93872
18.425734 489.43384 370.93872
24.567801 489.43384 370.93872
30.709635 489.43384 370.93872
36.851467 489.43384 370.93872
42.993538 489.43384 370.93872
49.640327 471.64893 402.49854
55.845516 471.64893 402.49854
62.050468 471.64893 402.49854
68.255417 471.64893 402.49854
75.23909 453.37 434.93481
81.508919 453.37 434.93481
88.711754 434.59717 468.2478
95.048203 434.59717 468.2478
101.38465 434.59717 468.2478
107.72134 434.59717 468.2478
-244.12358 615.12415 136.40552
-238.44638 615.12415 136.40552
-232.76904 615.12415 136.40552
-227.09174 615.12415 136.40552
-221.41443 615.12415 136.40552
-215.73711 615.12415 136.40552
-210.05991 615.12415 136.40552
-202.48898 629.99329 110.12646
-196.86427 629.99329 110.12646
-191.23956 629.99329 110.12646
-185.61484 629.99329 110.12646
-179.99023 629.99329 110.12646
-174.36551 629.99329 110.12646
-168.7408 629.99329 110.12646
-163.1161 629.99329 110.12646
-157.49138 629.99329 110.12646
-151.86678 629.99329 110.12646
-146.24205 629.99329 110.12646
-140.61734 629.99329 110.12646
-134.99263 629.99329 110.12646
-129.3679 629.99329 110.12646
-124.90051 615.12415 136.40552
-119.22319 615.12415 136.40552
-113.54587 615.12415 136.40552
-107.86855 615.12415 136.40552
-102.19124 615.12415 136.40552
-97.438042 599.75928 163.56079
-92.576027 584.39453 190.71582
-86.790001 584.39453 190.71582
-81.003975 584.39453 190.71582
-75.217957 584.39453 190.71582
-70.126366 568.03845 219.62305
-64.282486 568.03845 219.62305
-55.277321 483.78015 368.53882
-49.135365 483.78015 368.53882
-42.993538 483.78015 368.53882
-36.851585 483.78015 368.53882
-31.025234 465.93701 400.07397
-24.820164 465.93701 400.07397
-18.615093 465.93701 400.07397
-12.410141 465.93701 400.07397
-6.2050705 465.93701 400.07397
0 465.93701 400.07397
6.2049522 465.93701 400.07397
12.410141 465.93701 400.07397
18.615093 465.93701 400.07397
24.820282 465.93701 400.07397
31.025234 465.93701 400.07397
37.230186 465.93701 400.07397
43.435375 465.93701 400.07397
49.640327 465.93701 400.07397
55.845516 465.93701 400.07397
62.050468 465.93701 400.07397
68.969025 447.59839 432.48486
75.23909 447.59839 432.48486
82.375061 428.76416 465.77197
88.711754 428.76416 465.77197
95.048203 428.76416 465.77197
101.38465 428.76416 465.77197
107.72134 428.76416 465.77197
-238.44638 609.89819 134.18726
-232.76904 609.89819 134.18726
-227.09174 609.89819 134.18726
-221.41443 609.89819 134.18726
-215.73711 609.89819 134.18726
-210.05991 609.89819 134.18726
-204.38258 609.89819 134.18726
-198.70528 609.89819 134.18726
-191.23956 624.8158 107.92871
-185.61484 624.8158 107.92871
-179.99023 624.8158 107.92871
-174.36551 624.8158 107.92871
-168.7408 624.8158 107.92871
-163.1161 624.8158 107.92871
-157.49138 624.8158 107.92871
-151.86678 624.8158 107.92871
-146.24205 624.8158 107.92871
-140.61734 624.8158 107.92871
-134.99263 624.8158 107.92871
-130.57771 609.89819 134.18726
-124.90051 609.89819 134.18726
-119.22319 609.89819 134.18726
-113.54587 609.89819 134.18726
-107.86855 609.89819 134.18726
-102.19124 609.89819 134.18726
-97.438042 594.4834 161.32129
-91.706375 594.4834 161.32129
-86.790001 579.0686 188.45508
-81.003975 579.0686 188.45508
-75.217957 579.0686 188.45508
-70.126366 562.6593 217.33984
-64.282486 562.6593 217.33984
-55.845398 460.22534 397.64941
-49.640327 460.22534 397.64941
-42.993538 478.12646 366.13892
-36.851585 478.12646 366.13892
-31.025234 460.22534 397.64941
-25.079659 441.82703 430.03516
-18.809711 441.82703 430.03516
-12.539888 441.82703 430.03516
-6.2050705 460.22534 397.64941
0 460.22534 397.64941
6.2049522 460.22534 397.64941
12.410141 460.22534 397.64941
18.615093 460.22534 397.64941
24.820282 460.22534 397.64941
31.025234 460.22534 397.64941
37.230186 460.22534 397.64941
43.435375 460.22534 397.64941
49.640327 460.22534 397.64941
55.845516 460.22534 397.64941
62.050468 460.22534 397.64941
68.969025 441.82703 430.03516
76.038612 422.93152 463.29614
82.375061 422.93152 463.29614
88.711754 422.93152 463.29614
95.048203 422.93152 463.29614
101.38465 422.93152 463.29614
107.72134 422.93152 463.29614
-238.44638 604.67212 131.96899
-232.76904 604.67212 131.96899
-227.09174 604.67212 131.96899
-221.41443 604.67212 131.96899
-215.73711 604.67212 131.96899
-210.05991 604.67212 131.96899
-204.38258 604.67212 131.96899
-198.70528 604.67212 131.96899
-193.02797 604.67212 131.96899
-185.61484 619.63818 105.73096
-179.99023 619.63818 105.73096
-174.36551 619.63818 105.73096
-168.7408 619.63818 105.73096
-163.1161 619.63818 105.73096
-157.49138 619.63818 105.73096
-151.86678 619.63818 105.73096
-146.24205 619.63818 105.73096
-140.61734 619.63818 105.73096
-134.99263 619.63818 105.73096
-130.57771 604.67212 131.96899
-124.90051 604.67212 131.96899
-119.22319 604.67212 131.96899
-113.54587 604.67212 131.96899
-107.86855 604.67212 131.96899
-102.19124 604.67212 131.96899
-97.438042 589.20728 159.08154
-91.706375 589.20728 159.08154
-86.790001 573.74243 186.19434
-81.003975 573.74243 186.19434
-75.217957 573.74243 186.19434
-70.126366 557.27991 215.0564
-42.993538 472.47278 363.73926
-36.851585 472.47278 363.73926
-31.025234 454.51343 395.22485
-25.079659 436.05542 427.58521
-18.809711 436.05542 427.58521
-12.539888 436.05542 427.58521
-6.2050705 454.51343 395.22485
0 454.51343 395.22485
6.2049522 454.51343 395.22485
12.410141 454.51343 395.22485
18.615093 454.51343 395.22485
24.820282 454.51343 395.22485
31.025234 454.51343 395.22485
37.230186 454.51343 395.22485
43.435375 454.51343 395.22485
49.640327 454.51343 395.22485
55.845516 454.51343 395.22485
62.699203 436.05542 427.58521
69.70192 417.09863 460.82031
76.038612 417.09863 460.82031
82.375061 417.09863 460.82031
88.711754 417.09863 460.82031
95.048203 417.09863 460.82031
101.38465 417.09863 460.82031
-238.44638 599.44629 129.75073
-232.76904 599.44629 129.75073
-227.09174 599.44629 129.75073
-221.41443 599.44629 129.75073
-215.73711 599.44629 129.75073
-210.05991 599.44629 129.75073
-204.38258 599.44629 129.75073
-198.70528 599.44629 129.75073
-193.02797 599.44629 129.75073
-185.61484 614.46069 103.5332
-179.99023 614.46069 103.5332
-174.36551 614.46069 103.5332
-168.7408 614.46069 103.5332
-163.1161 614.46069 103.5332
-157.49138 614.46069 103.5332
-151.86678 614.46069 103.5332
-146.24205 614.46069 103.5332
-140.61734 614.46069 103.5332
-134.99263 614.46069 103.5332
-129.3679 614.46069 103.5332
-123.7433 614.46069 103.5332
-119.22319 599.44629 129.75073
-113.54587 599.44629 129.75073
-107.86855 599.44629 129.75073
-103.16959 583.9314 156.84229
-97.438042 583.9314 156.84229
-91.706375 583.9314 156.84229
-86.790001 568.4165 183.93359
-81.003975 568.4165 183.93359
-75.217957 568.4165 183.93359
-70.126366 551.90063 212.77295
-42.993538 466.81921 361.33936
-36.851585 466.81921 361.33936
-31.025234 448.80176 392.80054
-25.079659 430.28406 425.13525
-18.809711 430.28406 425.13525
-12.539888 430.28406 425.13525
-6.2699442 430.28406 425.13525
0 430.28406 425.13525
6.2698245 430.28406 425.13525
12.539888 430.28406 425.13525
18.615093 448.80176 392.80054
24.820282 448.80176 392.80054
31.025234 448.80176 392.80054
37.619423 430.28406 425.13525
43.889488 430.28406 425.13525
50.159317 430.28406 425.13525
56.429379 430.28406 425.13525
62.699203 430.28406 425.13525
69.70192 411.26587 458.34424
76.038612 411.26587 458.34424
82.375061 411.26587 458.34424
88.711754 411.26587 458.34424
95.048203 411.26587 458.34424
102.47873 391.74707 492.42725
-238.44638 594.22021 127.53223
-232.76904 594.22021 127.53223
-227.09174 594.22021 127.53223
-221.41443 594.22021 127.53223
-215.73711 594.22021 127.53223
-210.05991 594.22021 127.53223
-204.38258 594.22021 127.53223
-198.70528 594.22021 127.53223
-193.02797 594.22021 127.53223
-185.61484 609.28308 101.33545
-179.99023 609.28308 101.33545
-174.36551 609.28308 101.33545
-168.7408 609.28308 101.33545
-163.1161 609.28308 101.33545
-157.49138 609.28308 101.33545
-151.86678 609.28308 101.33545
-146.24205 609.28308 101.33545
-140.61734 609.28308 101.33545
-134.99263 609.28308 101.33545
-129.3679 609.28308 101.33545
-123.7433 609.28308 101.33545
-119.22319 594.22021 127.53223
