ply
format ascii 1.0
comment PCL generated
element vertex 1571
property float x
property float y
property float z
element camera 0
property float view_px
property float view_py
property float view_pz
property float x_axisx
property float x_axisy
property float x_axisz
property float y_axisx
property float y_axisy
property float y_axisz
property float z_axisx
property float z_axisy
property float z_axisz
property float focal
property float scalex
property float scaley
property float centerx
property float centery
property int viewportx
property int viewporty
property float k1
property float k2
end_header
72.609123 1140.6024 55.2771
77.795403 1140.6024 55.2771
82.981682 1140.6024 55.2771
88.943138 1131.1149 79.495117
94.175003 1131.1149 79.495117
100.27322 1121.6272 103.71338
105.55067 1121.6272 103.71338
110.82812 1121.6272 103.71338
117.14725 1111.7748 128.86279
122.47205 1111.7748 128.86279
127.79705 1111.7748 128.86279
133.12184 1111.7748 128.86279
138.44662 1111.7748 128.86279
145.04982 1101.9221 154.01245
150.42194 1101.9221 154.01245
155.79427 1101.9221 154.01245
162.63921 1091.7048 180.09351
168.06042 1091.7048 180.09351
173.48186 1091.7048 180.09351
180.52318 1081.4874 206.17432
187.72247 1070.905 233.18701
193.24364 1070.905 233.18701
200.59528 1060.3228 260.19946
206.16751 1060.3228 260.19946
213.73831 1049.3755 288.14355
-52.319469 1126.2988 77.450928
-47.087502 1126.2988 77.450928
-41.490841 1135.8284 53.250488
-35.997726 1144.9915 29.980957
-30.855181 1144.9915 29.980957
-25.712635 1144.9915 29.980957
-20.74542 1135.8284 53.250488
-15.559041 1135.8284 53.250488
-10.37276 1135.8284 53.250488
-5.1863799 1135.8284 53.250488
0 1135.8284 53.250488
5.1862807 1135.8284 53.250488
10.37276 1135.8284 53.250488
15.559041 1135.8284 53.250488
20.570187 1144.9915 29.980957
25.712635 1144.9915 29.980957
30.855083 1144.9915 29.980957
35.997726 1144.9915 29.980957
41.140175 1144.9915 29.980957
46.282822 1144.9915 29.980957
51.863602 1135.8284 53.250488
57.049881 1135.8284 53.250488
62.236362 1135.8284 53.250488
67.422646 1135.8284 53.250488
72.609123 1135.8284 53.250488
77.795403 1135.8284 53.250488
82.981682 1135.8284 53.250488
88.943138 1126.2988 77.450928
94.175003 1126.2988 77.450928
100.27322 1116.7692 101.65112
105.55067 1116.7692 101.65112
111.82227 1106.8732 126.78223
117.14725 1106.8732 126.78223
122.47205 1106.8732 126.78223
127.79705 1106.8732 126.78223
133.12184 1106.8732 126.78223
139.67747 1096.9771 151.91333
145.04982 1096.9771 151.91333
150.42194 1096.9771 151.91333
157.21799 1086.7145 177.97534
162.63921 1086.7145 177.97534
168.06042 1086.7145 177.97534
175.05284 1076.4519 204.03687
180.52318 1076.4519 204.03687
187.72247 1065.8226 231.02979
193.24364 1065.8226 231.02979
198.7648 1065.8226 231.02979
204.28618 1065.8226 231.02979
209.80733 1065.8226 231.02979
-47.087502 1121.4828 75.406494
-41.490841 1131.0543 51.224121
-35.997726 1140.2577 27.97168
-30.592182 1149.4612 4.7192383
-25.493467 1149.4612 4.7192383
-20.570087 1140.2577 27.97168
-15.559041 1131.0543 51.224121
-10.37276 1131.0543 51.224121
-5.1863799 1131.0543 51.224121
0 1131.0543 51.224121
5.1862807 1131.0543 51.224121
10.37276 1131.0543 51.224121
15.559041 1131.0543 51.224121
20.570187 1140.2577 27.97168
25.712635 1140.2577 27.97168
30.855083 1140.2577 27.97168
35.997726 1140.2577 27.97168
41.140175 1140.2577 27.97168
46.282822 1140.2577 27.97168
51.863602 1131.0543 51.224121
57.049881 1131.0543 51.224121
62.236362 1131.0543 51.224121
67.422646 1131.0543 51.224121
72.609123 1131.0543 51.224121
78.479202 1121.4828 75.406494
83.711067 1121.4828 75.406494
88.943138 1121.4828 75.406494
94.99556 1111.9113 99.589111
100.27322 1111.9113 99.589111
106.49747 1101.9717 124.70166
111.82227 1101.9717 124.70166
117.14725 1101.9717 124.70166
122.47205 1101.9717 124.70166
127.79705 1101.9717 124.70166
133.12184 1101.9717 124.70166
139.67747 1092.0319 149.81421
145.04982 1092.0319 149.81421
150.42194 1092.0319 149.81421
157.21799 1081.7241 175.85693
162.63921 1081.7241 175.85693
168.06042 1081.7241 175.85693
175.05284 1071.4164 201.89941
180.52318 1071.4164 201.89941
187.72247 1060.7404 228.87256
193.24364 1060.7404 228.87256
198.7648 1060.7404 228.87256
204.28618 1060.7404 228.87256
209.80733 1060.7404 228.87256
-47.087502 1116.6667 73.362305
-41.490841 1126.2802 49.197754
-35.997726 1135.5239 25.962402
-30.592182 1144.7677 2.7270508
-25.493467 1144.7677 2.7270508
-20.570087 1135.5239 25.962402
-15.559041 1126.2802 49.197754
-10.37276 1126.2802 49.197754
-5.1863799 1126.2802 49.197754
0 1126.2802 49.197754
5.1862807 1126.2802 49.197754
10.37276 1126.2802 49.197754
15.559041 1126.2802 49.197754
20.570187 1135.5239 25.962402
25.712635 1135.5239 25.962402
30.855083 1135.5239 25.962402
35.997726 1135.5239 25.962402
41.140175 1135.5239 25.962402
46.282822 1135.5239 25.962402
51.863602 1126.2802 49.197754
57.049881 1126.2802 49.197754
62.236362 1126.2802 49.197754
67.422646 1126.2802 49.197754
73.247337 1116.6667 73.362305
78.479202 1116.6667 73.362305
83.711067 1116.6667 73.362305
88.943138 1116.6667 73.362305
94.99556 1107.0532 97.5271
100.27322 1107.0532 97.5271
106.49747 1097.0701 122.62085
111.82227 1097.0701 122.62085
117.14725 1097.0701 122.62085
122.47205 1097.0701 122.62085
127.79705 1097.0701 122.62085
134.30534 1087.0868 147.71509
139.67747 1087.0868 147.71509
145.04982 1087.0868 147.71509
151.79655 1076.7338 173.73877
157.21799 1076.7338 173.73877
164.112 1066.3809 199.76196
169.58232 1066.3809 199.76196
175.05284 1066.3809 199.76196
180.52318 1066.3809 199.76196
187.72247 1055.658 226.71509
193.24364 1055.658 226.71509
198.7648 1055.658 226.71509
204.28618 1055.658 226.71509
209.80733 1055.658 226.71509
-46.677223 1121.5061 47.171143
-41.140175 1130.7903 23.952881
-35.997726 1130.7903 23.952881
-30.855181 1130.7903 23.952881
-25.712635 1130.7903 23.952881
-20.74542 1121.5061 47.171143
-15.559041 1121.5061 47.171143
-10.37276 1121.5061 47.171143
-5.1863799 1121.5061 47.171143
0 1121.5061 47.171143
5.1862807 1121.5061 47.171143
10.37276 1121.5061 47.171143
15.559041 1121.5061 47.171143
20.570187 1130.7903 23.952881
25.712635 1130.7903 23.952881
30.855083 1130.7903 23.952881
35.997726 1130.7903 23.952881
41.140175 1130.7903 23.952881
46.282822 1130.7903 23.952881
51.863602 1121.5061 47.171143
57.049881 1121.5061 47.171143
62.236362 1121.5061 47.171143
68.015266 1111.8507 71.318115
73.247337 1111.8507 71.318115
78.479202 1111.8507 71.318115
83.711067 1111.8507 71.318115
89.718109 1102.1952 95.464844
94.99556 1102.1952 95.464844
100.27322 1102.1952 95.464844
106.49747 1092.1685 120.54028
111.82227 1092.1685 120.54028
117.14725 1092.1685 120.54028
122.47205 1092.1685 120.54028
127.79705 1092.1685 120.54028
134.30534 1082.1416 145.61621
139.67747 1082.1416 145.61621
145.04982 1082.1416 145.61621
151.79655 1071.7434 171.62036
157.21799 1071.7434 171.62036
164.112 1061.3453 197.62451
169.58232 1061.3453 197.62451
175.05284 1061.3453 197.62451
180.52318 1061.3453 197.62451
187.72247 1050.5757 224.55786
193.24364 1050.5757 224.55786
198.7648 1050.5757 224.55786
204.28618 1050.5757 224.55786
211.73952 1039.8062 251.49072
-46.677223 1116.7321 45.144775
-41.140175 1126.0565 21.943604
-35.997726 1126.0565 21.943604
-30.855181 1126.0565 21.943604
-25.712635 1126.0565 21.943604
-20.74542 1116.7321 45.144775
-15.559041 1116.7321 45.144775
-10.37276 1116.7321 45.144775
-5.1863799 1116.7321 45.144775
0 1116.7321 45.144775
5.1424484 1126.0565 21.943604
10.285093 1126.0565 21.943604
15.427542 1126.0565 21.943604
20.570187 1126.0565 21.943604
25.712635 1126.0565 21.943604
30.855083 1126.0565 21.943604
35.997726 1126.0565 21.943604
41.140175 1126.0565 21.943604
46.282822 1126.0565 21.943604
51.42527 1126.0565 21.943604
57.049881 1116.7321 45.144775
62.236362 1116.7321 45.144775
68.015266 1107.0347 69.273682
73.247337 1107.0347 69.273682
79.163002 1097.3373 93.402832
84.44046 1097.3373 93.402832
89.718109 1097.3373 93.402832
94.99556 1097.3373 93.402832
100.27322 1097.3373 93.402832
106.49747 1087.267 118.45972
111.82227 1087.267 118.45972
117.14725 1087.267 118.45972
122.47205 1087.267 118.45972
127.79705 1087.267 118.45972
134.30534 1077.1964 143.51709
139.67747 1077.1964 143.51709
146.37532 1066.7532 169.5022
151.79655 1066.7532 169.5022
157.21799 1066.7532 169.5022
164.112 1056.3098 195.48706
169.58232 1056.3098 195.48706
175.05284 1056.3098 195.48706
180.52318 1056.3098 195.48706
187.72247 1045.4934 222.40039
193.24364 1045.4934 222.40039
198.7648 1045.4934 222.40039
204.28618 1045.4934 222.40039
211.73952 1034.677 249.31372
-52.775333 1092.4792 91.34082
-47.087502 1102.2188 67.229492
-41.140175 1121.3229 19.934326
-35.997726 1121.3229 19.934326
-30.855181 1121.3229 19.934326
-25.712635 1121.3229 19.934326
-20.74542 1111.958 43.118164
-15.559041 1111.958 43.118164
-10.37276 1111.958 43.118164
-5.1863799 1111.958 43.118164
0 1111.958 43.118164
5.1424484 1121.3229 19.934326
10.285093 1121.3229 19.934326
15.427542 1121.3229 19.934326
20.570187 1121.3229 19.934326
25.712635 1121.3229 19.934326
30.855083 1121.3229 19.934326
35.997726 1121.3229 19.934326
41.140175 1121.3229 19.934326
46.282822 1121.3229 19.934326
51.42527 1121.3229 19.934326
57.049881 1111.958 43.118164
62.236362 1111.958 43.118164
68.015266 1102.2188 67.229492
73.247337 1102.2188 67.229492
79.163002 1092.4792 91.34082
84.44046 1092.4792 91.34082
89.718109 1092.4792 91.34082
94.99556 1092.4792 91.34082
101.17268 1082.3654 116.37915
106.49747 1082.3654 116.37915
111.82227 1082.3654 116.37915
118.18874 1072.2513 141.41797
123.56087 1072.2513 141.41797
128.9332 1072.2513 141.41797
135.53267 1061.7628 167.38403
140.9539 1061.7628 167.38403
146.37532 1061.7628 167.38403
151.79655 1061.7628 167.38403
157.21799 1061.7628 167.38403
164.112 1051.2743 193.34961
169.58232 1051.2743 193.34961
175.05284 1051.2743 193.34961
180.52318 1051.2743 193.34961
185.9937 1051.2743 193.34961
193.24364 1040.411 220.24316
196.93433 1051.2743 193.34961
202.40485 1051.2743 193.34961
209.80733 1040.411 220.24316
-52.775333 1087.6213 89.278564
-47.087502 1097.4027 65.185303
-41.140175 1116.5891 17.925049
-35.997726 1116.5891 17.925049
-30.855181 1116.5891 17.925049
-25.712635 1116.5891 17.925049
-20.74542 1107.184 41.091797
-15.559041 1107.184 41.091797
-10.37276 1107.184 41.091797
-5.1863799 1107.184 41.091797
0 1107.184 41.091797
5.1424484 1116.5891 17.925049
10.285093 1116.5891 17.925049
15.427542 1116.5891 17.925049
20.570187 1116.5891 17.925049
25.712635 1116.5891 17.925049
30.855083 1116.5891 17.925049
35.997726 1116.5891 17.925049
41.140175 1116.5891 17.925049
46.282822 1116.5891 17.925049
51.42527 1116.5891 17.925049
57.049881 1107.184 41.091797
62.236362 1107.184 41.091797
68.015266 1097.4027 65.185303
73.247337 1097.4027 65.185303
79.163002 1087.6213 89.278564
84.44046 1087.6213 89.278564
89.718109 1087.6213 89.278564
95.847679 1077.4637 114.29858
101.17268 1077.4637 114.29858
106.49747 1077.4637 114.29858
112.81641 1067.3062 139.31885
118.18874 1067.3062 139.31885
123.56087 1067.3062 139.31885
128.9332 1067.3062 139.31885
135.53267 1056.7725 165.26562
140.9539 1056.7725 165.26562
146.37532 1056.7725 165.26562
151.79655 1056.7725 165.26562
157.21799 1056.7725 165.26562
164.112 1046.2388 191.21216
169.58232 1046.2388 191.21216
175.05284 1046.2388 191.21216
180.52318 1046.2388 191.21216
185.9937 1046.2388 191.21216
193.24364 1035.3287 218.08594
196.93433 1046.2388 191.21216
202.40485 1046.2388 191.21216
209.80733 1035.3287 218.08594
-52.775333 1082.7633 87.216553
-46.677223 1102.4099 39.06543
-41.140175 1111.8553 15.915527
-35.997726 1111.8553 15.915527
-30.855181 1111.8553 15.915527
-25.712635 1111.8553 15.915527
-20.570087 1111.8553 15.915527
-15.559041 1102.4099 39.06543
-10.285093 1111.8553 15.915527
-5.1425467 1111.8553 15.915527
0 1102.4099 39.06543
5.1424484 1111.8553 15.915527
10.285093 1111.8553 15.915527
15.427542 1111.8553 15.915527
20.570187 1111.8553 15.915527
25.712635 1111.8553 15.915527
30.855083 1111.8553 15.915527
35.997726 1111.8553 15.915527
41.140175 1111.8553 15.915527
46.677322 1102.4099 39.06543
51.863602 1102.4099 39.06543
57.551338 1092.5867 63.140869
62.783401 1092.5867 63.140869
68.607895 1082.7633 87.216553
73.885544 1082.7633 87.216553
79.163002 1082.7633 87.216553
85.197891 1072.5623 112.21802
90.522888 1072.5623 112.21802
95.847679 1072.5623 112.21802
101.17268 1072.5623 112.21802
106.49747 1072.5623 112.21802
112.81641 1062.3611 137.21973
118.18874 1062.3611 137.21973
123.56087 1062.3611 137.21973
128.9332 1062.3611 137.21973
135.53267 1051.7821 163.14746
140.9539 1051.7821 163.14746
146.37532 1051.7821 163.14746
151.79655 1051.7821 163.14746
157.21799 1051.7821 163.14746
162.63921 1051.7821 163.14746
168.06042 1051.7821 163.14746
175.05284 1041.2032 189.07471
180.52318 1041.2032 189.07471
185.9937 1041.2032 189.07471
191.464 1041.2032 189.07471
198.7648 1030.2463 215.92847
204.28618 1030.2463 215.92847
209.80733 1030.2463 215.92847
-51.863602 1097.6357 37.038818
-46.677223 1097.6357 37.038818
-41.140175 1107.1216 13.90625
-35.997726 1107.1216 13.90625
-30.855181 1107.1216 13.90625
-25.712635 1107.1216 13.90625
-20.570087 1107.1216 13.90625
-15.559041 1097.6357 37.038818
-10.285093 1107.1216 13.90625
-5.1425467 1107.1216 13.90625
0 1107.1216 13.90625
5.1424484 1107.1216 13.90625
10.285093 1107.1216 13.90625
15.427542 1107.1216 13.90625
20.570187 1107.1216 13.90625
25.712635 1107.1216 13.90625
30.855083 1107.1216 13.90625
35.997726 1107.1216 13.90625
41.140175 1107.1216 13.90625
47.087601 1087.7705 61.09668
52.319469 1087.7705 61.09668
58.052788 1077.9053 85.154297
63.330441 1077.9053 85.154297
68.607895 1077.9053 85.154297
74.548309 1067.6605 110.13745
79.8731 1067.6605 110.13745
85.197891 1067.6605 110.13745
90.522888 1067.6605 110.13745
95.847679 1067.6605 110.13745
101.17268 1067.6605 110.13745
106.49747 1067.6605 110.13745
112.81641 1057.4158 135.12061
118.18874 1057.4158 135.12061
123.56087 1057.4158 135.12061
128.9332 1057.4158 135.12061
135.53267 1046.7917 161.02905
140.9539 1046.7917 161.02905
145.04982 1057.4158 135.12061
150.42194 1057.4158 135.12061
157.21799 1046.7917 161.02905
162.63921 1046.7917 161.02905
168.06042 1046.7917 161.02905
173.48186 1046.7917 161.02905
180.52318 1036.1676 186.93726
185.9937 1036.1676 186.93726
191.464 1036.1676 186.93726
196.93433 1036.1676 186.93726
204.28618 1025.1639 213.77124
209.80733 1025.1639 213.77124
-51.863602 1092.8617 35.012451
-46.677223 1092.8617 35.012451
-41.140175 1102.3879 11.896973
-35.997726 1102.3879 11.896973
-30.855181 1102.3879 11.896973
-25.712635 1102.3879 11.896973
-20.570087 1102.3879 11.896973
-15.559041 1092.8617 35.012451
-10.37276 1092.8617 35.012451
-5.1863799 1092.8617 35.012451
0 1102.3879 11.896973
5.1424484 1102.3879 11.896973
10.285093 1102.3879 11.896973
15.427542 1102.3879 11.896973
20.570187 1102.3879 11.896973
25.712635 1102.3879 11.896973
30.855083 1102.3879 11.896973
36.304562 1092.8617 35.012451
41.490841 1092.8617 35.012451
47.087601 1082.9545 59.052246
52.319469 1082.9545 59.052246
58.052788 1073.0472 83.092285
63.898525 1062.759 108.05688
69.223312 1062.759 108.05688
74.548309 1062.759 108.05688
79.8731 1062.759 108.05688
85.197891 1062.759 108.05688
90.522888 1062.759 108.05688
95.847679 1062.759 108.05688
102.07214 1052.4707 133.02148
107.44427 1052.4707 133.02148
112.81641 1052.4707 133.02148
118.18874 1052.4707 133.02148
124.69002 1041.8014 158.91089
130.11145 1041.8014 158.91089
135.53267 1041.8014 158.91089
140.9539 1041.8014 158.91089
145.04982 1052.4707 133.02148
150.42194 1052.4707 133.02148
157.21799 1041.8014 158.91089
162.63921 1041.8014 158.91089
168.06042 1041.8014 158.91089
173.48186 1041.8014 158.91089
180.52318 1031.1321 184.7998
185.9937 1031.1321 184.7998
191.464 1031.1321 184.7998
196.93433 1031.1321 184.7998
204.28618 1020.0817 211.61377
211.73952 1009.0312 238.42773
-343.03967 1068.1892 81.030273
-334.8446 1078.1384 57.008057
-329.61261 1078.1384 57.008057
-324.38077 1078.1384 57.008057
-313.91681 1078.1384 57.008057
-308.68484 1078.1384 57.008057
-303.45288 1078.1384 57.008057
-298.22101 1078.1384 57.008057
-56.567814 1097.6542 9.8874512
-51.42527 1097.6542 9.8874512
-46.282722 1097.6542 9.8874512
-41.140175 1097.6542 9.8874512
-35.997726 1097.6542 9.8874512
-30.855181 1097.6542 9.8874512
-25.712635 1097.6542 9.8874512
-20.570087 1097.6542 9.8874512
-15.559041 1088.0876 32.98584
-10.37276 1088.0876 32.98584
-5.1863799 1088.0876 32.98584
0 1097.6542 9.8874512
5.1424484 1097.6542 9.8874512
10.285093 1097.6542 9.8874512
15.559041 1088.0876 32.98584
20.74552 1088.0876 32.98584
25.931801 1088.0876 32.98584
31.118082 1088.0876 32.98584
36.304562 1088.0876 32.98584
41.490841 1088.0876 32.98584
47.497883 1068.1892 81.030273
52.775333 1068.1892 81.030273
58.573528 1057.8574 105.97632
63.898525 1057.8574 105.97632
69.223312 1057.8574 105.97632
74.548309 1057.8574 105.97632
79.8731 1057.8574 105.97632
85.197891 1057.8574 105.97632
91.327667 1047.5255 130.92236
96.699806 1047.5255 130.92236
102.07214 1047.5255 130.92236
107.44427 1047.5255 130.92236
113.84736 1036.811 156.79248
119.26879 1036.811 156.79248
124.69002 1036.811 156.79248
130.11145 1036.811 156.79248
135.53267 1036.811 156.79248
140.9539 1036.811 156.79248
145.04982 1047.5255 130.92236
150.42194 1047.5255 130.92236
157.21799 1036.811 156.79248
162.63921 1036.811 156.79248
168.06042 1036.811 156.79248
175.05284 1026.0966 182.66235
180.52318 1026.0966 182.66235
185.9937 1026.0966 182.66235
191.464 1026.0966 182.66235
196.93433 1026.0966 182.66235
204.28618 1014.9993 209.45654
211.73952 1003.9021 236.25049
-355.77234 1073.3225 54.963867
-350.5405 1073.3225 54.963867
-345.3085 1073.3225 54.963867
-340.07654 1073.3225 54.963867
-334.8446 1073.3225 54.963867
-329.61261 1073.3225 54.963867
-324.38077 1073.3225 54.963867
-319.14877 1073.3225 54.963867
-313.91681 1073.3225 54.963867
-308.68484 1073.3225 54.963867
-303.45288 1073.3225 54.963867
-298.22101 1073.3225 54.963867
-292.98904 1073.3225 54.963867
-287.75708 1073.3225 54.963867
-284.98679 1063.3313 78.968018
-279.70923 1063.3313 78.968018
-82.981789 1083.3136 30.959473
-77.795403 1083.3136 30.959473
-72.609024 1083.3136 30.959473
-68.015266 1073.3225 54.963867
-62.236362 1083.3136 30.959473
-56.085648 1102.5273 -15.203125
-50.986935 1102.5273 -15.203125
-46.282722 1092.9204 7.8781738
-41.140175 1092.9204 7.8781738
-35.997726 1092.9204 7.8781738
-30.592182 1102.5273 -15.203125
-25.493467 1102.5273 -15.203125
-20.570087 1092.9204 7.8781738
-15.559041 1083.3136 30.959473
-10.37276 1083.3136 30.959473
-5.1863799 1083.3136 30.959473
0 1083.3136 30.959473
5.1862807 1083.3136 30.959473
10.37276 1083.3136 30.959473
15.559041 1083.3136 30.959473
20.74552 1083.3136 30.959473
25.931801 1083.3136 30.959473
31.118082 1083.3136 30.959473
36.623669 1073.3225 54.963867
42.22023 1063.3313 78.968018
47.497883 1063.3313 78.968018
53.248734 1052.9559 103.89551
58.573528 1052.9559 103.89551
63.898525 1052.9559 103.89551
69.838737 1042.5803 128.82324
75.211067 1042.5803 128.82324
80.583206 1042.5803 128.82324
85.955338 1042.5803 128.82324
91.327667 1042.5803 128.82324
96.699806 1042.5803 128.82324
102.07214 1042.5803 128.82324
107.44427 1042.5803 128.82324
113.84736 1031.8207 154.67432
119.26879 1031.8207 154.67432
124.69002 1031.8207 154.67432
130.11145 1031.8207 154.67432
135.53267 1031.8207 154.67432
140.9539 1031.8207 154.67432
146.37532 1031.8207 154.67432
151.79655 1031.8207 154.67432
157.21799 1031.8207 154.67432
162.63921 1031.8207 154.67432
168.06042 1031.8207 154.67432
173.48186 1031.8207 154.67432
180.52318 1021.061 180.5249
185.9937 1021.061 180.5249
191.464 1021.061 180.5249
196.93433 1021.061 180.5249
204.28618 1009.917 207.29932
211.73952 998.77295 234.07324
217.31174 998.77295 234.07324
-361.00433 1068.5065 52.919434
-355.77234 1068.5065 52.919434
-350.5405 1068.5065 52.919434
-345.3085 1068.5065 52.919434
-340.07654 1068.5065 52.919434
-334.8446 1068.5065 52.919434
-329.61261 1068.5065 52.919434
-324.38077 1068.5065 52.919434
-319.14877 1068.5065 52.919434
-313.91681 1068.5065 52.919434
-308.68484 1068.5065 52.919434
-303.45288 1068.5065 52.919434
-298.22101 1068.5065 52.919434
-292.98904 1068.5065 52.919434
-287.75708 1068.5065 52.919434
-284.98679 1058.4733 76.906006
-279.70923 1058.4733 76.906006
-274.43176 1058.4733 76.906006
-266.82932 1068.5065 52.919434
-261.59735 1068.5065 52.919434
-258.59912 1058.4733 76.906006
-112.1713 1097.834 -17.195312
-107.07259 1097.834 -17.195312
-98.540825 1078.5394 28.932861
-93.354446 1078.5394 28.932861
-88.168159 1078.5394 28.932861
-82.981789 1078.5394 28.932861
-77.795403 1078.5394 28.932861
-72.609024 1078.5394 28.932861
-67.422646 1078.5394 28.932861
-62.236362 1078.5394 28.932861
-56.085648 1097.834 -17.195312
-50.986935 1097.834 -17.195312
-46.282722 1088.1868 5.8688965
-41.140175 1088.1868 5.8688965
-35.997726 1088.1868 5.8688965
-30.592182 1097.834 -17.195312
-25.493467 1097.834 -17.195312
-20.570087 1088.1868 5.8688965
-15.559041 1078.5394 28.932861
-10.37276 1078.5394 28.932861
-5.1863799 1078.5394 28.932861
0 1078.5394 28.932861
5.1862807 1078.5394 28.932861
10.37276 1078.5394 28.932861
15.559041 1078.5394 28.932861
20.927866 1068.5065 52.919434
26.159735 1068.5065 52.919434
31.665119 1058.4733 76.906006
36.942772 1058.4733 76.906006
42.598946 1048.0543 101.81494
47.923943 1048.0543 101.81494
53.248734 1048.0543 101.81494
59.094265 1037.6353 126.72437
64.466599 1037.6353 126.72437
69.838737 1037.6353 126.72437
75.211067 1037.6353 126.72437
80.583206 1037.6353 126.72437
85.955338 1037.6353 126.72437
91.327667 1037.6353 126.72437
96.699806 1037.6353 126.72437
102.07214 1037.6353 126.72437
107.44427 1037.6353 126.72437
113.84736 1026.8303 152.55591
119.26879 1026.8303 152.55591
124.69002 1026.8303 152.55591
130.11145 1026.8303 152.55591
135.53267 1026.8303 152.55591
140.9539 1026.8303 152.55591
146.37532 1026.8303 152.55591
151.79655 1026.8303 152.55591
157.21799 1026.8303 152.55591
162.63921 1026.8303 152.55591
168.06042 1026.8303 152.55591
173.48186 1026.8303 152.55591
180.52318 1016.0255 178.38745
185.9937 1016.0255 178.38745
191.464 1016.0255 178.38745
198.7648 1004.8346 205.14185
204.28618 1004.8346 205.14185
209.80733 1004.8346 205.14185
-369.42734 1053.6152 74.843994
-361.00433 1063.6904 50.875244
-355.77234 1063.6904 50.875244
-350.5405 1063.6904 50.875244
-345.3085 1063.6904 50.875244
-340.07654 1063.6904 50.875244
-334.8446 1063.6904 50.875244
-329.61261 1063.6904 50.875244
-324.38077 1063.6904 50.875244
-319.14877 1063.6904 50.875244
-313.91681 1063.6904 50.875244
-308.68484 1063.6904 50.875244
-303.45288 1063.6904 50.875244
-298.22101 1063.6904 50.875244
-292.98904 1063.6904 50.875244
-287.75708 1063.6904 50.875244
-284.98679 1053.6152 74.843994
-279.70923 1053.6152 74.843994
-274.43176 1053.6152 74.843994
-266.82932 1063.6904 50.875244
-261.59735 1063.6904 50.875244
-256.36539 1063.6904 50.875244
-251.13341 1063.6904 50.875244
-245.90155 1063.6904 50.875244
-142.76338 1093.1406 -19.1875
-137.66476 1093.1406 -19.1875
-132.56606 1093.1406 -19.1875
-127.46734 1093.1406 -19.1875
-122.36862 1093.1406 -19.1875
-117.26991 1093.1406 -19.1875
-112.1713 1093.1406 -19.1875
-107.07259 1093.1406 -19.1875
-101.97387 1093.1406 -19.1875
-97.707985 1083.453 3.8596191
-93.354446 1073.7654 26.906494
-88.168159 1073.7654 26.906494
-82.981789 1073.7654 26.906494
-77.795403 1073.7654 26.906494
-72.609024 1073.7654 26.906494
-67.422646 1073.7654 26.906494
-61.710361 1083.453 3.8596191
-56.567814 1083.453 3.8596191
-51.42527 1083.453 3.8596191
-46.282722 1083.453 3.8596191
-41.140175 1083.453 3.8596191
-35.997726 1083.453 3.8596191
-30.592182 1093.1406 -19.1875
-25.493467 1093.1406 -19.1875
-20.570087 1083.453 3.8596191
-15.427542 1083.453 3.8596191
-10.285093 1083.453 3.8596191
-5.1863799 1073.7654 26.906494
0 1073.7654 26.906494
5.1862807 1073.7654 26.906494
10.37276 1073.7654 26.906494
15.695801 1063.6904 50.875244
20.927866 1063.6904 50.875244
26.159735 1063.6904 50.875244
31.665119 1053.6152 74.843994
37.274155 1043.1527 99.734375
42.598946 1043.1527 99.734375
47.923943 1043.1527 99.734375
53.722134 1032.6901 124.62524
59.094265 1032.6901 124.62524
64.466599 1032.6901 124.62524
69.838737 1032.6901 124.62524
75.211067 1032.6901 124.62524
80.583206 1032.6901 124.62524
85.955338 1032.6901 124.62524
91.327667 1032.6901 124.62524
96.699806 1032.6901 124.62524
102.07214 1032.6901 124.62524
107.44427 1032.6901 124.62524
113.84736 1021.8401 150.43774
119.26879 1021.8401 150.43774
124.69002 1021.8401 150.43774
130.11145 1021.8401 150.43774
135.53267 1021.8401 150.43774
140.9539 1021.8401 150.43774
146.37532 1021.8401 150.43774
151.79655 1021.8401 150.43774
157.21799 1021.8401 150.43774
162.63921 1021.8401 150.43774
168.06042 1021.8401 150.43774
173.48186 1021.8401 150.43774
180.52318 1010.99 176.25
185.9937 1010.99 176.25
191.464 1010.99 176.25
198.7648 999.75232 202.98462
204.28618 999.75232 202.98462
209.80733 999.75232 202.98462
-369.42734 1048.7573 72.781738
-361.00433 1058.8744 48.830811
-355.77234 1058.8744 48.830811
-350.5405 1058.8744 48.830811
-345.3085 1058.8744 48.830811
-340.07654 1058.8744 48.830811
-334.8446 1058.8744 48.830811
-329.61261 1058.8744 48.830811
-324.38077 1058.8744 48.830811
-319.14877 1058.8744 48.830811
-313.91681 1058.8744 48.830811
-308.68484 1058.8744 48.830811
-303.45288 1058.8744 48.830811
-298.22101 1058.8744 48.830811
-292.98904 1058.8744 48.830811
-287.75708 1058.8744 48.830811
-282.52512 1058.8744 48.830811
-277.29312 1058.8744 48.830811
-272.06128 1058.8744 48.830811
-266.82932 1058.8744 48.830811
-261.59735 1058.8744 48.830811
-256.36539 1058.8744 48.830811
-251.13341 1058.8744 48.830811
-245.90155 1058.8744 48.830811
-238.57259 1068.9913 24.879883
-233.38622 1068.9913 24.879883
-228.19983 1068.9913 24.879883
-223.01344 1068.9913 24.879883
-217.82718 1068.9913 24.879883
-212.64078 1068.9913 24.879883
-205.70108 1078.7194 1.8500977
-200.55853 1078.7194 1.8500977
-195.41597 1078.7194 1.8500977
-191.89537 1068.9913 24.879883
-186.70898 1068.9913 24.879883
-181.52261 1068.9913 24.879883
-176.33623 1068.9913 24.879883
-171.14984 1068.9913 24.879883
-165.96358 1068.9913 24.879883
-160.77718 1068.9913 24.879883
-152.9608 1088.4473 -21.179688
-147.86209 1088.4473 -21.179688
-142.76338 1088.4473 -21.179688
-137.66476 1088.4473 -21.179688
-132.56606 1088.4473 -21.179688
-127.46734 1088.4473 -21.179688
-122.36862 1088.4473 -21.179688
-117.26991 1088.4473 -21.179688
-112.1713 1088.4473 -21.179688
-107.07259 1088.4473 -21.179688
-101.97387 1088.4473 -21.179688
-97.707985 1078.7194 1.8500977
-92.565445 1078.7194 1.8500977
-87.422989 1078.7194 1.8500977
-82.280449 1078.7194 1.8500977
-77.795403 1068.9913 24.879883
-72.609024 1068.9913 24.879883
-67.422646 1068.9913 24.879883
-61.710361 1078.7194 1.8500977
-56.567814 1078.7194 1.8500977
-51.42527 1078.7194 1.8500977
-46.282722 1078.7194 1.8500977
-41.140175 1078.7194 1.8500977
-35.997726 1078.7194 1.8500977
-30.592182 1088.4473 -21.179688
-25.493467 1088.4473 -21.179688
-20.570087 1078.7194 1.8500977
-15.427542 1078.7194 1.8500977
-10.285093 1078.7194 1.8500977
-5.1863799 1068.9913 24.879883
0 1068.9913 24.879883
5.1862807 1068.9913 24.879883
10.37276 1068.9913 24.879883
15.695801 1058.8744 48.830811
20.927866 1058.8744 48.830811
26.387667 1048.7573 72.781738
31.94916 1038.2512 97.653809
37.274155 1038.2512 97.653809
42.977669 1027.745 122.52612
48.350006 1027.745 122.52612
53.722134 1027.745 122.52612
59.634293 1016.8497 148.31934
65.055725 1016.8497 148.31934
70.476952 1016.8497 148.31934
75.898376 1016.8497 148.31934
80.583206 1027.745 122.52612
85.955338 1027.745 122.52612
91.327667 1027.745 122.52612
96.699806 1027.745 122.52612
102.07214 1027.745 122.52612
107.44427 1027.745 122.52612
113.84736 1016.8497 148.31934
119.26879 1016.8497 148.31934
124.69002 1016.8497 148.31934
130.11145 1016.8497 148.31934
135.53267 1016.8497 148.31934
140.9539 1016.8497 148.31934
146.37532 1016.8497 148.31934
151.79655 1016.8497 148.31934
157.21799 1016.8497 148.31934
162.63921 1016.8497 148.31934
168.06042 1016.8497 148.31934
175.05284 1005.9545 174.11255
180.52318 1005.9545 174.11255
185.9937 1005.9545 174.11255
193.24364 994.66992 200.82715
198.7648 994.66992 200.82715
204.28618 994.66992 200.82715
209.80733 994.66992 200.82715
-369.42734 1043.8993 70.719727
-361.00433 1054.0583 46.786621
-355.77234 1054.0583 46.786621
-350.5405 1054.0583 46.786621
-345.3085 1054.0583 46.786621
-340.07654 1054.0583 46.786621
-334.8446 1054.0583 46.786621
-329.61261 1054.0583 46.786621
-324.38077 1054.0583 46.786621
-319.14877 1054.0583 46.786621
-313.91681 1054.0583 46.786621
-308.68484 1054.0583 46.786621
-303.45288 1054.0583 46.786621
-298.22101 1054.0583 46.786621
-292.98904 1054.0583 46.786621
-287.75708 1054.0583 46.786621
-282.52512 1054.0583 46.786621
-277.29312 1054.0583 46.786621
-272.06128 1054.0583 46.786621
-266.82932 1054.0583 46.786621
-261.59735 1054.0583 46.786621
-256.36539 1054.0583 46.786621
-251.13341 1054.0583 46.786621
-245.90155 1054.0583 46.786621
-238.57259 1064.2173 22.853516
-233.38622 1064.2173 22.853516
-228.19983 1064.2173 22.853516
-223.01344 1064.2173 22.853516
-217.82718 1064.2173 22.853516
-210.84361 1073.9856 -0.15917969
-205.70108 1073.9856 -0.15917969
-200.55853 1073.9856 -0.15917969
-195.41597 1073.9856 -0.15917969
-191.89537 1064.2173 22.853516
-186.70898 1064.2173 22.853516
-181.52261 1064.2173 22.853516
-176.33623 1064.2173 22.853516
-171.14984 1064.2173 22.853516
-165.96358 1064.2173 22.853516
-160.77718 1064.2173 22.853516
-152.9608 1083.7539 -23.171875
-147.86209 1083.7539 -23.171875
-142.76338 1083.7539 -23.171875
-137.66476 1083.7539 -23.171875
-132.56606 1083.7539 -23.171875
-127.46734 1083.7539 -23.171875
-122.36862 1083.7539 -23.171875
-117.26991 1083.7539 -23.171875
-112.1713 1083.7539 -23.171875
-107.07259 1083.7539 -23.171875
-101.97387 1083.7539 -23.171875
-97.707985 1073.9856 -0.15917969
-92.565445 1073.9856 -0.15917969
-87.422989 1073.9856 -0.15917969
-82.280449 1073.9856 -0.15917969
-77.137901 1073.9856 -0.15917969
-72.609024 1064.2173 22.853516
-67.422646 1064.2173 22.853516
-61.710361 1073.9856 -0.15917969
-56.567814 1073.9856 -0.15917969
-51.42527 1073.9856 -0.15917969
-46.282722 1073.9856 -0.15917969
-41.140175 1073.9856 -0.15917969
-35.997726 1073.9856 -0.15917969
-30.855181 1073.9856 -0.15917969
-25.712635 1073.9856 -0.15917969
-20.570087 1073.9856 -0.15917969
-15.559041 1064.2173 22.853516
-10.37276 1064.2173 22.853516
-5.1863799 1064.2173 22.853516
0 1064.2173 22.853516
5.1862807 1064.2173 22.853516
10.463933 1054.0583 46.786621
15.695801 1054.0583 46.786621
21.110216 1043.8993 70.719727
26.624367 1033.3496 95.573242
31.94916 1033.3496 95.573242
37.605534 1022.7998 120.427
43.370415 1011.8594 146.20117
48.791843 1011.8594 146.20117
54.21307 1011.8594 146.20117
59.634293 1011.8594 146.20117
65.055725 1011.8594 146.20117
70.476952 1011.8594 146.20117
75.898376 1011.8594 146.20117
80.583206 1022.7998 120.427
85.955338 1022.7998 120.427
91.327667 1022.7998 120.427
96.699806 1022.7998 120.427
103.00491 1011.8594 146.20117
108.42614 1011.8594 146.20117
113.84736 1011.8594 146.20117
119.26879 1011.8594 146.20117
124.69002 1011.8594 146.20117
130.11145 1011.8594 146.20117
135.53267 1011.8594 146.20117
140.9539 1011.8594 146.20117
146.37532 1011.8594 146.20117
151.79655 1011.8594 146.20117
157.21799 1011.8594 146.20117
162.63921 1011.8594 146.20117
168.06042 1011.8594 146.20117
175.05284 1000.9189 171.9751
180.52318 1000.9189 171.9751
187.72247 989.58765 198.66992
193.24364 989.58765 198.66992
198.7648 989.58765 198.66992
204.28618 989.58765 198.66992
209.80733 989.58765 198.66992
217.31174 978.25647 225.3645
-369.42734 1039.0413 68.657715
-361.00433 1049.2423 44.742188
-355.77234 1049.2423 44.742188
-350.5405 1049.2423 44.742188
-345.3085 1049.2423 44.742188
-340.07654 1049.2423 44.742188
-334.8446 1049.2423 44.742188
-329.61261 1049.2423 44.742188
-324.38077 1049.2423 44.742188
-319.14877 1049.2423 44.742188
-313.91681 1049.2423 44.742188
-308.68484 1049.2423 44.742188
-303.45288 1049.2423 44.742188
-298.22101 1049.2423 44.742188
-292.98904 1049.2423 44.742188
-287.75708 1049.2423 44.742188
-282.52512 1049.2423 44.742188
-277.29312 1049.2423 44.742188
-272.06128 1049.2423 44.742188
-266.82932 1049.2423 44.742188
-261.59735 1049.2423 44.742188
-256.36539 1049.2423 44.742188
-251.13341 1049.2423 44.742188
-245.90155 1049.2423 44.742188
-240.66959 1049.2423 44.742188
-233.38622 1059.4431 20.826904
-228.19983 1059.4431 20.826904
-223.01344 1059.4431 20.826904
-217.82718 1059.4431 20.826904
-210.84361 1069.2518 -2.168457
-205.70108 1069.2518 -2.168457
-200.55853 1069.2518 -2.168457
-195.41597 1069.2518 -2.168457
-191.89537 1059.4431 20.826904
-186.70898 1059.4431 20.826904
-181.52261 1059.4431 20.826904
-176.33623 1059.4431 20.826904
-171.14984 1059.4431 20.826904
-165.96358 1059.4431 20.826904
-160.77718 1059.4431 20.826904
-155.59081 1059.4431 20.826904
-150.40443 1059.4431 20.826904
-143.99071 1069.2518 -2.168457
-137.66476 1079.0604 -25.164062
-132.56606 1079.0604 -25.164062
-127.46734 1079.0604 -25.164062
-122.36862 1079.0604 -25.164062
-117.26991 1079.0604 -25.164062
-112.1713 1079.0604 -25.164062
-107.07259 1079.0604 -25.164062
-102.85054 1069.2518 -2.168457
-97.707985 1069.2518 -2.168457
-92.565445 1069.2518 -2.168457
-87.422989 1069.2518 -2.168457
-82.280449 1069.2518 -2.168457
-77.137901 1069.2518 -2.168457
-71.995354 1069.2518 -2.168457
-66.852806 1069.2518 -2.168457
-61.710361 1069.2518 -2.168457
-56.567814 1069.2518 -2.168457
-51.42527 1069.2518 -2.168457
-46.282722 1069.2518 -2.168457
-41.140175 1069.2518 -2.168457
-35.997726 1069.2518 -2.168457
-30.855181 1069.2518 -2.168457
-25.712635 1069.2518 -2.168457
-20.570087 1069.2518 -2.168457
-15.559041 1059.4431 20.826904
-10.37276 1059.4431 20.826904
-5.1863799 1059.4431 20.826904
0 1059.4431 20.826904
5.2318668 1049.2423 44.742188
10.463933 1049.2423 44.742188
15.83256 1039.0413 68.657715
21.110216 1039.0413 68.657715
26.624367 1028.448 93.492676
32.233196 1017.8546 118.32788
37.605534 1017.8546 118.32788
43.370415 1006.869 144.08276
48.791843 1006.869 144.08276
54.21307 1006.869 144.08276
59.634293 1006.869 144.08276
65.055725 1006.869 144.08276
70.476952 1006.869 144.08276
75.898376 1006.869 144.08276
80.583206 1017.8546 118.32788
85.955338 1017.8546 118.32788
91.327667 1017.8546 118.32788
96.699806 1017.8546 118.32788
103.00491 1006.869 144.08276
108.42614 1006.869 144.08276
113.84736 1006.869 144.08276
119.26879 1006.869 144.08276
124.69002 1006.869 144.08276
130.11145 1006.869 144.08276
135.53267 1006.869 144.08276
140.9539 1006.869 144.08276
146.37532 1006.869 144.08276
151.79655 1006.869 144.08276
158.64169 995.8833 169.83765
164.112 995.8833 169.83765
169.58232 995.8833 169.83765
175.05284 995.8833 169.83765
180.52318 995.8833 169.83765
187.72247 984.50525 196.51245
193.24364 984.50525 196.51245
198.7648 984.50525 196.51245
206.16751 973.12732 223.18726
211.73952 973.12732 223.18726
217.31174 973.12732 223.18726
-369.42734 1034.1833 66.595459
-361.00433 1044.4263 42.697998
-355.77234 1044.4263 42.697998
-350.5405 1044.4263 42.697998
-345.3085 1044.4263 42.697998
-340.07654 1044.4263 42.697998
-334.8446 1044.4263 42.697998
-329.61261 1044.4263 42.697998
-324.38077 1044.4263 42.697998
-319.14877 1044.4263 42.697998
-313.91681 1044.4263 42.697998
-308.68484 1044.4263 42.697998
-303.45288 1044.4263 42.697998
-298.22101 1044.4263 42.697998
-292.98904 1044.4263 42.697998
-287.75708 1044.4263 42.697998
-282.52512 1044.4263 42.697998
-277.29312 1044.4263 42.697998
-272.06128 1044.4263 42.697998
-266.82932 1044.4263 42.697998
-261.59735 1044.4263 42.697998
-256.36539 1044.4263 42.697998
-251.13341 1044.4263 42.697998
-245.90155 1044.4263 42.697998
-240.66959 1044.4263 42.697998
-235.43761 1044.4263 42.697998
-228.19983 1054.6692 18.800537
-223.01344 1054.6692 18.800537
-217.82718 1054.6692 18.800537
-212.64078 1054.6692 18.800537
-207.45441 1054.6692 18.800537
-202.26804 1054.6692 18.800537
-197.08165 1054.6692 18.800537
-191.89537 1054.6692 18.800537
-186.70898 1054.6692 18.800537
-181.52261 1054.6692 18.800537
-177.88617 1044.4263 42.697998
-172.65421 1044.4263 42.697998
-167.42235 1044.4263 42.697998
-160.77718 1054.6692 18.800537
-155.59081 1054.6692 18.800537
-150.40443 1054.6692 18.800537
-143.99071 1064.5182 -4.1779785
-138.84827 1064.5182 -4.1779785
-133.70572 1064.5182 -4.1779785
-128.56317 1064.5182 -4.1779785
-123.42062 1064.5182 -4.1779785
-118.27808 1064.5182 -4.1779785
-113.13563 1064.5182 -4.1779785
-107.99309 1064.5182 -4.1779785
-102.85054 1064.5182 -4.1779785
-97.707985 1064.5182 -4.1779785
-92.565445 1064.5182 -4.1779785
-87.422989 1064.5182 -4.1779785
-82.280449 1064.5182 -4.1779785
-77.137901 1064.5182 -4.1779785
-71.995354 1064.5182 -4.1779785
-66.852806 1064.5182 -4.1779785
-61.710361 1064.5182 -4.1779785
-56.567814 1064.5182 -4.1779785
-51.42527 1064.5182 -4.1779785
-46.282722 1064.5182 -4.1779785
-41.140175 1064.5182 -4.1779785
-35.997726 1064.5182 -4.1779785
-30.855181 1064.5182 -4.1779785
-25.712635 1064.5182 -4.1779785
-20.570087 1064.5182 -4.1779785
-15.559041 1054.6692 18.800537
-10.37276 1054.6692 18.800537
-5.1863799 1054.6692 18.800537
0 1054.6692 18.800537
5.2318668 1044.4263 42.697998
10.463933 1044.4263 42.697998
15.83256 1034.1833 66.595459
21.110216 1034.1833 66.595459
26.624367 1023.5465 91.412109
32.233196 1012.9095 116.22876
37.949188 1001.8787 141.9646
43.370415 1001.8787 141.9646
48.791843 1001.8787 141.9646
54.21307 1001.8787 141.9646
59.634293 1001.8787 141.9646
65.055725 1001.8787 141.9646
70.476952 1001.8787 141.9646
75.898376 1001.8787 141.9646
81.319603 1001.8787 141.9646
86.740829 1001.8787 141.9646
92.162254 1001.8787 141.9646
97.583481 1001.8787 141.9646
103.00491 1001.8787 141.9646
108.42614 1001.8787 141.9646
113.84736 1001.8787 141.9646
119.26879 1001.8787 141.9646
124.69002 1001.8787 141.9646
130.11145 1001.8787 141.9646
135.53267 1001.8787 141.9646
140.9539 1001.8787 141.9646
146.37532 1001.8787 141.9646
153.17117 990.8479 167.7002
158.64169 990.8479 167.7002
164.112 990.8479 167.7002
169.58232 990.8479 167.7002
175.05284 990.8479 167.7002
180.52318 990.8479 167.7002
187.72247 979.42297 194.35522
193.24364 979.42297 194.35522
198.7648 979.42297 194.35522
206.16751 967.99817 221.01001
211.73952 967.99817 221.01001
217.31174 967.99817 221.01001
-366.23627 1039.6102 40.653809
-361.00433 1039.6102 40.653809
-355.77234 1039.6102 40.653809
-350.5405 1039.6102 40.653809
-345.3085 1039.6102 40.653809
-340.07654 1039.6102 40.653809
-334.8446 1039.6102 40.653809
-329.61261 1039.6102 40.653809
-324.38077 1039.6102 40.653809
-319.14877 1039.6102 40.653809
-313.91681 1039.6102 40.653809
-308.68484 1039.6102 40.653809
-303.45288 1039.6102 40.653809
-298.22101 1039.6102 40.653809
-292.98904 1039.6102 40.653809
-287.75708 1039.6102 40.653809
-282.52512 1039.6102 40.653809
-277.29312 1039.6102 40.653809
-272.06128 1039.6102 40.653809
-266.82932 1039.6102 40.653809
-261.59735 1039.6102 40.653809
-256.36539 1039.6102 40.653809
-251.13341 1039.6102 40.653809
-245.90155 1039.6102 40.653809
-240.66959 1039.6102 40.653809
-235.43761 1039.6102 40.653809
-228.19983 1049.895 16.77417
-223.01344 1049.895 16.77417
-217.82718 1049.895 16.77417
-212.64078 1049.895 16.77417
-209.27788 1039.6102 40.653809
-202.26804 1049.895 16.77417
-197.08165 1049.895 16.77417
-193.58208 1039.6102 40.653809
-186.70898 1049.895 16.77417
-181.52261 1049.895 16.77417
-177.88617 1039.6102 40.653809
-171.14984 1049.895 16.77417
-165.96358 1049.895 16.77417
-160.77718 1049.895 16.77417
-155.59081 1049.895 16.77417
-150.40443 1049.895 16.77417
-145.21805 1049.895 16.77417
-138.84827 1059.7844 -6.1872559
-133.70572 1059.7844 -6.1872559
-128.56317 1059.7844 -6.1872559
-123.42062 1059.7844 -6.1872559
-118.27808 1059.7844 -6.1872559
-113.13563 1059.7844 -6.1872559
-107.99309 1059.7844 -6.1872559
-102.85054 1059.7844 -6.1872559
-97.707985 1059.7844 -6.1872559
-92.565445 1059.7844 -6.1872559
-87.422989 1059.7844 -6.1872559
-82.280449 1059.7844 -6.1872559
-77.137901 1059.7844 -6.1872559
-71.995354 1059.7844 -6.1872559
-66.852806 1059.7844 -6.1872559
-61.710361 1059.7844 -6.1872559
-56.567814 1059.7844 -6.1872559
-51.42527 1059.7844 -6.1872559
-46.282722 1059.7844 -6.1872559
-41.140175 1059.7844 -6.1872559
-35.997726 1059.7844 -6.1872559
-30.855181 1059.7844 -6.1872559
-25.712635 1059.7844 -6.1872559
-20.74542 1049.895 16.77417
-15.559041 1049.895 16.77417
-10.463933 1039.6102 40.653809
-5.2319665 1039.6102 40.653809
0 1039.6102 40.653809
5.2318668 1039.6102 40.653809
10.555108 1029.3252 64.533447
15.83256 1029.3252 64.533447
21.299576 1018.6449 89.331543
26.624367 1018.6449 89.331543
32.233196 1007.9644 114.12964
37.949188 996.88831 139.84644
43.370415 996.88831 139.84644
48.791843 996.88831 139.84644
54.21307 996.88831 139.84644
59.634293 996.88831 139.84644
65.055725 996.88831 139.84644
70.476952 996.88831 139.84644
75.898376 996.88831 139.84644
81.319603 996.88831 139.84644
86.740829 996.88831 139.84644
92.162254 996.88831 139.84644
97.583481 996.88831 139.84644
103.00491 996.88831 139.84644
108.42614 996.88831 139.84644
113.84736 996.88831 139.84644
119.26879 996.88831 139.84644
124.69002 996.88831 139.84644
131.28969 985.81226 165.56274
136.76001 985.81226 165.56274
140.9539 996.88831 139.84644
146.37532 996.88831 139.84644
153.17117 985.81226 165.56274
158.64169 985.81226 165.56274
164.112 985.81226 165.56274
169.58232 985.81226 165.56274
175.05284 985.81226 165.56274
180.52318 985.81226 165.56274
187.72247 974.34058 192.198
193.24364 974.34058 192.198
198.7648 974.34058 192.198
204.28618 974.34058 192.198
209.80733 974.34058 192.198
215.3287 974.34058 192.198
-366.23627 1034.7942 38.609375
-361.00433 1034.7942 38.609375
-355.77234 1034.7942 38.609375
-350.5405 1034.7942 38.609375
-345.3085 1034.7942 38.609375
-340.07654 1034.7942 38.609375
-334.8446 1034.7942 38.609375
-329.61261 1034.7942 38.609375
-324.38077 1034.7942 38.609375
-319.14877 1034.7942 38.609375
-313.91681 1034.7942 38.609375
-308.68484 1034.7942 38.609375
-303.45288 1034.7942 38.609375
-298.22101 1034.7942 38.609375
-292.98904 1034.7942 38.609375
-287.75708 1034.7942 38.609375
-282.52512 1034.7942 38.609375
-277.29312 1034.7942 38.609375
-269.69077 1045.121 14.747559
-264.50439 1045.121 14.747559
-259.31802 1045.121 14.747559
-254.13164 1045.121 14.747559
-248.94525 1045.121 14.747559
-243.75897 1045.121 14.747559
-240.66959 1034.7942 38.609375
-235.43761 1034.7942 38.609375
-230.20564 1034.7942 38.609375
-224.97366 1034.7942 38.609375
-219.74182 1034.7942 38.609375
-214.50984 1034.7942 38.609375
-209.27788 1034.7942 38.609375
-202.26804 1045.121 14.747559
-197.08165 1045.121 14.747559
-193.58208 1034.7942 38.609375
-186.70898 1045.121 14.747559
-181.52261 1045.121 14.747559
-176.33623 1045.121 14.747559
-171.14984 1045.121 14.747559
-165.96358 1045.121 14.747559
-160.77718 1045.121 14.747559
-155.59081 1045.121 14.747559
-150.40443 1045.121 14.747559
-145.21805 1045.121 14.747559
-138.84827 1055.0508 -8.1965332
-133.70572 1055.0508 -8.1965332
-128.56317 1055.0508 -8.1965332
-123.42062 1055.0508 -8.1965332
-118.27808 1055.0508 -8.1965332
-113.13563 1055.0508 -8.1965332
-107.99309 1055.0508 -8.1965332
-102.85054 1055.0508 -8.1965332
-97.707985 1055.0508 -8.1965332
-92.565445 1055.0508 -8.1965332
-87.422989 1055.0508 -8.1965332
-82.280449 1055.0508 -8.1965332
-77.137901 1055.0508 -8.1965332
-71.995354 1055.0508 -8.1965332
-66.852806 1055.0508 -8.1965332
-61.710361 1055.0508 -8.1965332
-56.567814 1055.0508 -8.1965332
-51.42527 1055.0508 -8.1965332
-46.282722 1055.0508 -8.1965332
-41.140175 1055.0508 -8.1965332
-35.997726 1055.0508 -8.1965332
-30.855181 1055.0508 -8.1965332
-25.712635 1055.0508 -8.1965332
-20.74542 1045.121 14.747559
-15.559041 1045.121 14.747559
-10.463933 1034.7942 38.609375
-5.2319665 1034.7942 38.609375
0 1034.7942 38.609375
5.2318668 1034.7942 38.609375
10.555108 1024.4673 62.471436
15.83256 1024.4673 62.471436
21.299576 1013.7433 87.250977
26.624367 1013.7433 87.250977
32.233196 1003.0193 112.03076
37.949188 991.89807 137.72803
43.763157 980.77686 163.42529
49.233688 980.77686 163.42529
54.704002 980.77686 163.42529
60.174316 980.77686 163.42529
65.644844 980.77686 163.42529
71.115158 980.77686 163.42529
75.898376 991.89807 137.72803
81.319603 991.89807 137.72803
86.740829 991.89807 137.72803
92.162254 991.89807 137.72803
97.583481 991.89807 137.72803
103.00491 991.89807 137.72803
108.42614 991.89807 137.72803
113.84736 991.89807 137.72803
119.26879 991.89807 137.72803
124.69002 991.89807 137.72803
131.28969 980.77686 163.42529
136.76001 980.77686 163.42529
140.9539 991.89807 137.72803
146.37532 991.89807 137.72803
153.17117 980.77686 163.42529
158.64169 980.77686 163.42529
164.112 980.77686 163.42529
169.58232 980.77686 163.42529
175.05284 980.77686 163.42529
180.52318 980.77686 163.42529
187.72247 969.2583 190.04053
193.24364 969.2583 190.04053
198.7648 969.2583 190.04053
204.28618 969.2583 190.04053
209.80733 969.2583 190.04053
215.3287 969.2583 190.04053
220.84987 969.2583 190.04053
-369.42734 1019.6093 60.40918
-361.00433 1029.9781 36.565186
-355.77234 1029.9781 36.565186
-350.5405 1029.9781 36.565186
-345.3085 1029.9781 36.565186
-340.07654 1029.9781 36.565186
-334.8446 1029.9781 36.565186
-329.61261 1029.9781 36.565186
-324.38077 1029.9781 36.565186
-319.14877 1029.9781 36.565186
-313.91681 1029.9781 36.565186
-308.68484 1029.9781 36.565186
-303.45288 1029.9781 36.565186
-298.22101 1029.9781 36.565186
-292.98904 1029.9781 36.565186
-287.75708 1029.9781 36.565186
-282.52512 1029.9781 36.565186
-277.29312 1029.9781 36.565186
-269.69077 1040.3469 12.721191
-264.50439 1040.3469 12.721191
-259.31802 1040.3469 12.721191
-254.13164 1040.3469 12.721191
-248.94525 1040.3469 12.721191
-243.75897 1040.3469 12.721191
-238.57259 1040.3469 12.721191
-235.43761 1029.9781 36.565186
-230.20564 1029.9781 36.565186
-224.97366 1029.9781 36.565186
-219.74182 1029.9781 36.565186
-214.50984 1029.9781 36.565186
-209.27788 1029.9781 36.565186
-202.26804 1040.3469 12.721191
-197.08165 1040.3469 12.721191
-193.58208 1029.9781 36.565186
-186.70898 1040.3469 12.721191
-181.52261 1040.3469 12.721191
-176.33623 1040.3469 12.721191
-171.14984 1040.3469 12.721191
-165.96358 1040.3469 12.721191
-160.77718 1040.3469 12.721191
-155.59081 1040.3469 12.721191
-150.40443 1040.3469 12.721191
-145.21805 1040.3469 12.721191
-138.84827 1050.3169 -10.205811
-133.70572 1050.3169 -10.205811
-128.56317 1050.3169 -10.205811
-123.42062 1050.3169 -10.205811
-118.27808 1050.3169 -10.205811
-113.13563 1050.3169 -10.205811
-107.99309 1050.3169 -10.205811
-102.85054 1050.3169 -10.205811
-97.707985 1050.3169 -10.205811
-92.565445 1050.3169 -10.205811
-87.422989 1050.3169 -10.205811
-82.280449 1050.3169 -10.205811
-77.137901 1050.3169 -10.205811
-71.995354 1050.3169 -10.205811
-66.852806 1050.3169 -10.205811
-61.710361 1050.3169 -10.205811
-56.567814 1050.3169 -10.205811
-51.42527 1050.3169 -10.205811
-46.282722 1050.3169 -10.205811
-41.140175 1050.3169 -10.205811
-36.304562 1040.3469 12.721191
-31.118181 1040.3469 12.721191
-25.931801 1040.3469 12.721191
-20.927767 1029.9781 36.565186
-15.695801 1029.9781 36.565186
-10.555108 1019.6093 60.40918
-5.277554 1019.6093 60.40918
0 1019.6093 60.40918
5.2774534 1019.6093 60.40918
10.555108 1019.6093 60.40918
15.97458 1008.8417 85.170166
21.299576 1008.8417 85.170166
26.861067 998.07397 109.93164
32.52776 986.90759 135.60986
37.949188 986.90759 135.60986
43.763157 975.74121 161.28784
49.233688 975.74121 161.28784
54.704002 975.74121 161.28784
59.634293 986.90759 135.60986
65.055725 986.90759 135.60986
70.476952 986.90759 135.60986
75.898376 986.90759 135.60986
81.319603 986.90759 135.60986
86.740829 986.90759 135.60986
92.162254 986.90759 135.60986
97.583481 986.90759 135.60986
103.00491 986.90759 135.60986
108.42614 986.90759 135.60986
113.84736 986.90759 135.60986
119.26879 986.90759 135.60986
125.81916 975.74121 161.28784
131.28969 975.74121 161.28784
136.76001 975.74121 161.28784
140.9539 986.90759 135.60986
146.37532 986.90759 135.60986
