ply
format ascii 1.0
comment PCL generated
element vertex 1553
property float x
property float y
property float z
element camera 0
property float view_px
property float view_py
property float view_pz
property float x_axisx
property float x_axisy
property float x_axisz
property float y_axisx
property float y_axisy
property float y_axisz
property float z_axisx
property float z_axisy
property float z_axisz
property float focal
property float scalex
property float scaley
property float centerx
property float centery
property int viewportx
property int viewporty
property float k1
property float k2
end_header
47.497883 932.16541 23.291504
52.775333 932.16541 23.291504
-238.53748 892.09119 95.362549
-233.11615 892.09119 95.362549
-227.69493 892.09119 95.362549
-222.27361 892.09119 95.362549
-216.85228 892.09119 95.362549
-211.43095 892.09119 95.362549
-204.14407 904.11621 70.048828
-198.77194 904.11621 70.048828
-193.3997 904.11621 70.048828
-188.02748 904.11621 70.048828
-182.65524 904.11621 70.048828
-177.283 904.11621 70.048828
-171.91087 904.11621 70.048828
-166.53865 904.11621 70.048828
-159.7462 915.71191 45.638916
-154.42131 915.71191 45.638916
-149.09642 915.71191 45.638916
-143.77162 915.71191 45.638916
-138.44673 915.71191 45.638916
-133.12184 915.71191 45.638916
-127.79694 915.71191 45.638916
-122.47205 915.71191 45.638916
-117.14725 915.71191 45.638916
-111.82236 915.71191 45.638916
-106.49747 915.71191 45.638916
-101.17258 915.71191 45.638916
-95.847679 915.71191 45.638916
-91.327667 904.11621 70.048828
-85.955437 904.11621 70.048828
-80.583206 904.11621 70.048828
-75.210968 904.11621 70.048828
-69.838737 904.11621 70.048828
-65.055725 892.09119 95.362549
-59.634396 892.09119 95.362549
-54.21307 892.09119 95.362549
-48.79174 892.09119 95.362549
-44.16993 867.61157 146.89404
-38.648773 867.61157 146.89404
-33.127502 867.61157 146.89404
-27.606234 867.61157 146.89404
-22.084965 867.61157 146.89404
-15.559041 949.63965 -25.781738
-10.197426 971.11292 -70.985107
-5.0987129 971.11292 -70.985107
0 960.37622 -48.383545
5.1424484 960.37622 -48.383545
10.37276 949.63965 -25.781738
15.559041 949.63965 -25.781738
20.927866 938.47351 -2.276123
26.159735 938.47351 -2.276123
31.391602 938.47351 -2.276123
36.942772 927.30737 21.229492
42.22023 927.30737 21.229492
47.497883 927.30737 21.229492
52.775333 927.30737 21.229492
-233.11615 887.10095 93.244385
-227.69493 887.10095 93.244385
-222.27361 887.10095 93.244385
-214.88853 899.17114 67.949707
-209.5163 899.17114 67.949707
-204.14407 899.17114 67.949707
-198.77194 899.17114 67.949707
-193.3997 899.17114 67.949707
-188.02748 899.17114 67.949707
-182.65524 899.17114 67.949707
-177.283 899.17114 67.949707
-171.91087 899.17114 67.949707
-166.53865 899.17114 67.949707
-159.7462 910.8103 43.55835
-154.42131 910.8103 43.55835
-149.09642 910.8103 43.55835
-143.77162 910.8103 43.55835
-138.44673 910.8103 43.55835
-133.12184 910.8103 43.55835
-127.79694 910.8103 43.55835
-122.47205 910.8103 43.55835
-117.14725 910.8103 43.55835
-111.82236 910.8103 43.55835
-106.49747 910.8103 43.55835
-101.17258 910.8103 43.55835
-95.847679 910.8103 43.55835
-91.327667 899.17114 67.949707
-85.955437 899.17114 67.949707
-80.583206 899.17114 67.949707
-75.210968 899.17114 67.949707
-69.838737 899.17114 67.949707
-65.055725 887.10095 93.244385
-59.634396 887.10095 93.244385
-54.21307 887.10095 93.244385
-48.79174 887.10095 93.244385
-43.763157 875.03076 118.53882
-38.292843 875.03076 118.53882
-32.822422 875.03076 118.53882
-27.352001 875.03076 118.53882
-21.299473 910.8103 43.55835
-15.695801 933.65759 -4.3205566
-10.37276 944.8656 -27.80835
-5.1863799 944.8656 -27.80835
0 955.64258 -50.392822
5.1424484 955.64258 -50.392822
10.37276 944.8656 -27.80835
15.559041 944.8656 -27.80835
20.927866 933.65759 -4.3205566
26.159735 933.65759 -4.3205566
31.391602 933.65759 -4.3205566
36.942772 922.44946 19.167236
42.22023 922.44946 19.167236
47.497883 922.44946 19.167236
52.775333 922.44946 19.167236
-233.11615 882.1106 91.125977
-227.69493 882.1106 91.125977
-222.27361 882.1106 91.125977
-214.88853 894.22595 65.850586
-209.5163 894.22595 65.850586
-204.14407 894.22595 65.850586
-198.77194 894.22595 65.850586
-193.3997 894.22595 65.850586
-188.02748 894.22595 65.850586
-182.65524 894.22595 65.850586
-177.283 894.22595 65.850586
-171.91087 894.22595 65.850586
-165.07111 905.90869 41.477783
-159.7462 905.90869 41.477783
-154.42131 905.90869 41.477783
-149.09642 905.90869 41.477783
-143.77162 905.90869 41.477783
-138.44673 905.90869 41.477783
-133.12184 905.90869 41.477783
-127.79694 905.90869 41.477783
-122.47205 905.90869 41.477783
-117.14725 905.90869 41.477783
-111.82236 905.90869 41.477783
-106.49747 905.90869 41.477783
-101.17258 905.90869 41.477783
-95.847679 905.90869 41.477783
-91.327667 894.22595 65.850586
-85.955437 894.22595 65.850586
-80.583206 894.22595 65.850586
-75.210968 894.22595 65.850586
-69.838737 894.22595 65.850586
-65.055725 882.1106 91.125977
-59.634396 882.1106 91.125977
-54.21307 882.1106 91.125977
-48.79174 882.1106 91.125977
-43.763157 869.99512 116.40137
-38.292843 869.99512 116.40137
-32.822422 869.99512 116.40137
-27.352001 869.99512 116.40137
-21.299473 905.90869 41.477783
-15.83256 917.59143 17.105225
-10.37276 940.09143 -29.834717
-5.1863799 940.09143 -29.834717
0 950.90881 -52.4021
5.1424484 950.90881 -52.4021
10.37276 940.09143 -29.834717
15.559041 940.09143 -29.834717
20.74552 940.09143 -29.834717
26.159735 928.84143 -6.3647461
31.391602 928.84143 -6.3647461
36.942772 917.59143 17.105225
42.22023 917.59143 17.105225
47.497883 917.59143 17.105225
52.775333 917.59143 17.105225
-233.11615 877.12024 89.007812
-227.69493 877.12024 89.007812
-222.27361 877.12024 89.007812
-216.85228 877.12024 89.007812
-211.43095 877.12024 89.007812
-204.14407 889.28088 63.751465
-198.77194 889.28088 63.751465
-193.3997 889.28088 63.751465
-188.02748 889.28088 63.751465
-182.65524 889.28088 63.751465
-177.283 889.28088 63.751465
-171.91087 889.28088 63.751465
-165.07111 901.0072 39.397217
-159.7462 901.0072 39.397217
-154.42131 901.0072 39.397217
-149.09642 901.0072 39.397217
-143.77162 901.0072 39.397217
-138.44673 901.0072 39.397217
-133.12184 901.0072 39.397217
-127.79694 901.0072 39.397217
-122.47205 901.0072 39.397217
-117.14725 901.0072 39.397217
-111.82236 901.0072 39.397217
-106.49747 901.0072 39.397217
-101.17258 901.0072 39.397217
-96.699806 889.28088 63.751465
-91.327667 889.28088 63.751465
-85.955437 889.28088 63.751465
-80.583206 889.28088 63.751465
-75.898277 877.12024 89.007812
-70.476952 877.12024 89.007812
-65.055725 877.12024 89.007812
-59.634396 877.12024 89.007812
-54.21307 877.12024 89.007812
-48.79174 877.12024 89.007812
-43.370415 877.12024 89.007812
-38.292843 864.95972 114.26392
-32.527863 877.12024 89.007812
-27.106535 877.12024 89.007812
-21.299473 901.0072 39.397217
-15.83256 912.73352 15.043213
-10.37276 935.3175 -31.861328
-5.1863799 935.3175 -31.861328
0 946.17517 -54.411377
5.1424484 946.17517 -54.411377
10.37276 935.3175 -31.861328
15.559041 935.3175 -31.861328
20.74552 935.3175 -31.861328
26.159735 924.02551 -8.4089355
31.391602 924.02551 -8.4089355
36.623669 924.02551 -8.4089355
42.22023 912.73352 15.043213
47.497883 912.73352 15.043213
52.775333 912.73352 15.043213
58.052788 912.73352 15.043213
-233.11615 872.12988 86.889404
-227.69493 872.12988 86.889404
-222.27361 872.12988 86.889404
-216.85228 872.12988 86.889404
-211.43095 872.12988 86.889404
-204.14407 884.33557 61.652344
-198.77194 884.33557 61.652344
-193.3997 884.33557 61.652344
-188.02748 884.33557 61.652344
-182.65524 884.33557 61.652344
-175.72078 896.10559 37.31665
-170.396 896.10559 37.31665
-165.07111 896.10559 37.31665
-159.7462 896.10559 37.31665
-154.42131 896.10559 37.31665
-149.09642 896.10559 37.31665
-143.77162 896.10559 37.31665
-138.44673 896.10559 37.31665
-133.12184 896.10559 37.31665
-127.79694 896.10559 37.31665
-122.47205 896.10559 37.31665
-117.14725 896.10559 37.31665
-111.82236 896.10559 37.31665
-106.49747 896.10559 37.31665
-101.17258 896.10559 37.31665
-95.847679 896.10559 37.31665
-91.327667 884.33557 61.652344
-85.955437 884.33557 61.652344
-80.583206 884.33557 61.652344
-75.898277 872.12988 86.889404
-70.476952 872.12988 86.889404
-65.055725 872.12988 86.889404
-59.634396 872.12988 86.889404
-54.21307 872.12988 86.889404
-48.79174 872.12988 86.889404
-43.370415 872.12988 86.889404
-38.292843 859.92407 112.12622
-32.527863 872.12988 86.889404
-27.106535 872.12988 86.889404
-21.299473 896.10559 37.31665
-15.83256 907.87549 12.980957
-10.463933 919.20947 -10.453369
-5.2319665 919.20947 -10.453369
0 930.54333 -33.887695
5.1862807 930.54333 -33.887695
10.37276 930.54333 -33.887695
15.559041 930.54333 -33.887695
20.74552 930.54333 -33.887695
26.159735 919.20947 -10.453369
31.391602 919.20947 -10.453369
36.623669 919.20947 -10.453369
42.22023 907.87549 12.980957
47.497883 907.87549 12.980957
52.775333 907.87549 12.980957
58.052788 907.87549 12.980957
-233.11615 867.13965 84.77124
-227.69493 867.13965 84.77124
-222.27361 867.13965 84.77124
-216.85228 867.13965 84.77124
-211.43095 867.13965 84.77124
-204.14407 879.39062 59.553467
-198.77194 879.39062 59.553467
-193.3997 879.39062 59.553467
-188.02748 879.39062 59.553467
-182.65524 879.39062 59.553467
-175.72078 891.2041 35.236084
-170.396 891.2041 35.236084
-165.07111 891.2041 35.236084
-159.7462 891.2041 35.236084
-154.42131 891.2041 35.236084
-149.09642 891.2041 35.236084
-143.77162 891.2041 35.236084
-138.44673 891.2041 35.236084
-133.12184 891.2041 35.236084
-127.79694 891.2041 35.236084
-122.47205 891.2041 35.236084
-117.14725 891.2041 35.236084
-111.82236 891.2041 35.236084
-106.49747 891.2041 35.236084
-101.17258 891.2041 35.236084
-95.847679 891.2041 35.236084
-91.327667 879.39062 59.553467
-85.955437 879.39062 59.553467
-80.583206 879.39062 59.553467
-75.898277 867.13965 84.77124
-70.476952 867.13965 84.77124
-65.055725 867.13965 84.77124
-59.634396 867.13965 84.77124
-54.21307 867.13965 84.77124
-48.79174 867.13965 84.77124
-43.370415 867.13965 84.77124
-38.292843 854.88867 109.98901
-32.527863 867.13965 84.77124
-27.106535 867.13965 84.77124
-21.488834 879.39062 59.553467
-15.83256 903.01746 10.918945
-10.463933 914.39343 -12.497559
-5.2319665 914.39343 -12.497559
0 914.39343 -12.497559
5.2318668 914.39343 -12.497559
10.37276 925.76929 -35.914062
15.559041 925.76929 -35.914062
20.74552 925.76929 -35.914062
26.159735 914.39343 -12.497559
31.391602 914.39343 -12.497559
36.942772 903.01746 10.918945
42.22023 903.01746 10.918945
47.497883 903.01746 10.918945
53.248734 891.2041 35.236084
-235.22717 849.85303 107.85132
-227.69493 862.14917 82.653076
-222.27361 862.14917 82.653076
-214.88853 874.44531 57.454346
-209.5163 874.44531 57.454346
-204.14407 874.44531 57.454346
-198.77194 874.44531 57.454346
-193.3997 874.44531 57.454346
-188.02748 874.44531 57.454346
-182.65524 874.44531 57.454346
-175.72078 886.30249 33.155518
-170.396 886.30249 33.155518
-165.07111 886.30249 33.155518
-159.7462 886.30249 33.155518
-154.42131 886.30249 33.155518
-149.09642 886.30249 33.155518
-143.77162 886.30249 33.155518
-138.44673 886.30249 33.155518
-133.12184 886.30249 33.155518
-127.79694 886.30249 33.155518
-122.47205 886.30249 33.155518
-118.18874 874.44531 57.454346
-111.82236 886.30249 33.155518
-106.49747 886.30249 33.155518
-101.17258 886.30249 33.155518
-95.847679 886.30249 33.155518
-91.327667 874.44531 57.454346
-85.955437 874.44531 57.454346
-80.583206 874.44531 57.454346
-75.898277 862.14917 82.653076
-70.476952 862.14917 82.653076
-65.055725 862.14917 82.653076
-59.634396 862.14917 82.653076
-54.21307 862.14917 82.653076
-48.79174 862.14917 82.653076
-43.370415 862.14917 82.653076
-37.949188 862.14917 82.653076
-32.527863 862.14917 82.653076
-27.106535 862.14917 82.653076
-21.488834 874.44531 57.454346
-15.97458 886.30249 33.155518
-10.555108 898.15942 8.8569336
-5.2319665 909.57739 -14.541992
0 920.99524 -37.940674
5.1862807 920.99524 -37.940674
10.463933 909.57739 -14.541992
15.695801 909.57739 -14.541992
20.927866 909.57739 -14.541992
26.159735 909.57739 -14.541992
31.391602 909.57739 -14.541992
36.942772 898.15942 8.8569336
42.22023 898.15942 8.8569336
47.923943 886.30249 33.155518
53.248734 886.30249 33.155518
-235.22717 844.8175 105.71387
-227.69493 857.15881 80.534668
-222.27361 857.15881 80.534668
-214.88853 869.50012 55.355225
-209.5163 869.50012 55.355225
-204.14407 869.50012 55.355225
-198.77194 869.50012 55.355225
-193.3997 869.50012 55.355225
-188.02748 869.50012 55.355225
-182.65524 869.50012 55.355225
-175.72078 881.40088 31.074707
-170.396 881.40088 31.074707
-165.07111 881.40088 31.074707
-159.7462 881.40088 31.074707
-154.42131 881.40088 31.074707
-149.09642 881.40088 31.074707
-143.77162 881.40088 31.074707
-138.44673 881.40088 31.074707
-133.12184 881.40088 31.074707
-127.79694 881.40088 31.074707
-123.56087 869.50012 55.355225
-118.18874 869.50012 55.355225
-111.82236 881.40088 31.074707
-106.49747 881.40088 31.074707
-101.17258 881.40088 31.074707
-95.847679 881.40088 31.074707
-91.327667 869.50012 55.355225
-85.955437 869.50012 55.355225
-80.583206 869.50012 55.355225
-75.210968 869.50012 55.355225
-69.838737 869.50012 55.355225
-65.055725 857.15881 80.534668
-59.634396 857.15881 80.534668
-54.21307 857.15881 80.534668
-48.79174 857.15881 80.534668
-43.370415 857.15881 80.534668
-37.949188 857.15881 80.534668
-32.527863 857.15881 80.534668
-27.106535 857.15881 80.534668
-21.299473 881.40088 31.074707
-15.97458 881.40088 31.074707
-10.555108 893.30139 6.7946777
-5.2319665 904.76123 -16.586182
0 916.22107 -39.967041
5.1862807 916.22107 -39.967041
10.463933 904.76123 -16.586182
15.695801 904.76123 -16.586182
20.927866 904.76123 -16.586182
26.159735 904.76123 -16.586182
31.391602 904.76123 -16.586182
36.942772 893.30139 6.7946777
42.22023 893.30139 6.7946777
47.923943 881.40088 31.074707
53.248734 881.40088 31.074707
-235.22717 839.78198 103.57642
-227.69493 852.16858 78.416504
-222.27361 852.16858 78.416504
-216.85228 852.16858 78.416504
-211.43095 852.16858 78.416504
-204.14407 864.55505 53.256104
-198.77194 864.55505 53.256104
-193.3997 864.55505 53.256104
-188.02748 864.55505 53.256104
-182.65524 864.55505 53.256104
-175.72078 876.49927 28.994141
-170.396 876.49927 28.994141
-165.07111 876.49927 28.994141
-159.7462 876.49927 28.994141
-154.42131 876.49927 28.994141
-149.09642 876.49927 28.994141
-143.77162 876.49927 28.994141
-138.44673 876.49927 28.994141
-133.12184 876.49927 28.994141
-127.79694 876.49927 28.994141
-122.47205 876.49927 28.994141
-117.14725 876.49927 28.994141
-111.82236 876.49927 28.994141
-106.49747 876.49927 28.994141
-101.17258 876.49927 28.994141
-95.847679 876.49927 28.994141
-90.522888 876.49927 28.994141
-85.955437 864.55505 53.256104
-80.583206 864.55505 53.256104
-75.210968 864.55505 53.256104
-69.838737 864.55505 53.256104
-65.055725 852.16858 78.416504
-59.634396 852.16858 78.416504
-54.21307 852.16858 78.416504
-48.79174 852.16858 78.416504
-43.370415 852.16858 78.416504
-37.949188 852.16858 78.416504
-32.527863 852.16858 78.416504
-27.106535 852.16858 78.416504
-21.299473 876.49927 28.994141
-15.97458 876.49927 28.994141
-10.555108 888.44348 4.732666
-5.2319665 899.94531 -18.630371
0 899.94531 -18.630371
5.2318668 899.94531 -18.630371
10.463933 899.94531 -18.630371
15.695801 899.94531 -18.630371
20.927866 899.94531 -18.630371
26.159735 899.94531 -18.630371
31.391602 899.94531 -18.630371
36.942772 888.44348 4.732666
42.22023 888.44348 4.732666
47.923943 876.49927 28.994141
53.248734 876.49927 28.994141
58.573528 876.49927 28.994141
-227.69493 847.1781 76.298096
-222.27361 847.1781 76.298096
-216.85228 847.1781 76.298096
-211.43095 847.1781 76.298096
-204.14407 859.60986 51.156982
-198.77194 859.60986 51.156982
-193.3997 859.60986 51.156982
-188.02748 859.60986 51.156982
-182.65524 859.60986 51.156982
-175.72078 871.59766 26.913574
-170.396 871.59766 26.913574
-165.07111 871.59766 26.913574
-159.7462 871.59766 26.913574
-154.42131 871.59766 26.913574
-149.09642 871.59766 26.913574
-143.77162 871.59766 26.913574
-138.44673 871.59766 26.913574
-133.12184 871.59766 26.913574
-127.79694 871.59766 26.913574
-122.47205 871.59766 26.913574
-117.14725 871.59766 26.913574
-111.82236 871.59766 26.913574
-106.49747 871.59766 26.913574
-101.17258 871.59766 26.913574
-95.847679 871.59766 26.913574
-90.522888 871.59766 26.913574
-85.197998 871.59766 26.913574
-80.583206 859.60986 51.156982
-75.210968 859.60986 51.156982
-69.838737 859.60986 51.156982
-64.466599 859.60986 51.156982
-59.634396 847.1781 76.298096
-54.21307 847.1781 76.298096
-48.79174 847.1781 76.298096
-43.370415 847.1781 76.298096
-37.949188 847.1781 76.298096
-32.527863 847.1781 76.298096
-26.861067 859.60986 51.156982
-21.299473 871.59766 26.913574
-15.83256 883.58545 2.6704102
-10.555108 883.58545 2.6704102
-5.2319665 895.12927 -20.674805
0 895.12927 -20.674805
5.2318668 895.12927 -20.674805
10.463933 895.12927 -20.674805
15.695801 895.12927 -20.674805
20.927866 895.12927 -20.674805
26.159735 895.12927 -20.674805
31.665119 883.58545 2.6704102
36.942772 883.58545 2.6704102
42.22023 883.58545 2.6704102
47.923943 871.59766 26.913574
53.248734 871.59766 26.913574
58.573528 871.59766 26.913574
-227.69493 842.18787 74.179932
-222.27361 842.18787 74.179932
-216.85228 842.18787 74.179932
-211.43095 842.18787 74.179932
-204.14407 854.66479 49.057861
-198.77194 854.66479 49.057861
-193.3997 854.66479 49.057861
-188.02748 854.66479 49.057861
-182.65524 854.66479 49.057861
-175.72078 866.69617 24.833008
-170.396 866.69617 24.833008
-165.07111 866.69617 24.833008
-159.7462 866.69617 24.833008
-154.42131 866.69617 24.833008
-149.09642 866.69617 24.833008
-143.77162 866.69617 24.833008
-138.44673 866.69617 24.833008
-133.12184 866.69617 24.833008
-127.79694 866.69617 24.833008
-122.47205 866.69617 24.833008
-117.14725 866.69617 24.833008
-111.82236 866.69617 24.833008
-106.49747 866.69617 24.833008
-101.17258 866.69617 24.833008
-95.847679 866.69617 24.833008
-90.522888 866.69617 24.833008
-85.197998 866.69617 24.833008
-80.583206 854.66479 49.057861
-75.210968 854.66479 49.057861
-69.838737 854.66479 49.057861
-64.466599 854.66479 49.057861
-59.094368 854.66479 49.057861
-54.21307 842.18787 74.179932
-48.349903 854.66479 49.057861
-42.977669 854.66479 49.057861
-37.949188 842.18787 74.179932
-32.527863 842.18787 74.179932
-26.861067 854.66479 49.057861
-21.299473 866.69617 24.833008
-15.83256 878.72754 0.60839844
-10.463933 890.31323 -22.718994
-5.2319665 890.31323 -22.718994
0 890.31323 -22.718994
5.2318668 890.31323 -22.718994
10.463933 890.31323 -22.718994
15.695801 890.31323 -22.718994
20.927866 890.31323 -22.718994
26.387667 878.72754 0.60839844
31.665119 878.72754 0.60839844
36.942772 878.72754 0.60839844
42.22023 878.72754 0.60839844
47.497883 878.72754 0.60839844
53.248734 866.69617 24.833008
58.573528 866.69617 24.833008
-222.27361 837.19751 72.061523
-216.85228 837.19751 72.061523
-211.43095 837.19751 72.061523
-206.00961 837.19751 72.061523
-200.58839 837.19751 72.061523
-193.3997 849.71948 46.95874
-188.02748 849.71948 46.95874
-182.65524 849.71948 46.95874
-177.283 849.71948 46.95874
-171.91087 849.71948 46.95874
-166.53865 849.71948 46.95874
-159.7462 861.79456 22.752441
-154.42131 861.79456 22.752441
-149.09642 861.79456 22.752441
-143.77162 861.79456 22.752441
-138.44673 861.79456 22.752441
-133.12184 861.79456 22.752441
-127.79694 861.79456 22.752441
-122.47205 861.79456 22.752441
-117.14725 861.79456 22.752441
-111.82236 861.79456 22.752441
-106.49747 861.79456 22.752441
-101.17258 861.79456 22.752441
-95.847679 861.79456 22.752441
-90.522888 861.79456 22.752441
-85.197998 861.79456 22.752441
-79.8731 861.79456 22.752441
-75.210968 849.71948 46.95874
-69.838737 849.71948 46.95874
-64.466599 849.71948 46.95874
-59.094368 849.71948 46.95874
-53.722134 849.71948 46.95874
-48.349903 849.71948 46.95874
-42.977669 849.71948 46.95874
-37.949188 837.19751 72.061523
-32.527863 837.19751 72.061523
-27.352001 824.67529 97.164062
-21.299473 861.79456 22.752441
-15.97458 861.79456 22.752441
-10.463933 885.49719 -24.763428
-5.2319665 885.49719 -24.763428
0 885.49719 -24.763428
5.2318668 885.49719 -24.763428
10.463933 885.49719 -24.763428
15.695801 885.49719 -24.763428
20.927866 885.49719 -24.763428
26.387667 873.86938 -1.4536133
31.665119 873.86938 -1.4536133
36.942772 873.86938 -1.4536133
42.22023 873.86938 -1.4536133
47.497883 873.86938 -1.4536133
52.775333 873.86938 -1.4536133
58.052788 873.86938 -1.4536133
-224.28642 819.63989 95.026611
-216.85228 832.20715 69.943359
-211.43095 832.20715 69.943359
-206.00961 832.20715 69.943359
-200.58839 832.20715 69.943359
-195.16707 832.20715 69.943359
-188.02748 844.77454 44.859863
-182.65524 844.77454 44.859863
-177.283 844.77454 44.859863
-171.91087 844.77454 44.859863
-166.53865 844.77454 44.859863
-159.7462 856.89307 20.671875
-154.42131 856.89307 20.671875
-149.09642 856.89307 20.671875
-143.77162 856.89307 20.671875
-138.44673 856.89307 20.671875
-133.12184 856.89307 20.671875
-127.79694 856.89307 20.671875
-122.47205 856.89307 20.671875
-117.14725 856.89307 20.671875
-111.82236 856.89307 20.671875
-106.49747 856.89307 20.671875
-101.17258 856.89307 20.671875
-95.847679 856.89307 20.671875
-90.522888 856.89307 20.671875
-85.197998 856.89307 20.671875
-79.8731 856.89307 20.671875
-74.54821 856.89307 20.671875
-69.223312 856.89307 20.671875
-64.466599 844.77454 44.859863
-59.094368 844.77454 44.859863
-53.722134 844.77454 44.859863
-48.349903 844.77454 44.859863
-42.977669 844.77454 44.859863
-37.949188 832.20715 69.943359
-32.527863 832.20715 69.943359
-27.352001 819.63989 95.026611
-21.299473 856.89307 20.671875
-15.97458 856.89307 20.671875
-10.463933 880.68127 -26.807617
-5.2319665 880.68127 -26.807617
0 880.68127 -26.807617
5.2318668 880.68127 -26.807617
10.463933 880.68127 -26.807617
15.695801 880.68127 -26.807617
20.927866 880.68127 -26.807617
26.159735 880.68127 -26.807617
31.391602 880.68127 -26.807617
36.942772 869.01147 -3.515625
42.22023 869.01147 -3.515625
47.497883 869.01147 -3.515625
52.775333 869.01147 -3.515625
58.052788 869.01147 -3.515625
-216.85228 827.2168 67.824951
-211.43095 827.2168 67.824951
-206.00961 827.2168 67.824951
-200.58839 827.2168 67.824951
-195.16707 827.2168 67.824951
-188.02748 839.82935 42.760742
-182.65524 839.82935 42.760742
-177.283 839.82935 42.760742
-171.91087 839.82935 42.760742
-166.53865 839.82935 42.760742
-159.7462 851.99146 18.591309
-154.42131 851.99146 18.591309
-149.09642 851.99146 18.591309
-143.77162 851.99146 18.591309
-138.44673 851.99146 18.591309
-133.12184 851.99146 18.591309
-127.79694 851.99146 18.591309
-122.47205 851.99146 18.591309
-117.14725 851.99146 18.591309
-110.82822 864.15344 -5.5778809
-105.55067 864.15344 -5.5778809
-101.17258 851.99146 18.591309
-95.847679 851.99146 18.591309
-90.522888 851.99146 18.591309
-85.197998 851.99146 18.591309
-79.8731 851.99146 18.591309
-74.54821 851.99146 18.591309
-69.223312 851.99146 18.591309
-64.466599 839.82935 42.760742
-59.094368 839.82935 42.760742
-53.722134 839.82935 42.760742
-48.349903 839.82935 42.760742
-42.977669 839.82935 42.760742
-37.949188 827.2168 67.824951
-32.527863 827.2168 67.824951
-27.352001 814.60425 92.88916
-21.299473 851.99146 18.591309
-15.97458 851.99146 18.591309
-10.463933 875.86511 -28.851807
-5.2319665 875.86511 -28.851807
0 875.86511 -28.851807
5.2318668 875.86511 -28.851807
10.463933 875.86511 -28.851807
15.695801 875.86511 -28.851807
20.927866 875.86511 -28.851807
26.159735 875.86511 -28.851807
31.391602 875.86511 -28.851807
36.623669 875.86511 -28.851807
41.855534 875.86511 -28.851807
47.087601 875.86511 -28.851807
51.863602 887.57666 -52.125977
57.049881 887.57666 -52.125977
-211.43095 822.22656 65.706787
-206.00961 822.22656 65.706787
-200.58839 822.22656 65.706787
-195.16707 822.22656 65.706787
-188.02748 834.88416 40.661621
-182.65524 834.88416 40.661621
-177.283 834.88416 40.661621
-171.91087 834.88416 40.661621
-166.53865 834.88416 40.661621
-159.7462 847.08984 16.510742
-154.42131 847.08984 16.510742
-149.09642 847.08984 16.510742
-143.77162 847.08984 16.510742
-138.44673 847.08984 16.510742
-133.12184 847.08984 16.510742
-127.79694 847.08984 16.510742
-122.47205 847.08984 16.510742
-117.14725 847.08984 16.510742
-110.82822 859.29553 -7.6398926
-105.55067 859.29553 -7.6398926
-101.17258 847.08984 16.510742
-95.847679 847.08984 16.510742
-90.522888 847.08984 16.510742
-85.197998 847.08984 16.510742
-79.8731 847.08984 16.510742
-75.210968 834.88416 40.661621
-69.838737 834.88416 40.661621
-64.466599 834.88416 40.661621
-59.094368 834.88416 40.661621
-54.21307 822.22656 65.706787
-48.349903 834.88416 40.661621
-42.977669 834.88416 40.661621
-37.949188 822.22656 65.706787
-32.527863 822.22656 65.706787
-27.352001 809.56885 90.751709
-21.299473 847.08984 16.510742
-15.83256 859.29553 -7.6398926
-10.463933 871.04919 -30.89624
-5.2319665 871.04919 -30.89624
0 871.04919 -30.89624
5.2318668 871.04919 -30.89624
10.463933 871.04919 -30.89624
15.695801 871.04919 -30.89624
20.927866 871.04919 -30.89624
26.159735 871.04919 -30.89624
31.391602 871.04919 -30.89624
36.623669 871.04919 -30.89624
41.855534 871.04919 -30.89624
47.087601 871.04919 -30.89624
51.42527 894.10425 -76.51416
56.567715 894.10425 -76.51416
-213.3456 804.5332 88.614258
-207.87517 804.5332 88.614258
-200.58839 817.23608 63.588623
-193.3997 829.93896 38.5625
-188.02748 829.93896 38.5625
-182.65524 829.93896 38.5625
-177.283 829.93896 38.5625
-171.91087 829.93896 38.5625
-166.53865 829.93896 38.5625
-161.16641 829.93896 38.5625
-155.79417 829.93896 38.5625
-150.42194 829.93896 38.5625
-143.77162 842.18823 14.430176
-138.44673 842.18823 14.430176
-133.12184 842.18823 14.430176
-127.79694 842.18823 14.430176
-122.47205 842.18823 14.430176
-117.14725 842.18823 14.430176
-111.82236 842.18823 14.430176
-106.49747 842.18823 14.430176
-101.17258 842.18823 14.430176
-95.847679 842.18823 14.430176
-90.522888 842.18823 14.430176
-85.197998 842.18823 14.430176
-80.583206 829.93896 38.5625
-75.210968 829.93896 38.5625
-70.476952 817.23608 63.588623
-65.055725 817.23608 63.588623
-59.634396 817.23608 63.588623
-54.21307 817.23608 63.588623
-48.349903 829.93896 38.5625
-42.977669 829.93896 38.5625
-37.949188 817.23608 63.588623
-32.527863 817.23608 63.588623
-27.106535 817.23608 63.588623
-21.299473 842.18823 14.430176
-15.83256 854.4375 -9.7021484
-10.463933 866.23303 -32.94043
-5.2319665 866.23303 -32.94043
0 866.23303 -32.94043
5.2318668 866.23303 -32.94043
10.463933 866.23303 -32.94043
15.695801 866.23303 -32.94043
20.927866 866.23303 -32.94043
26.159735 866.23303 -32.94043
31.391602 866.23303 -32.94043
36.623669 866.23303 -32.94043
41.490841 878.02856 -56.178955
46.677322 878.02856 -56.178955
51.42527 889.37048 -78.523682
56.085552 900.7124 -100.86841
61.184364 900.7124 -100.86841
-207.87517 799.4978 86.476807
-200.58839 812.24585 61.470215
-193.3997 824.9939 36.463379
-188.02748 824.9939 36.463379
-182.65524 824.9939 36.463379
-177.283 824.9939 36.463379
-171.91087 824.9939 36.463379
-166.53865 824.9939 36.463379
-161.16641 824.9939 36.463379
-155.79417 824.9939 36.463379
-150.42194 824.9939 36.463379
-143.77162 837.28674 12.349609
-138.44673 837.28674 12.349609
-133.12184 837.28674 12.349609
-127.79694 837.28674 12.349609
-122.47205 837.28674 12.349609
-117.14725 837.28674 12.349609
-111.82236 837.28674 12.349609
-106.49747 837.28674 12.349609
-101.17258 837.28674 12.349609
-95.847679 837.28674 12.349609
-90.522888 837.28674 12.349609
-85.197998 837.28674 12.349609
-80.583206 824.9939 36.463379
-75.898277 812.24585 61.470215
-69.838737 824.9939 36.463379
-64.466599 824.9939 36.463379
-59.094368 824.9939 36.463379
-53.722134 824.9939 36.463379
-48.349903 824.9939 36.463379
-42.977669 824.9939 36.463379
-37.949188 812.24585 61.470215
-32.527863 812.24585 61.470215
-27.106535 812.24585 61.470215
-21.299473 837.28674 12.349609
-15.97458 837.28674 12.349609
-10.555108 849.57959 -11.76416
-5.2319665 861.41711 -34.984619
0 861.41711 -34.984619
5.2318668 861.41711 -34.984619
10.463933 861.41711 -34.984619
15.695801 861.41711 -34.984619
20.927866 861.41711 -34.984619
26.159735 861.41711 -34.984619
31.391602 861.41711 -34.984619
36.623669 861.41711 -34.984619
41.490841 873.25452 -58.205322
46.677322 873.25452 -58.205322
51.42527 884.63684 -80.532959
56.085552 896.01904 -102.8606
61.184364 896.01904 -102.8606
-207.87517 794.46216 84.339355
-200.58839 807.25537 59.352051
-195.16707 807.25537 59.352051
-189.74574 807.25537 59.352051
-184.32442 807.25537 59.352051
-177.283 820.04871 34.364258
-171.91087 820.04871 34.364258
-165.07111 832.38513 10.268799
-159.7462 832.38513 10.268799
-155.79417 820.04871 34.364258
-149.09642 832.38513 10.268799
-143.77162 832.38513 10.268799
-138.44673 832.38513 10.268799
-133.12184 832.38513 10.268799
-127.79694 832.38513 10.268799
-122.47205 832.38513 10.268799
-117.14725 832.38513 10.268799
-111.82236 832.38513 10.268799
-106.49747 832.38513 10.268799
-102.07204 820.04871 34.364258
-96.699806 820.04871 34.364258
-91.327667 820.04871 34.364258
-85.955437 820.04871 34.364258
-80.583206 820.04871 34.364258
-75.898277 807.25537 59.352051
-69.838737 820.04871 34.364258
-64.466599 820.04871 34.364258
-59.094368 820.04871 34.364258
-53.722134 820.04871 34.364258
-48.349903 820.04871 34.364258
-42.977669 820.04871 34.364258
-37.949188 807.25537 59.352051
-32.527863 807.25537 59.352051
-27.106535 807.25537 59.352051
-21.299473 832.38513 10.268799
-15.97458 832.38513 10.268799
-10.555108 844.72144 -13.826172
-5.2319665 856.60095 -37.029053
0 856.60095 -37.029053
5.2318668 856.60095 -37.029053
10.463933 856.60095 -37.029053
15.695801 856.60095 -37.029053
20.927866 856.60095 -37.029053
26.159735 856.60095 -37.029053
31.391602 856.60095 -37.029053
36.304562 868.48047 -60.231934
41.490841 868.48047 -60.231934
46.677322 868.48047 -60.231934
51.42527 879.90308 -82.542236
56.567715 879.90308 -82.542236
61.710361 879.90308 -82.542236
-200.58839 802.26514 57.233643
-195.16707 802.26514 57.233643
-189.74574 802.26514 57.233643
-184.32442 802.26514 57.233643
-177.283 815.10364 32.265137
-170.396 827.48364 8.1882324
-165.07111 827.48364 8.1882324
-159.7462 827.48364 8.1882324
-154.42131 827.48364 8.1882324
-149.09642 827.48364 8.1882324
-143.77162 827.48364 8.1882324
-138.44673 827.48364 8.1882324
-133.12184 827.48364 8.1882324
-127.79694 827.48364 8.1882324
-122.47205 827.48364 8.1882324
-117.14725 827.48364 8.1882324
-111.82236 827.48364 8.1882324
-106.49747 827.48364 8.1882324
-101.17258 827.48364 8.1882324
-95.847679 827.48364 8.1882324
-91.327667 815.10364 32.265137
-85.955437 815.10364 32.265137
-80.583206 815.10364 32.265137
-75.898277 802.26514 57.233643
-70.476952 802.26514 57.233643
-65.055725 802.26514 57.233643
-59.634396 802.26514 57.233643
-54.21307 802.26514 57.233643
-48.79174 802.26514 57.233643
-43.370415 802.26514 57.233643
-38.292843 789.42676 82.201904
-32.822422 789.42676 82.201904
-27.352001 789.42676 82.201904
-21.685207 802.26514 57.233643
-15.97458 827.48364 8.1882324
-10.555108 839.86353 -15.888184
-5.2319665 851.78503 -39.073242
0 851.78503 -39.073242
5.2318668 851.78503 -39.073242
10.463933 851.78503 -39.073242
15.695801 851.78503 -39.073242
20.927866 851.78503 -39.073242
26.159735 851.78503 -39.073242
31.391602 851.78503 -39.073242
36.304562 863.70642 -62.258301
41.490841 863.70642 -62.258301
46.677322 863.70642 -62.258301
51.42527 875.16943 -84.551758
56.567715 875.16943 -84.551758
61.710361 875.16943 -84.551758
-202.40485 784.39111 80.064453
-196.93442 784.39111 80.064453
-189.74574 797.27478 55.115479
-184.32442 797.27478 55.115479
-177.283 810.15845 30.166016
-170.396 822.58203 6.107666
-165.07111 822.58203 6.107666
-159.7462 822.58203 6.107666
-154.42131 822.58203 6.107666
-149.09642 822.58203 6.107666
-143.77162 822.58203 6.107666
-138.44673 822.58203 6.107666
-133.12184 822.58203 6.107666
-127.79694 822.58203 6.107666
-122.47205 822.58203 6.107666
-117.14725 822.58203 6.107666
-111.82236 822.58203 6.107666
-106.49747 822.58203 6.107666
-101.17258 822.58203 6.107666
-95.847679 822.58203 6.107666
-91.327667 810.15845 30.166016
-85.955437 810.15845 30.166016
-80.583206 810.15845 30.166016
-75.210968 810.15845 30.166016
-70.476952 797.27478 55.115479
-65.055725 797.27478 55.115479
-59.634396 797.27478 55.115479
-54.21307 797.27478 55.115479
-48.79174 797.27478 55.115479
-43.370415 797.27478 55.115479
-38.292843 784.39111 80.064453
-32.822422 784.39111 80.064453
-27.352001 784.39111 80.064453
-21.488834 810.15845 30.166016
-15.97458 822.58203 6.107666
-10.555108 835.00549 -17.950439
-5.277554 835.00549 -17.950439
0 846.96899 -41.117676
5.2318668 846.96899 -41.117676
10.463933 846.96899 -41.117676
15.695801 846.96899 -41.117676
20.927866 846.96899 -41.117676
26.159735 846.96899 -41.117676
31.391602 846.96899 -41.117676
36.623669 846.96899 -41.117676
41.855534 846.96899 -41.117676
47.087601 846.96899 -41.117676
51.863602 858.93225 -64.284912
57.049881 858.93225 -64.284912
-196.93442 779.35571 77.927002
-191.464 779.35571 77.927002
-185.99359 779.35571 77.927002
-177.283 805.21338 28.067139
-171.91087 805.21338 28.067139
-166.53865 805.21338 28.067139
-161.16641 805.21338 28.067139
-155.79417 805.21338 28.067139
-149.09642 817.68054 4.0270996
-143.77162 817.68054 4.0270996
-138.44673 817.68054 4.0270996
-133.12184 817.68054 4.0270996
-127.79694 817.68054 4.0270996
-122.47205 817.68054 4.0270996
-117.14725 817.68054 4.0270996
-111.82236 817.68054 4.0270996
-106.49747 817.68054 4.0270996
-101.17258 817.68054 4.0270996
-95.847679 817.68054 4.0270996
-91.327667 805.21338 28.067139
-85.955437 805.21338 28.067139
-80.583206 805.21338 28.067139
-75.210968 805.21338 28.067139
-70.476952 792.28455 52.99707
-65.055725 792.28455 52.99707
-59.634396 792.28455 52.99707
-54.21307 792.28455 52.99707
-48.79174 792.28455 52.99707
-43.370415 792.28455 52.99707
-37.949188 792.28455 52.99707
-32.822422 779.35571 77.927002
-27.352001 779.35571 77.927002
-21.488834 805.21338 28.067139
-15.97458 817.68054 4.0270996
-10.555108 830.14758 -20.012451
-5.277554 830.14758 -20.012451
0 842.15295 -43.161865
5.2318668 842.15295 -43.161865
10.463933 842.15295 -43.161865
15.695801 842.15295 -43.161865
20.927866 842.15295 -43.161865
26.159735 842.15295 -43.161865
31.391602 842.15295 -43.161865
36.623669 842.15295 -43.161865
41.855534 842.15295 -43.161865
47.087601 842.15295 -43.161865
52.319469 842.15295 -43.161865
57.551338 842.15295 -43.161865
-196.93442 774.32007 75.789551
-191.464 774.32007 75.789551
-185.99359 774.32007 75.789551
-178.90309 787.29407 50.878906
-171.91087 800.26807 25.968018
-166.53865 800.26807 25.968018
-161.16641 800.26807 25.968018
-155.79417 800.26807 25.968018
-150.42194 800.26807 25.968018
-143.77162 812.77893 1.9465332
-138.44673 812.77893 1.9465332
-133.12184 812.77893 1.9465332
-127.79694 812.77893 1.9465332
-122.47205 812.77893 1.9465332
-117.14725 812.77893 1.9465332
-111.82236 812.77893 1.9465332
-106.49747 812.77893 1.9465332
-102.07204 800.26807 25.968018
-96.699806 800.26807 25.968018
-91.327667 800.26807 25.968018
-86.740929 787.29407 50.878906
-81.319603 787.29407 50.878906
-75.898277 787.29407 50.878906
-70.476952 787.29407 50.878906
-65.055725 787.29407 50.878906
-59.634396 787.29407 50.878906
-54.21307 787.29407 50.878906
-48.79174 787.29407 50.878906
-43.370415 787.29407 50.878906
-37.949188 787.29407 50.878906
-32.527863 787.29407 50.878906
-27.106535 787.29407 50.878906
-21.488834 800.26807 25.968018
-15.97458 812.77893 1.9465332
-10.555108 825.28955 -22.074707
-5.277554 825.28955 -22.074707
0 825.28955 -22.074707
5.2318668 837.33691 -45.206055
10.463933 837.33691 -45.206055
15.695801 837.33691 -45.206055
20.927866 837.33691 -45.206055
26.159735 837.33691 -45.206055
31.391602 837.33691 -45.206055
36.623669 837.33691 -45.206055
41.855534 837.33691 -45.206055
47.087601 837.33691 -45.206055
52.319469 837.33691 -45.206055
57.551338 837.33691 -45.206055
63.898525 812.77893 1.9465332
-196.93442 769.28455 73.6521
-191.464 769.28455 73.6521
-185.99359 769.28455 73.6521
-178.90309 782.30371 48.760498
-173.48186 782.30371 48.760498
-166.53865 795.32288 23.868896
-161.16641 795.32288 23.868896
-155.79417 795.32288 23.868896
-150.42194 795.32288 23.868896
-143.77162 807.8772 -0.1340332
-138.44673 807.8772 -0.1340332
-133.12184 807.8772 -0.1340332
-127.79694 807.8772 -0.1340332
-122.47205 807.8772 -0.1340332
-117.14725 807.8772 -0.1340332
-111.82236 807.8772 -0.1340332
-106.49747 807.8772 -0.1340332
-102.07204 795.32288 23.868896
-96.699806 795.32288 23.868896
-91.327667 795.32288 23.868896
-86.740929 782.30371 48.760498
-81.319603 782.30371 48.760498
-75.898277 782.30371 48.760498
-70.476952 782.30371 48.760498
-65.055725 782.30371 48.760498
-59.634396 782.30371 48.760498
-54.21307 782.30371 48.760498
-48.349903 795.32288 23.868896
-42.977669 795.32288 23.868896
-37.605534 795.32288 23.868896
-32.527863 782.30371 48.760498
-27.106535 782.30371 48.760498
-21.488834 795.32288 23.868896
-15.97458 807.8772 -0.1340332
-10.555108 820.43152 -24.136719
-5.277554 820.43152 -24.136719
0 832.52075 -47.250488
5.2318668 832.52075 -47.250488
10.463933 832.52075 -47.250488
15.695801 832.52075 -47.250488
20.927866 832.52075 -47.250488
26.159735 832.52075 -47.250488
31.391602 832.52075 -47.250488
36.942772 820.43152 -24.136719
42.22023 820.43152 -24.136719
47.497883 820.43152 -24.136719
52.775333 820.43152 -24.136719
58.052788 820.43152 -24.136719
63.898525 807.8772 -0.1340332
69.223312 807.8772 -0.1340332
-196.93442 764.24902 71.514648
-191.464 764.24902 71.514648
-185.99359 764.24902 71.514648
-178.90309 777.31348 46.642334
-173.48186 777.31348 46.642334
-166.53865 790.37781 21.769775
-161.16641 790.37781 21.769775
-155.79417 790.37781 21.769775
-150.42194 790.37781 21.769775
-143.77162 802.97571 -2.2145996
-138.44673 802.97571 -2.2145996
-133.12184 802.97571 -2.2145996
-127.79694 802.97571 -2.2145996
-122.47205 802.97571 -2.2145996
-117.14725 802.97571 -2.2145996
-111.82236 802.97571 -2.2145996
-107.44427 790.37781 21.769775
-102.07204 790.37781 21.769775
-96.699806 790.37781 21.769775
-92.162254 777.31348 46.642334
-86.740929 777.31348 46.642334
-81.319603 777.31348 46.642334
-75.898277 777.31348 46.642334
-70.476952 777.31348 46.642334
-65.055725 777.31348 46.642334
-59.094368 790.37781 21.769775
-53.722134 790.37781 21.769775
-48.349903 790.37781 21.769775
-42.977669 790.37781 21.769775
-37.605534 790.37781 21.769775
-32.527863 777.31348 46.642334
-27.106535 777.31348 46.642334
-21.488834 790.37781 21.769775
-15.97458 802.97571 -2.2145996
-10.555108 815.57349 -26.19873
-5.277554 815.57349 -26.19873
0 827.70483 -49.294678
5.2318668 827.70483 -49.294678
10.463933 827.70483 -49.294678
15.695801 827.70483 -49.294678
20.927866 827.70483 -49.294678
26.159735 827.70483 -49.294678
31.391602 827.70483 -49.294678
36.623669 827.70483 -49.294678
42.22023 815.57349 -26.19873
47.497883 815.57349 -26.19873
52.775333 815.57349 -26.19873
58.052788 815.57349 -26.19873
63.898525 802.97571 -2.2145996
69.223312 802.97571 -2.2145996
-210.05991 703.9657 174.11646
-204.38258 703.9657 174.11646
-200.60764 689.45142 201.63281
-194.87598 689.45142 201.63281
-178.90309 772.323 44.523926
-173.48186 772.323 44.523926
-168.06053 772.323 44.523926
-162.63921 772.323 44.523926
-157.21788 772.323 44.523926
-150.42194 785.43262 19.670654
-143.77162 798.0741 -4.295166
-138.44673 798.0741 -4.295166
-134.30534 785.43262 19.670654
-128.93311 785.43262 19.670654
-123.56087 785.43262 19.670654
-118.18874 785.43262 19.670654
-112.81651 785.43262 19.670654
-107.44427 785.43262 19.670654
-103.00481 772.323 44.523926
-97.583481 772.323 44.523926
-92.162254 772.323 44.523926
-86.740929 772.323 44.523926
-81.319603 772.323 44.523926
-75.898277 772.323 44.523926
-70.476952 772.323 44.523926
-65.055725 772.323 44.523926
-59.094368 785.43262 19.670654
-53.722134 785.43262 19.670654
-48.349903 785.43262 19.670654
-42.598946 798.0741 -4.295166
-37.274155 798.0741 -4.295166
-32.233299 785.43262 19.670654
-26.861067 785.43262 19.670654
-21.488834 785.43262 19.670654
-15.97458 798.0741 -4.295166
-10.555108 810.71545 -28.260986
-5.277554 810.71545 -28.260986
0 822.88867 -51.339111
5.2318668 822.88867 -51.339111
10.463933 822.88867 -51.339111
15.695801 822.88867 -51.339111
20.927866 822.88867 -51.339111
26.159735 822.88867 -51.339111
31.391602 822.88867 -51.339111
36.623669 822.88867 -51.339111
42.22023 810.71545 -28.260986
47.497883 810.71545 -28.260986
52.775333 810.71545 -28.260986
58.052788 810.71545 -28.260986
63.898525 798.0741 -4.295166
-225.65399 669.61133 226.88818
-219.86795 669.61133 226.88818
-210.05991 698.73975 171.89819
-204.38258 698.73975 171.89819
-200.60764 684.17554 199.39331
-194.87598 684.17554 199.39331
-180.52318 754.17798 67.239746
-175.05284 754.17798 67.239746
-168.06053 767.33276 42.405762
-162.63921 767.33276 42.405762
-157.21788 767.33276 42.405762
-151.79655 767.33276 42.405762
-146.37532 767.33276 42.405762
-139.67758 780.48755 17.571533
-134.30534 780.48755 17.571533
-128.93311 780.48755 17.571533
-123.56087 780.48755 17.571533
-118.18874 780.48755 17.571533
-112.81651 780.48755 17.571533
-107.44427 780.48755 17.571533
-103.00481 767.33276 42.405762
-97.583481 767.33276 42.405762
-92.162254 767.33276 42.405762
-86.740929 767.33276 42.405762
-81.319603 767.33276 42.405762
-75.898277 767.33276 42.405762
-70.476952 767.33276 42.405762
-64.466599 780.48755 17.571533
-59.094368 780.48755 17.571533
-53.722134 780.48755 17.571533
-47.92384 793.17261 -6.3759766
-42.598946 793.17261 -6.3759766
-37.274155 793.17261 -6.3759766
-31.949263 793.17261 -6.3759766
-26.624367 793.17261 -6.3759766
-21.299473 793.17261 -6.3759766
-15.83256 805.85754 -30.322998
-10.555108 805.85754 -30.322998
-5.277554 805.85754 -30.322998
0 818.07275 -53.383301
5.2318668 818.07275 -53.383301
10.463933 818.07275 -53.383301
15.695801 818.07275 -53.383301
20.927866 818.07275 -53.383301
26.159735 818.07275 -53.383301
31.391602 818.07275 -53.383301
36.623669 818.07275 -53.383301
42.22023 805.85754 -30.322998
47.497883 805.85754 -30.322998
52.775333 805.85754 -30.322998
58.052788 805.85754 -30.322998
63.898525 793.17261 -6.3759766
-225.65399 664.28516 224.62744
-217.80254 678.89941 197.15381
-210.05991 693.51379 169.67993
-204.38258 693.51379 169.67993
-198.70528 693.51379 169.67993
-193.02797 693.51379 169.67993
-180.52318 749.14246 65.102295
-175.05284 749.14246 65.102295
-169.58243 749.14246 65.102295
-162.63921 762.34241 40.287598
-157.21788 762.34241 40.287598
-151.79655 762.34241 40.287598
-146.37532 762.34241 40.287598
-139.67758 775.54236 15.472412
-134.30534 775.54236 15.472412
-128.93311 775.54236 15.472412
-123.56087 775.54236 15.472412
-118.18874 775.54236 15.472412
-112.81651 775.54236 15.472412
-107.44427 775.54236 15.472412
-103.00481 762.34241 40.287598
-97.583481 762.34241 40.287598
-92.162254 762.34241 40.287598
-86.740929 762.34241 40.287598
-81.319603 762.34241 40.287598
-75.898277 762.34241 40.287598
-69.838737 775.54236 15.472412
-64.466599 775.54236 15.472412
-59.094368 775.54236 15.472412
-53.722134 775.54236 15.472412
-47.92384 788.271 -8.456543
-42.598946 788.271 -8.456543
-37.274155 788.271 -8.456543
-31.949263 788.271 -8.456543
-26.624367 788.271 -8.456543
-21.299473 788.271 -8.456543
-15.83256 800.99951 -32.38501
-10.555108 800.99951 -32.38501
-5.2319665 813.25671 -55.427734
0 813.25671 -55.427734
5.2318668 813.25671 -55.427734
10.463933 813.25671 -55.427734
15.695801 813.25671 -55.427734
20.927866 813.25671 -55.427734
26.159735 813.25671 -55.427734
31.391602 813.25671 -55.427734
36.623669 813.25671 -55.427734
42.22023 800.99951 -32.38501
47.497883 800.99951 -32.38501
52.775333 800.99951 -32.38501
58.052788 800.99951 -32.38501
63.898525 788.271 -8.456543
-229.26587 673.62354 194.91431
-223.53421 673.62354 194.91431
-215.73711 688.28784 167.46167
-210.05991 688.28784 167.46167
-204.38258 688.28784 167.46167
-196.86427 702.47913 140.89478
-189.45117 716.67041 114.32788
-180.52318 744.10693 62.964844
-175.05284 744.10693 62.964844
-169.58243 744.10693 62.964844
-162.63921 757.35205 38.169189
-157.21788 757.35205 38.169189
-151.79655 757.35205 38.169189
-146.37532 757.35205 38.169189
-140.95399 757.35205 38.169189
-135.53267 757.35205 38.169189
-128.93311 770.59729 13.373291
-123.56087 770.59729 13.373291
-118.18874 770.59729 13.373291
-112.81651 770.59729 13.373291
-108.42614 757.35205 38.169189
-103.00481 757.35205 38.169189
-97.583481 757.35205 38.169189
-92.162254 757.35205 38.169189
-86.740929 757.35205 38.169189
-81.319603 757.35205 38.169189
-75.210968 770.59729 13.373291
-69.838737 770.59729 13.373291
-64.466599 770.59729 13.373291
-59.094368 770.59729 13.373291
-53.722134 770.59729 13.373291
-47.92384 783.36951 -10.537109
-42.598946 783.36951 -10.537109
-37.274155 783.36951 -10.537109
-31.949263 783.36951 -10.537109
-26.624367 783.36951 -10.537109
-21.299473 783.36951 -10.537109
-15.83256 796.1416 -34.447266
-10.555108 796.1416 -34.447266
-5.2319665 808.44067 -57.471924
0 808.44067 -57.471924
5.2318668 808.44067 -57.471924
10.463933 808.44067 -57.471924
15.695801 808.44067 -57.471924
20.927866 808.44067 -57.471924
26.159735 808.44067 -57.471924
31.391602 808.44067 -57.471924
36.623669 808.44067 -57.471924
42.22023 796.1416 -34.447266
47.497883 796.1416 -34.447266
52.775333 796.1416 -34.447266
58.052788 796.1416 -34.447266
-227.09174 683.06177 165.24341
-221.41443 683.06177 165.24341
-215.73711 683.06177 165.24341
-210.05991 683.06177 165.24341
-204.38258 683.06177 165.24341
-196.86427 697.30151 138.69702
-189.45117 711.54126 112.15063
-182.2011 725.30615 86.489014
-175.05284 739.07129 60.827393
-169.58243 739.07129 60.827393
-161.16641 765.6521 11.27417
-155.79417 765.6521 11.27417
-151.79655 752.36169 36.051025
-146.37532 752.36169 36.051025
-140.95399 752.36169 36.051025
-135.53267 752.36169 36.051025
-130.11134 752.36169 36.051025
-124.69002 752.36169 36.051025
-119.26879 752.36169 36.051025
-113.84747 752.36169 36.051025
-108.42614 752.36169 36.051025
-103.00481 752.36169 36.051025
-97.583481 752.36169 36.051025
-92.162254 752.36169 36.051025
-86.740929 752.36169 36.051025
-81.319603 752.36169 36.051025
-75.210968 765.6521 11.27417
-69.838737 765.6521 11.27417
-64.466599 765.6521 11.27417
-59.094368 765.6521 11.27417
-53.722134 765.6521 11.27417
-47.92384 778.46777 -12.617676
-42.598946 778.46777 -12.617676
-37.274155 778.46777 -12.617676
-32.233299 765.6521 11.27417
-26.861067 765.6521 11.27417
-21.299473 778.46777 -12.617676
-15.83256 791.28357 -36.509277
-10.555108 791.28357 -36.509277
-5.277554 791.28357 -36.509277
0 803.62463 -59.516113
5.2318668 803.62463 -59.516113
10.463933 803.62463 -59.516113
15.695801 803.62463 -59.516113
20.927866 803.62463 -59.516113
26.159735 803.62463 -59.516113
31.391602 803.62463 -59.516113
36.623669 803.62463 -59.516113
41.855534 803.62463 -59.516113
47.497883 791.28357 -36.509277
52.775333 791.28357 -36.509277
58.052788 791.28357 -36.509277
-227.09174 677.83594 163.02515
-221.41443 677.83594 163.02515
-217.80254 663.07153 190.43506
-212.07098 663.07153 190.43506
-208.29602 648.30713 217.84521
-202.51001 648.30713 217.84521
-191.23956 692.12402 136.49951
-182.2011 720.224 84.331787
-176.67995 720.224 84.331787
-171.15868 720.224 84.331787
-161.16641 760.70703 9.175293
-155.79417 760.70703 9.175293
-150.42194 760.70703 9.175293
-146.37532 747.37146 33.932617
-140.95399 747.37146 33.932617
-135.53267 747.37146 33.932617
-130.11134 747.37146 33.932617
-124.69002 747.37146 33.932617
-119.26879 747.37146 33.932617
-113.84747 747.37146 33.932617
-108.42614 747.37146 33.932617
-103.00481 747.37146 33.932617
-97.583481 747.37146 33.932617
-92.162254 747.37146 33.932617
-86.740929 747.37146 33.932617
-81.319603 747.37146 33.932617
-75.210968 760.70703 9.175293
-69.838737 760.70703 9.175293
-64.466599 760.70703 9.175293
-59.094368 760.70703 9.175293
-53.722134 760.70703 9.175293
-47.92384 773.56641 -14.698242
-42.598946 773.56641 -14.698242
-37.274155 773.56641 -14.698242
-32.233299 760.70703 9.175293
-26.861067 760.70703 9.175293
