ply
format ascii 1.0
comment PCL generated
element vertex 1579
property float x
property float y
property float z
element camera 0
property float view_px
property float view_py
property float view_pz
property float x_axisx
property float x_axisy
property float x_axisz
property float y_axisx
property float y_axisy
property float y_axisz
property float z_axisx
property float z_axisy
property float z_axisz
property float focal
property float scalex
property float scaley
property float centerx
property float centery
property int viewportx
property int viewporty
property float k1
property float k2
end_header
359.98047 852.62817 204.62939
365.60507 852.62817 204.62939
371.22968 852.62817 204.62939
380.37869 839.84106 231.79224
386.05594 839.84106 231.79224
391.73334 839.84106 231.79224
397.41055 839.84106 231.79224
403.08774 839.84106 231.79224
408.76517 839.84106 231.79224
414.44241 839.84106 231.79224
420.11981 839.84106 231.79224
425.79703 839.84106 231.79224
435.60507 826.62769 259.8606
-357.66946 834.61523 229.57397
-348.73102 847.45081 202.43164
-343.10632 847.45081 202.43164
-334.32562 860.28638 175.28906
-328.75351 860.28638 175.28906
-323.1814 860.28638 175.28906
-320.60754 847.45081 202.43164
-314.98285 847.45081 202.43164
-309.35815 847.45081 202.43164
-303.73343 847.45081 202.43164
-174.36551 847.45081 202.43164
-168.7408 847.45081 202.43164
-163.1161 847.45081 202.43164
-156.01857 860.28638 175.28906
-150.44656 860.28638 175.28906
-144.87445 860.28638 175.28906
-138.03117 872.69397 149.05151
-132.5099 872.69397 149.05151
-125.81916 885.10181 122.81372
-120.34885 885.10181 122.81372
-114.87842 885.10181 122.81372
-109.408 885.10181 122.81372
-103.93758 885.10181 122.81372
-98.467163 885.10181 122.81372
-92.996849 885.10181 122.81372
-87.526421 885.10181 122.81372
-81.319603 897.08167 97.480957
-75.898277 897.08167 97.480957
-70.476952 897.08167 97.480957
-65.055725 897.08167 97.480957
-59.634396 897.08167 97.480957
-54.21307 897.08167 97.480957
-48.79174 897.08167 97.480957
-43.763157 885.10181 122.81372
-38.292843 885.10181 122.81372
-32.822422 885.10181 122.81372
-27.352001 885.10181 122.81372
-21.881578 885.10181 122.81372
-16.41116 885.10181 122.81372
-10.940842 885.10181 122.81372
-5.4704208 885.10181 122.81372
0 885.10181 122.81372
5.4703169 885.10181 122.81372
10.940842 885.10181 122.81372
16.41116 885.10181 122.81372
21.881683 885.10181 122.81372
27.352001 885.10181 122.81372
32.822319 885.10181 122.81372
38.292843 885.10181 122.81372
43.763157 885.10181 122.81372
49.691303 872.69397 149.05151
55.212467 872.69397 149.05151
60.733631 872.69397 149.05151
66.255005 872.69397 149.05151
71.776169 872.69397 149.05151
77.297546 872.69397 149.05151
82.818703 872.69397 149.05151
88.339859 872.69397 149.05151
93.861237 872.69397 149.05151
99.382401 872.69397 149.05151
104.90378 872.69397 149.05151
110.42493 872.69397 149.05151
115.9461 872.69397 149.05151
121.46747 872.69397 149.05151
126.98864 872.69397 149.05151
133.73033 860.28638 175.28906
139.30234 860.28638 175.28906
144.87434 860.28638 175.28906
150.44656 860.28638 175.28906
156.01857 860.28638 175.28906
161.59081 860.28638 175.28906
168.7408 847.45081 202.43164
174.36542 847.45081 202.43164
179.99023 847.45081 202.43164
185.61484 847.45081 202.43164
191.23967 847.45081 202.43164
196.86427 847.45081 202.43164
204.38248 834.61523 229.57397
210.05991 834.61523 229.57397
215.73711 834.61523 229.57397
221.41454 834.61523 229.57397
227.09174 834.61523 229.57397
359.98047 847.45081 202.43164
365.60507 847.45081 202.43164
371.22968 847.45081 202.43164
380.37869 834.61523 229.57397
386.05594 834.61523 229.57397
391.73334 834.61523 229.57397
397.41055 834.61523 229.57397
403.08774 834.61523 229.57397
408.76517 834.61523 229.57397
414.44241 834.61523 229.57397
420.11981 834.61523 229.57397
425.79703 834.61523 229.57397
435.60507 821.35181 257.62109
-359.98038 842.27319 200.23389
-354.35565 842.27319 200.23389
-348.73102 842.27319 200.23389
-343.10632 842.27319 200.23389
-334.32562 855.1571 173.11182
-328.75351 855.1571 173.11182
-323.1814 855.1571 173.11182
-320.60754 842.27319 200.23389
-314.98285 842.27319 200.23389
-309.35815 842.27319 200.23389
-303.73343 842.27319 200.23389
-174.36551 842.27319 200.23389
-168.7408 842.27319 200.23389
-163.1161 842.27319 200.23389
-157.49138 842.27319 200.23389
-150.44656 855.1571 173.11182
-144.87445 855.1571 173.11182
-139.30234 855.1571 173.11182
-132.5099 867.61157 146.89404
-125.81916 880.06616 120.67627
-120.34885 880.06616 120.67627
-114.87842 880.06616 120.67627
-109.408 880.06616 120.67627
-103.93758 880.06616 120.67627
-98.467163 880.06616 120.67627
-92.996849 880.06616 120.67627
-87.526421 880.06616 120.67627
-82.056 880.06616 120.67627
-75.898277 892.09119 95.362549
-70.476952 892.09119 95.362549
-65.055725 892.09119 95.362549
-59.634396 892.09119 95.362549
-54.21307 892.09119 95.362549
-48.79174 892.09119 95.362549
-43.763157 880.06616 120.67627
-38.292843 880.06616 120.67627
-32.822422 880.06616 120.67627
-27.352001 880.06616 120.67627
-22.084965 867.61157 146.89404
-16.41116 880.06616 120.67627
-10.940842 880.06616 120.67627
-5.4704208 880.06616 120.67627
0 880.06616 120.67627
5.4703169 880.06616 120.67627
10.940842 880.06616 120.67627
16.41116 880.06616 120.67627
21.881683 880.06616 120.67627
27.352001 880.06616 120.67627
32.822319 880.06616 120.67627
38.292843 880.06616 120.67627
43.763157 880.06616 120.67627
49.233688 880.06616 120.67627
55.212467 867.61157 146.89404
60.733631 867.61157 146.89404
66.255005 867.61157 146.89404
71.776169 867.61157 146.89404
77.297546 867.61157 146.89404
82.818703 867.61157 146.89404
88.339859 867.61157 146.89404
93.861237 867.61157 146.89404
99.382401 867.61157 146.89404
104.90378 867.61157 146.89404
110.42493 867.61157 146.89404
115.9461 867.61157 146.89404
121.46747 867.61157 146.89404
126.98864 867.61157 146.89404
133.73033 855.1571 173.11182
139.30234 855.1571 173.11182
144.87434 855.1571 173.11182
150.44656 855.1571 173.11182
156.01857 855.1571 173.11182
161.59081 855.1571 173.11182
168.7408 842.27319 200.23389
174.36542 842.27319 200.23389
179.99023 842.27319 200.23389
185.61484 842.27319 200.23389
191.23967 842.27319 200.23389
196.86427 842.27319 200.23389
204.38248 829.38916 227.35571
210.05991 829.38916 227.35571
215.73711 829.38916 227.35571
221.41454 829.38916 227.35571
227.09174 829.38916 227.35571
359.98047 842.27319 200.23389
365.60507 842.27319 200.23389
371.22968 842.27319 200.23389
380.37869 829.38916 227.35571
386.05594 829.38916 227.35571
391.73334 829.38916 227.35571
397.41055 829.38916 227.35571
403.08774 829.38916 227.35571
408.76517 829.38916 227.35571
414.44241 829.38916 227.35571
420.11981 829.38916 227.35571
425.79703 829.38916 227.35571
435.60507 816.07568 255.38159
-362.18607 850.02808 170.93481
-356.61398 850.02808 170.93481
-351.04187 850.02808 170.93481
-348.73102 837.0957 198.03613
-343.10632 837.0957 198.03613
-334.32562 850.02808 170.93481
-328.75351 850.02808 170.93481
-323.1814 850.02808 170.93481
-317.60934 850.02808 170.93481
-312.03726 850.02808 170.93481
-306.46515 850.02808 170.93481
-300.89304 850.02808 170.93481
-298.10873 837.0957 198.03613
-179.99023 837.0957 198.03613
-174.36551 837.0957 198.03613
-168.7408 837.0957 198.03613
-163.1161 837.0957 198.03613
-157.49138 837.0957 198.03613
-150.44656 850.02808 170.93481
-144.87445 850.02808 170.93481
-139.30234 850.02808 170.93481
-132.5099 862.5293 144.73682
-125.81916 875.03076 118.53882
-120.34885 875.03076 118.53882
-114.87842 875.03076 118.53882
-109.408 875.03076 118.53882
-103.93758 875.03076 118.53882
-98.467163 875.03076 118.53882
-92.996849 875.03076 118.53882
-87.526421 875.03076 118.53882
-82.056 875.03076 118.53882
-75.898277 887.10095 93.244385
-70.476952 887.10095 93.244385
-65.644844 875.03076 118.53882
-60.174423 875.03076 118.53882
-54.704002 875.03076 118.53882
-49.233582 875.03076 118.53882
-43.763157 875.03076 118.53882
-38.292843 875.03076 118.53882
-32.822422 875.03076 118.53882
-27.352001 875.03076 118.53882
-22.084965 862.5293 144.73682
-16.563698 862.5293 144.73682
-11.042537 862.5293 144.73682
-5.4704208 875.03076 118.53882
0 875.03076 118.53882
5.4703169 875.03076 118.53882
10.940842 875.03076 118.53882
16.41116 875.03076 118.53882
21.881683 875.03076 118.53882
27.352001 875.03076 118.53882
32.822319 875.03076 118.53882
38.292843 875.03076 118.53882
43.763157 875.03076 118.53882
49.233688 875.03076 118.53882
54.704002 875.03076 118.53882
60.174316 875.03076 118.53882
65.644844 875.03076 118.53882
71.776169 862.5293 144.73682
77.297546 862.5293 144.73682
82.818703 862.5293 144.73682
88.339859 862.5293 144.73682
93.861237 862.5293 144.73682
99.382401 862.5293 144.73682
104.90378 862.5293 144.73682
110.42493 862.5293 144.73682
115.9461 862.5293 144.73682
121.46747 862.5293 144.73682
128.15811 850.02808 170.93481
133.73033 850.02808 170.93481
139.30234 850.02808 170.93481
146.24194 837.0957 198.03613
150.44656 850.02808 170.93481
156.01857 850.02808 170.93481
161.59081 850.02808 170.93481
167.16281 850.02808 170.93481
172.73482 850.02808 170.93481
179.99023 837.0957 198.03613
185.61484 837.0957 198.03613
191.23967 837.0957 198.03613
196.86427 837.0957 198.03613
204.38248 824.16333 225.13745
210.05991 824.16333 225.13745
215.73711 824.16333 225.13745
221.41454 824.16333 225.13745
227.09174 824.16333 225.13745
232.76895 824.16333 225.13745
354.35565 837.0957 198.03613
359.98047 837.0957 198.03613
365.60507 837.0957 198.03613
371.22968 837.0957 198.03613
380.37869 824.16333 225.13745
386.05594 824.16333 225.13745
391.73334 824.16333 225.13745
397.41055 824.16333 225.13745
403.08774 824.16333 225.13745
408.76517 824.16333 225.13745
414.44241 824.16333 225.13745
420.11981 824.16333 225.13745
425.79703 824.16333 225.13745
431.47421 824.16333 225.13745
437.15164 824.16333 225.13745
-362.18607 844.8988 168.75757
-356.61398 844.8988 168.75757
-351.04187 844.8988 168.75757
-345.46982 844.8988 168.75757
-343.10632 831.91797 195.83838
-334.32562 844.8988 168.75757
-328.75351 844.8988 168.75757
-323.1814 844.8988 168.75757
-317.60934 844.8988 168.75757
-312.03726 844.8988 168.75757
-306.46515 844.8988 168.75757
-300.89304 844.8988 168.75757
-295.32092 844.8988 168.75757
-179.99023 831.91797 195.83838
-174.36551 831.91797 195.83838
-168.7408 831.91797 195.83838
-163.1161 831.91797 195.83838
-157.49138 831.91797 195.83838
-151.86678 831.91797 195.83838
-144.87445 844.8988 168.75757
-139.30234 844.8988 168.75757
-132.5099 857.4469 142.57959
-126.98864 857.4469 142.57959
-120.34885 869.99512 116.40137
-114.87842 869.99512 116.40137
-109.408 869.99512 116.40137
-103.93758 869.99512 116.40137
-98.467163 869.99512 116.40137
-92.996849 869.99512 116.40137
-87.526421 869.99512 116.40137
-82.056 869.99512 116.40137
-76.585587 869.99512 116.40137
-71.115158 869.99512 116.40137
-65.644844 869.99512 116.40137
-60.174423 869.99512 116.40137
-54.704002 869.99512 116.40137
-49.233582 869.99512 116.40137
-43.763157 869.99512 116.40137
-38.292843 869.99512 116.40137
-32.822422 869.99512 116.40137
-27.352001 869.99512 116.40137
-22.084965 857.4469 142.57959
-16.563698 857.4469 142.57959
-11.042537 857.4469 142.57959
-5.5212684 857.4469 142.57959
0 869.99512 116.40137
5.4703169 869.99512 116.40137
10.940842 869.99512 116.40137
16.41116 869.99512 116.40137
21.881683 869.99512 116.40137
27.352001 869.99512 116.40137
32.822319 869.99512 116.40137
38.292843 869.99512 116.40137
43.763157 869.99512 116.40137
49.233688 869.99512 116.40137
54.704002 869.99512 116.40137
60.174316 869.99512 116.40137
65.644844 869.99512 116.40137
71.776169 857.4469 142.57959
77.297546 857.4469 142.57959
82.818703 857.4469 142.57959
88.339859 857.4469 142.57959
93.861237 857.4469 142.57959
99.382401 857.4469 142.57959
104.90378 857.4469 142.57959
110.42493 857.4469 142.57959
115.9461 857.4469 142.57959
121.46747 857.4469 142.57959
126.98864 857.4469 142.57959
133.73033 844.8988 168.75757
139.30234 844.8988 168.75757
144.87434 844.8988 168.75757
150.44656 844.8988 168.75757
156.01857 844.8988 168.75757
161.59081 844.8988 168.75757
167.16281 844.8988 168.75757
172.73482 844.8988 168.75757
179.99023 831.91797 195.83838
185.61484 831.91797 195.83838
191.23967 831.91797 195.83838
196.86427 831.91797 195.83838
204.38248 818.93726 222.91895
210.05991 818.93726 222.91895
215.73711 818.93726 222.91895
221.41454 818.93726 222.91895
227.09174 818.93726 222.91895
232.76895 818.93726 222.91895
351.04187 844.8988 168.75757
356.61407 844.8988 168.75757
365.60507 831.91797 195.83838
371.22968 831.91797 195.83838
376.85449 831.91797 195.83838
386.05594 818.93726 222.91895
391.73334 818.93726 222.91895
397.41055 818.93726 222.91895
403.08774 818.93726 222.91895
408.76517 818.93726 222.91895
414.44241 818.93726 222.91895
420.11981 818.93726 222.91895
425.79703 818.93726 222.91895
431.47421 818.93726 222.91895
437.15164 818.93726 222.91895
-362.18607 839.76978 166.58032
-356.61398 839.76978 166.58032
-351.04187 839.76978 166.58032
-345.46982 839.76978 166.58032
-339.89771 839.76978 166.58032
-334.32562 839.76978 166.58032
-328.75351 839.76978 166.58032
-323.1814 839.76978 166.58032
-317.60934 839.76978 166.58032
-312.03726 839.76978 166.58032
-306.46515 839.76978 166.58032
-300.89304 839.76978 166.58032
-295.32092 839.76978 166.58032
-179.99023 826.7406 193.64062
-174.36551 826.7406 193.64062
-168.7408 826.7406 193.64062
-163.1161 826.7406 193.64062
-157.49138 826.7406 193.64062
-151.86678 826.7406 193.64062
-144.87445 839.76978 166.58032
-139.30234 839.76978 166.58032
-132.5099 852.36462 140.42212
-126.98864 852.36462 140.42212
-120.34885 864.95972 114.26392
-114.87842 864.95972 114.26392
-109.408 864.95972 114.26392
-103.93758 864.95972 114.26392
-98.467163 864.95972 114.26392
-92.996849 864.95972 114.26392
-87.526421 864.95972 114.26392
-82.056 864.95972 114.26392
-76.585587 864.95972 114.26392
-71.115158 864.95972 114.26392
-65.644844 864.95972 114.26392
-60.174423 864.95972 114.26392
-54.704002 864.95972 114.26392
-48.79174 877.12024 89.007812
-43.370415 877.12024 89.007812
-38.292843 864.95972 114.26392
-32.822422 864.95972 114.26392
-27.352001 864.95972 114.26392
-22.084965 852.36462 140.42212
-16.563698 852.36462 140.42212
-11.042537 852.36462 140.42212
-5.5212684 852.36462 140.42212
0 852.36462 140.42212
5.521163 852.36462 140.42212
11.042537 852.36462 140.42212
16.41116 864.95972 114.26392
21.881683 864.95972 114.26392
27.352001 864.95972 114.26392
32.822319 864.95972 114.26392
38.292843 864.95972 114.26392
43.763157 864.95972 114.26392
49.233688 864.95972 114.26392
55.212467 852.36462 140.42212
60.733631 852.36462 140.42212
66.255005 852.36462 140.42212
71.776169 852.36462 140.42212
77.297546 852.36462 140.42212
82.818703 852.36462 140.42212
88.339859 852.36462 140.42212
93.861237 852.36462 140.42212
99.382401 852.36462 140.42212
104.90378 852.36462 140.42212
110.42493 852.36462 140.42212
115.9461 852.36462 140.42212
121.46747 852.36462 140.42212
126.98864 852.36462 140.42212
133.73033 839.76978 166.58032
139.30234 839.76978 166.58032
144.87434 839.76978 166.58032
150.44656 839.76978 166.58032
156.01857 839.76978 166.58032
161.59081 839.76978 166.58032
167.16281 839.76978 166.58032
172.73482 839.76978 166.58032
179.99023 826.7406 193.64062
185.61484 826.7406 193.64062
191.23967 826.7406 193.64062
198.70528 813.7113 220.70068
204.38248 813.7113 220.70068
210.05991 813.7113 220.70068
215.73711 813.7113 220.70068
221.41454 813.7113 220.70068
227.09174 813.7113 220.70068
232.76895 813.7113 220.70068
345.46982 839.76978 166.58032
351.04187 839.76978 166.58032
356.61407 839.76978 166.58032
365.60507 826.7406 193.64062
371.22968 826.7406 193.64062
376.85449 826.7406 193.64062
386.05594 813.7113 220.70068
391.73334 813.7113 220.70068
397.41055 813.7113 220.70068
403.08774 813.7113 220.70068
408.76517 813.7113 220.70068
414.44241 813.7113 220.70068
420.11981 813.7113 220.70068
425.79703 813.7113 220.70068
431.47421 813.7113 220.70068
437.15164 813.7113 220.70068
-365.60507 821.56299 191.44287
-356.61398 834.64062 164.40308
-351.04187 834.64062 164.40308
-345.46982 834.64062 164.40308
-339.89771 834.64062 164.40308
-334.32562 834.64062 164.40308
-328.75351 834.64062 164.40308
-323.1814 834.64062 164.40308
-317.60934 834.64062 164.40308
-312.03726 834.64062 164.40308
-306.46515 834.64062 164.40308
-300.89304 834.64062 164.40308
-298.10873 821.56299 191.44287
-179.99023 821.56299 191.44287
-174.36551 821.56299 191.44287
-168.7408 821.56299 191.44287
-163.1161 821.56299 191.44287
-157.49138 821.56299 191.44287
-151.86678 821.56299 191.44287
-144.87445 834.64062 164.40308
-138.03117 847.28223 138.26489
-132.5099 847.28223 138.26489
-125.81916 859.92407 112.12622
-120.34885 859.92407 112.12622
-114.87842 859.92407 112.12622
-109.408 859.92407 112.12622
-103.93758 859.92407 112.12622
-98.467163 859.92407 112.12622
-92.996849 859.92407 112.12622
-87.526421 859.92407 112.12622
-82.056 859.92407 112.12622
-76.585587 859.92407 112.12622
-71.115158 859.92407 112.12622
-65.644844 859.92407 112.12622
-60.174423 859.92407 112.12622
-54.704002 859.92407 112.12622
-48.79174 872.12988 86.889404
-43.370415 872.12988 86.889404
-37.949188 872.12988 86.889404
-32.527863 872.12988 86.889404
-27.106535 872.12988 86.889404
-21.881578 859.92407 112.12622
-16.41116 859.92407 112.12622
-10.940842 859.92407 112.12622
-5.5212684 847.28223 138.26489
0 847.28223 138.26489
5.521163 847.28223 138.26489
11.042537 847.28223 138.26489
16.563698 847.28223 138.26489
22.085073 847.28223 138.26489
27.352001 859.92407 112.12622
32.822319 859.92407 112.12622
38.648773 847.28223 138.26489
44.16993 847.28223 138.26489
49.691303 847.28223 138.26489
55.212467 847.28223 138.26489
60.733631 847.28223 138.26489
66.255005 847.28223 138.26489
71.776169 847.28223 138.26489
77.297546 847.28223 138.26489
82.818703 847.28223 138.26489
88.339859 847.28223 138.26489
93.861237 847.28223 138.26489
99.382401 847.28223 138.26489
104.90378 847.28223 138.26489
110.42493 847.28223 138.26489
115.9461 847.28223 138.26489
122.58611 834.64062 164.40308
128.15811 834.64062 164.40308
133.73033 834.64062 164.40308
139.30234 834.64062 164.40308
144.87434 834.64062 164.40308
150.44656 834.64062 164.40308
156.01857 834.64062 164.40308
161.59081 834.64062 164.40308
167.16281 834.64062 164.40308
172.73482 834.64062 164.40308
179.99023 821.56299 191.44287
185.61484 821.56299 191.44287
191.23967 821.56299 191.44287
198.70528 808.48535 218.48242
204.38248 808.48535 218.48242
210.05991 808.48535 218.48242
215.73711 808.48535 218.48242
221.41454 808.48535 218.48242
227.09174 808.48535 218.48242
232.76895 808.48535 218.48242
345.46982 834.64062 164.40308
351.04187 834.64062 164.40308
356.61407 834.64062 164.40308
365.60507 821.56299 191.44287
371.22968 821.56299 191.44287
376.85449 821.56299 191.44287
382.47913 821.56299 191.44287
391.73334 808.48535 218.48242
397.41055 808.48535 218.48242
403.08774 808.48535 218.48242
408.76517 808.48535 218.48242
414.44241 808.48535 218.48242
416.22742 821.56299 191.44287
421.85202 821.56299 191.44287
427.47662 821.56299 191.44287
437.15164 808.48535 218.48242
-362.18607 829.51147 162.22607
-356.61398 829.51147 162.22607
-351.04187 829.51147 162.22607
-345.46982 829.51147 162.22607
-339.89771 829.51147 162.22607
-334.32562 829.51147 162.22607
-328.75351 829.51147 162.22607
-323.1814 829.51147 162.22607
-317.60934 829.51147 162.22607
-312.03726 829.51147 162.22607
-306.46515 829.51147 162.22607
-300.89304 829.51147 162.22607
-298.10873 816.3855 189.24512
-179.99023 816.3855 189.24512
-174.36551 816.3855 189.24512
-168.7408 816.3855 189.24512
-163.1161 816.3855 189.24512
-157.49138 816.3855 189.24512
-151.86678 816.3855 189.24512
-144.87445 829.51147 162.22607
-138.03117 842.19995 136.10767
-132.5099 842.19995 136.10767
-125.81916 854.88867 109.98901
-120.34885 854.88867 109.98901
-114.87842 854.88867 109.98901
-109.408 854.88867 109.98901
-103.93758 854.88867 109.98901
-98.467163 854.88867 109.98901
-92.996849 854.88867 109.98901
-87.526421 854.88867 109.98901
-82.056 854.88867 109.98901
-76.585587 854.88867 109.98901
-71.115158 854.88867 109.98901
-65.644844 854.88867 109.98901
-60.174423 854.88867 109.98901
-54.704002 854.88867 109.98901
-48.79174 867.13965 84.77124
-43.370415 867.13965 84.77124
-37.949188 867.13965 84.77124
-32.527863 867.13965 84.77124
-27.106535 867.13965 84.77124
-21.881578 854.88867 109.98901
-16.41116 854.88867 109.98901
-10.940842 854.88867 109.98901
-5.5212684 842.19995 136.10767
0 842.19995 136.10767
5.521163 842.19995 136.10767
11.042537 842.19995 136.10767
16.563698 842.19995 136.10767
22.085073 842.19995 136.10767
27.606234 842.19995 136.10767
33.127396 842.19995 136.10767
38.648773 842.19995 136.10767
44.16993 842.19995 136.10767
49.691303 842.19995 136.10767
55.212467 842.19995 136.10767
60.733631 842.19995 136.10767
66.255005 842.19995 136.10767
71.776169 842.19995 136.10767
77.297546 842.19995 136.10767
82.818703 842.19995 136.10767
88.339859 842.19995 136.10767
93.861237 842.19995 136.10767
99.382401 842.19995 136.10767
104.90378 842.19995 136.10767
110.42493 842.19995 136.10767
115.9461 842.19995 136.10767
122.58611 829.51147 162.22607
126.98864 842.19995 136.10767
132.51001 842.19995 136.10767
139.30234 829.51147 162.22607
144.87434 829.51147 162.22607
150.44656 829.51147 162.22607
156.01857 829.51147 162.22607
161.59081 829.51147 162.22607
167.16281 829.51147 162.22607
172.73482 829.51147 162.22607
179.99023 816.3855 189.24512
185.61484 816.3855 189.24512
191.23967 816.3855 189.24512
198.70528 803.2594 216.26416
204.38248 803.2594 216.26416
210.05991 803.2594 216.26416
215.73711 803.2594 216.26416
223.53432 789.6958 244.18384
229.26587 789.6958 244.18384
234.99742 789.6958 244.18384
345.46982 829.51147 162.22607
351.04187 829.51147 162.22607
356.61407 829.51147 162.22607
365.60507 816.3855 189.24512
371.22968 816.3855 189.24512
376.85449 816.3855 189.24512
382.47913 816.3855 189.24512
391.73334 803.2594 216.26416
393.72855 816.3855 189.24512
399.35315 816.3855 189.24512
404.97797 816.3855 189.24512
414.44241 803.2594 216.26416
416.22742 816.3855 189.24512
421.85202 816.3855 189.24512
427.47662 816.3855 189.24512
437.15164 803.2594 216.26416
-358.88104 837.11768 133.9502
-353.3598 837.11768 133.9502
-347.8385 837.11768 133.9502
-342.31735 837.11768 133.9502
-339.89771 824.38232 160.04883
-334.32562 824.38232 160.04883
-328.75351 824.38232 160.04883
-323.1814 824.38232 160.04883
-317.60934 824.38232 160.04883
-314.98285 811.20776 187.04736
-309.35815 811.20776 187.04736
-303.73343 811.20776 187.04736
-174.36551 811.20776 187.04736
-168.7408 811.20776 187.04736
-163.1161 811.20776 187.04736
-157.49138 811.20776 187.04736
-151.86678 811.20776 187.04736
-144.87445 824.38232 160.04883
-138.03117 837.11768 133.9502
-132.5099 837.11768 133.9502
-126.98864 837.11768 133.9502
-120.34885 849.85303 107.85132
-114.87842 849.85303 107.85132
-109.408 849.85303 107.85132
-103.93758 849.85303 107.85132
-98.467163 849.85303 107.85132
-92.996849 849.85303 107.85132
-87.526421 849.85303 107.85132
-82.056 849.85303 107.85132
-76.585587 849.85303 107.85132
-71.115158 849.85303 107.85132
-65.644844 849.85303 107.85132
-60.174423 849.85303 107.85132
-54.704002 849.85303 107.85132
-49.233582 849.85303 107.85132
-43.763157 849.85303 107.85132
-37.949188 862.14917 82.653076
-32.527863 862.14917 82.653076
-27.352001 849.85303 107.85132
-21.881578 849.85303 107.85132
-16.563698 837.11768 133.9502
-11.042537 837.11768 133.9502
-5.5212684 837.11768 133.9502
0 837.11768 133.9502
5.521163 837.11768 133.9502
11.042537 837.11768 133.9502
16.563698 837.11768 133.9502
22.085073 837.11768 133.9502
27.606234 837.11768 133.9502
33.127396 837.11768 133.9502
38.648773 837.11768 133.9502
44.16993 837.11768 133.9502
49.691303 837.11768 133.9502
55.212467 837.11768 133.9502
60.733631 837.11768 133.9502
66.255005 837.11768 133.9502
71.776169 837.11768 133.9502
77.297546 837.11768 133.9502
82.818703 837.11768 133.9502
88.339859 837.11768 133.9502
93.861237 837.11768 133.9502
99.382401 837.11768 133.9502
104.90378 837.11768 133.9502
110.42493 837.11768 133.9502
115.9461 837.11768 133.9502
122.58611 824.38232 160.04883
126.98864 837.11768 133.9502
132.51001 837.11768 133.9502
139.30234 824.38232 160.04883
144.87434 824.38232 160.04883
150.44656 824.38232 160.04883
156.01857 824.38232 160.04883
161.59081 824.38232 160.04883
167.16281 824.38232 160.04883
172.73482 824.38232 160.04883
179.99023 811.20776 187.04736
185.61484 811.20776 187.04736
191.23967 811.20776 187.04736
198.70528 798.03333 214.0459
204.38248 798.03333 214.0459
210.05991 798.03333 214.0459
217.80254 784.41968 241.94434
223.53432 784.41968 241.94434
229.26587 784.41968 241.94434
345.46982 824.38232 160.04883
351.04187 824.38232 160.04883
359.98047 811.20776 187.04736
365.60507 811.20776 187.04736
371.22968 811.20776 187.04736
376.85449 811.20776 187.04736
382.47913 811.20776 187.04736
391.73334 798.03333 214.0459
393.72855 811.20776 187.04736
399.35315 811.20776 187.04736
404.97797 811.20776 187.04736
414.44241 798.03333 214.0459
416.22742 811.20776 187.04736
421.85202 811.20776 187.04736
427.47662 811.20776 187.04736
437.15164 798.03333 214.0459
-347.8385 832.03516 131.79297
-342.31735 832.03516 131.79297
-339.89771 819.25305 157.87158
-334.32562 819.25305 157.87158
-328.75351 819.25305 157.87158
-323.1814 819.25305 157.87158
-320.60754 806.03015 184.84961
-314.98285 806.03015 184.84961
-309.35815 806.03015 184.84961
-303.73343 806.03015 184.84961
-174.36551 806.03015 184.84961
-168.7408 806.03015 184.84961
-163.1161 806.03015 184.84961
-157.49138 806.03015 184.84961
-151.86678 806.03015 184.84961
-144.87445 819.25305 157.87158
-138.03117 832.03516 131.79297
-132.5099 832.03516 131.79297
-126.98864 832.03516 131.79297
-120.34885 844.8175 105.71387
-114.87842 844.8175 105.71387
-109.408 844.8175 105.71387
-103.93758 844.8175 105.71387
-98.467163 844.8175 105.71387
-92.996849 844.8175 105.71387
-87.526421 844.8175 105.71387
-82.056 844.8175 105.71387
-76.585587 844.8175 105.71387
-71.115158 844.8175 105.71387
-65.644844 844.8175 105.71387
-60.174423 844.8175 105.71387
-54.704002 844.8175 105.71387
-49.233582 844.8175 105.71387
-43.763157 844.8175 105.71387
-38.292843 844.8175 105.71387
-32.822422 844.8175 105.71387
-27.352001 844.8175 105.71387
-22.084965 832.03516 131.79297
-16.563698 832.03516 131.79297
-11.042537 832.03516 131.79297
-5.5212684 832.03516 131.79297
0 832.03516 131.79297
5.521163 832.03516 131.79297
11.042537 832.03516 131.79297
16.563698 832.03516 131.79297
22.085073 832.03516 131.79297
27.606234 832.03516 131.79297
33.127396 832.03516 131.79297
38.648773 832.03516 131.79297
44.16993 832.03516 131.79297
49.691303 832.03516 131.79297
55.212467 832.03516 131.79297
60.733631 832.03516 131.79297
66.255005 832.03516 131.79297
71.776169 832.03516 131.79297
77.297546 832.03516 131.79297
82.818703 832.03516 131.79297
88.339859 832.03516 131.79297
93.861237 832.03516 131.79297
99.382401 832.03516 131.79297
104.90378 832.03516 131.79297
110.42493 832.03516 131.79297
115.9461 832.03516 131.79297
122.58611 819.25305 157.87158
126.98864 832.03516 131.79297
132.51001 832.03516 131.79297
139.30234 819.25305 157.87158
144.87434 819.25305 157.87158
150.44656 819.25305 157.87158
156.01857 819.25305 157.87158
161.59081 819.25305 157.87158
167.16281 819.25305 157.87158
172.73482 819.25305 157.87158
179.99023 806.03015 184.84961
185.61484 806.03015 184.84961
193.02808 792.80725 211.82764
198.70528 792.80725 211.82764
204.38248 792.80725 211.82764
210.05991 792.80725 211.82764
217.80254 779.14355 239.70483
223.53432 779.14355 239.70483
229.26587 779.14355 239.70483
357.66946 792.80725 211.82764
363.34686 792.80725 211.82764
369.02408 792.80725 211.82764
374.70129 792.80725 211.82764
380.37869 792.80725 211.82764
386.05594 792.80725 211.82764
391.73334 792.80725 211.82764
397.41055 792.80725 211.82764
403.08774 792.80725 211.82764
408.76517 792.80725 211.82764
414.44241 792.80725 211.82764
420.11981 792.80725 211.82764
425.79703 792.80725 211.82764
431.47421 792.80725 211.82764
437.15164 792.80725 211.82764
-347.8385 826.953 129.6355
-342.31735 826.953 129.6355
-339.89771 814.12402 155.69434
-334.32562 814.12402 155.69434
-331.8569 800.85278 182.65186
-326.23221 800.85278 182.65186
-320.60754 800.85278 182.65186
-314.98285 800.85278 182.65186
-309.35815 800.85278 182.65186
-303.73343 800.85278 182.65186
-174.36551 800.85278 182.65186
-168.7408 800.85278 182.65186
-163.1161 800.85278 182.65186
-157.49138 800.85278 182.65186
-150.44656 814.12402 155.69434
-144.87445 814.12402 155.69434
-138.03117 826.953 129.6355
-132.5099 826.953 129.6355
-126.98864 826.953 129.6355
-120.34885 839.78198 103.57642
-114.87842 839.78198 103.57642
-109.408 839.78198 103.57642
-103.93758 839.78198 103.57642
-98.467163 839.78198 103.57642
-92.996849 839.78198 103.57642
-87.526421 839.78198 103.57642
-82.056 839.78198 103.57642
-76.585587 839.78198 103.57642
-71.115158 839.78198 103.57642
-65.644844 839.78198 103.57642
-60.174423 839.78198 103.57642
-54.704002 839.78198 103.57642
-49.233582 839.78198 103.57642
-43.763157 839.78198 103.57642
-38.292843 839.78198 103.57642
-32.822422 839.78198 103.57642
-27.352001 839.78198 103.57642
-22.084965 826.953 129.6355
-16.563698 826.953 129.6355
-11.042537 826.953 129.6355
-5.5212684 826.953 129.6355
0 826.953 129.6355
5.521163 826.953 129.6355
11.042537 826.953 129.6355
16.563698 826.953 129.6355
22.085073 826.953 129.6355
27.606234 826.953 129.6355
33.127396 826.953 129.6355
38.648773 826.953 129.6355
44.16993 826.953 129.6355
49.691303 826.953 129.6355
55.212467 826.953 129.6355
60.733631 826.953 129.6355
66.255005 826.953 129.6355
71.776169 826.953 129.6355
77.297546 826.953 129.6355
82.818703 826.953 129.6355
88.339859 826.953 129.6355
93.861237 826.953 129.6355
99.382401 826.953 129.6355
104.90378 826.953 129.6355
110.42493 826.953 129.6355
115.9461 826.953 129.6355
122.58611 814.12402 155.69434
128.15811 814.12402 155.69434
133.73033 814.12402 155.69434
139.30234 814.12402 155.69434
144.87434 814.12402 155.69434
150.44656 814.12402 155.69434
156.01857 814.12402 155.69434
161.59081 814.12402 155.69434
167.16281 814.12402 155.69434
172.73482 814.12402 155.69434
179.99023 800.85278 182.65186
185.61484 800.85278 182.65186
193.02808 787.58142 209.60938
198.70528 787.58142 209.60938
206.33919 773.86768 237.46533
212.07098 773.86768 237.46533
217.80254 773.86768 237.46533
223.53432 773.86768 237.46533
229.26587 773.86768 237.46533
363.34686 787.58142 209.60938
369.02408 787.58142 209.60938
374.70129 787.58142 209.60938
380.37869 787.58142 209.60938
386.05594 787.58142 209.60938
391.73334 787.58142 209.60938
397.41055 787.58142 209.60938
403.08774 787.58142 209.60938
408.76517 787.58142 209.60938
414.44241 787.58142 209.60938
420.11981 787.58142 209.60938
425.79703 787.58142 209.60938
431.47421 787.58142 209.60938
-347.8385 821.87061 127.47827
-342.31735 821.87061 127.47827
-339.89771 808.99487 153.51709
-337.4816 795.67505 180.4541
-331.8569 795.67505 180.4541
-326.23221 795.67505 180.4541
-320.60754 795.67505 180.4541
-317.92847 782.35535 207.39087
-312.25116 782.35535 207.39087
-168.7408 795.67505 180.4541
-163.1161 795.67505 180.4541
-157.49138 795.67505 180.4541
-150.44656 808.99487 153.51709
-144.87445 808.99487 153.51709
-138.03117 821.87061 127.47827
-132.5099 821.87061 127.47827
-126.98864 821.87061 127.47827
-120.34885 834.74634 101.43896
-114.87842 834.74634 101.43896
-109.408 834.74634 101.43896
-103.93758 834.74634 101.43896
-98.467163 834.74634 101.43896
-92.996849 834.74634 101.43896
-87.526421 834.74634 101.43896
-82.056 834.74634 101.43896
-76.585587 834.74634 101.43896
-71.115158 834.74634 101.43896
-65.644844 834.74634 101.43896
-60.174423 834.74634 101.43896
-54.704002 834.74634 101.43896
-49.233582 834.74634 101.43896
-43.763157 834.74634 101.43896
-38.292843 834.74634 101.43896
-32.822422 834.74634 101.43896
-27.352001 834.74634 101.43896
-22.084965 821.87061 127.47827
-16.563698 821.87061 127.47827
-11.042537 821.87061 127.47827
-5.5212684 821.87061 127.47827
0 821.87061 127.47827
5.521163 821.87061 127.47827
11.042537 821.87061 127.47827
16.563698 821.87061 127.47827
22.085073 821.87061 127.47827
27.606234 821.87061 127.47827
33.127396 821.87061 127.47827
38.648773 821.87061 127.47827
44.16993 821.87061 127.47827
49.691303 821.87061 127.47827
55.212467 821.87061 127.47827
60.733631 821.87061 127.47827
66.255005 821.87061 127.47827
71.776169 821.87061 127.47827
77.297546 821.87061 127.47827
82.818703 821.87061 127.47827
89.153404 808.99487 153.51709
94.725632 808.99487 153.51709
100.29764 808.99487 153.51709
105.86987 808.99487 153.51709
111.44187 808.99487 153.51709
117.01388 808.99487 153.51709
122.58611 808.99487 153.51709
128.15811 808.99487 153.51709
133.73033 808.99487 153.51709
139.30234 808.99487 153.51709
144.87434 808.99487 153.51709
150.44656 808.99487 153.51709
156.01857 808.99487 153.51709
161.59081 808.99487 153.51709
167.16281 808.99487 153.51709
174.36542 795.67505 180.4541
179.99023 795.67505 180.4541
185.61484 795.67505 180.4541
193.02808 782.35535 207.39087
198.70528 782.35535 207.39087
206.33919 768.59155 235.22583
212.07098 768.59155 235.22583
217.80254 768.59155 235.22583
223.53432 768.59155 235.22583
229.26587 768.59155 235.22583
369.02408 782.35535 207.39087
374.70129 782.35535 207.39087
380.37869 782.35535 207.39087
386.05594 782.35535 207.39087
391.73334 782.35535 207.39087
401.21527 768.59155 235.22583
403.08774 782.35535 207.39087
408.76517 782.35535 207.39087
418.41019 768.59155 235.22583
420.11981 782.35535 207.39087
425.79703 782.35535 207.39087
-362.18607 803.86572 151.34009
-356.61398 803.86572 151.34009
-351.04187 803.86572 151.34009
-345.46982 803.86572 151.34009
-343.10632 790.49756 178.25659
-337.4816 790.49756 178.25659
-331.8569 790.49756 178.25659
-326.23221 790.49756 178.25659
-320.60754 790.49756 178.25659
-314.98285 790.49756 178.25659
-309.35815 790.49756 178.25659
-168.7408 790.49756 178.25659
-163.1161 790.49756 178.25659
-157.49138 790.49756 178.25659
-150.44656 803.86572 151.34009
-144.87445 803.86572 151.34009
-139.30234 803.86572 151.34009
-132.5099 816.78833 125.32104
-126.98864 816.78833 125.32104
-121.46747 816.78833 125.32104
-114.87842 829.71094 99.301514
-109.408 829.71094 99.301514
-103.93758 829.71094 99.301514
-98.467163 829.71094 99.301514
-92.996849 829.71094 99.301514
-87.526421 829.71094 99.301514
-82.056 829.71094 99.301514
-76.585587 829.71094 99.301514
-71.776169 816.78833 125.32104
-65.644844 829.71094 99.301514
-60.174423 829.71094 99.301514
-54.704002 829.71094 99.301514
-49.233582 829.71094 99.301514
-43.763157 829.71094 99.301514
-38.292843 829.71094 99.301514
-32.822422 829.71094 99.301514
-27.352001 829.71094 99.301514
-22.084965 816.78833 125.32104
-16.563698 816.78833 125.32104
-11.042537 816.78833 125.32104
-5.5212684 816.78833 125.32104
0 816.78833 125.32104
5.521163 816.78833 125.32104
11.042537 816.78833 125.32104
16.563698 816.78833 125.32104
22.085073 816.78833 125.32104
27.606234 816.78833 125.32104
33.127396 816.78833 125.32104
38.648773 816.78833 125.32104
44.16993 816.78833 125.32104
49.691303 816.78833 125.32104
55.212467 816.78833 125.32104
61.292946 803.86572 151.34009
66.865166 803.86572 151.34009
72.437172 803.86572 151.34009
78.009399 803.86572 151.34009
83.581406 803.86572 151.34009
89.153404 803.86572 151.34009
94.725632 803.86572 151.34009
100.29764 803.86572 151.34009
105.86987 803.86572 151.34009
111.44187 803.86572 151.34009
117.01388 803.86572 151.34009
122.58611 803.86572 151.34009
128.15811 803.86572 151.34009
133.73033 803.86572 151.34009
140.61734 790.49756 178.25659
146.24194 790.49756 178.25659
151.86678 790.49756 178.25659
157.49138 790.49756 178.25659
163.1162 790.49756 178.25659
168.7408 790.49756 178.25659
174.36542 790.49756 178.25659
181.67343 777.12939 205.17261
187.35065 777.12939 205.17261
193.02808 777.12939 205.17261
198.70528 777.12939 205.17261
206.33919 763.31567 232.98633
212.07098 763.31567 232.98633
217.80254 763.31567 232.98633
223.53432 763.31567 232.98633
233.75441 734.79688 290.40796
369.02408 777.12939 205.17261
374.70129 777.12939 205.17261
380.37869 777.12939 205.17261
386.05594 777.12939 205.17261
391.73334 777.12939 205.17261
397.41055 777.12939 205.17261
403.08774 777.12939 205.17261
408.76517 777.12939 205.17261
418.41019 763.31567 232.98633
424.14197 763.31567 232.98633
-356.61398 798.73657 149.16284
-351.04187 798.73657 149.16284
-345.46982 798.73657 149.16284
-343.10632 785.31995 176.05859
-337.4816 785.31995 176.05859
-331.8569 785.31995 176.05859
-326.23221 785.31995 176.05859
-320.60754 785.31995 176.05859
-314.98285 785.31995 176.05859
-309.35815 785.31995 176.05859
-303.73343 785.31995 176.05859
-170.3188 771.90344 202.95435
-163.1161 785.31995 176.05859
-157.49138 785.31995 176.05859
-150.44656 798.73657 149.16284
-144.87445 798.73657 149.16284
-139.30234 798.73657 149.16284
-132.5099 811.70593 123.16357
-126.98864 811.70593 123.16357
-121.46747 811.70593 123.16357
-115.94621 811.70593 123.16357
-110.42493 811.70593 123.16357
-104.90366 811.70593 123.16357
-98.467163 824.67529 97.164062
-92.996849 824.67529 97.164062
-88.339973 811.70593 123.16357
-82.818703 811.70593 123.16357
-77.297432 811.70593 123.16357
-71.776169 811.70593 123.16357
-66.255005 811.70593 123.16357
-60.733734 811.70593 123.16357
-55.212467 811.70593 123.16357
-49.233582 824.67529 97.164062
-43.763157 824.67529 97.164062
-38.292843 824.67529 97.164062
-33.127502 811.70593 123.16357
-27.606234 811.70593 123.16357
-22.084965 811.70593 123.16357
-16.563698 811.70593 123.16357
-11.042537 811.70593 123.16357
-5.5212684 811.70593 123.16357
0 811.70593 123.16357
5.521163 811.70593 123.16357
11.042537 811.70593 123.16357
16.563698 811.70593 123.16357
22.085073 811.70593 123.16357
27.606234 811.70593 123.16357
33.127396 811.70593 123.16357
38.648773 811.70593 123.16357
44.16993 811.70593 123.16357
49.691303 811.70593 123.16357
55.720936 798.73657 149.16284
61.292946 798.73657 149.16284
66.865166 798.73657 149.16284
72.437172 798.73657 149.16284
78.745796 785.31995 176.05859
84.370399 785.31995 176.05859
89.99501 785.31995 176.05859
95.619835 785.31995 176.05859
100.29764 798.73657 149.16284
105.86987 798.73657 149.16284
111.44187 798.73657 149.16284
118.11848 785.31995 176.05859
123.7433 785.31995 176.05859
129.3679 785.31995 176.05859
134.99274 785.31995 176.05859
140.61734 785.31995 176.05859
146.24194 785.31995 176.05859
151.86678 785.31995 176.05859
157.49138 785.31995 176.05859
163.1162 785.31995 176.05859
168.7408 785.31995 176.05859
175.99602 771.90344 202.95435
181.67343 771.90344 202.95435
187.35065 771.90344 202.95435
193.02808 771.90344 202.95435
198.70528 771.90344 202.95435
206.33919 758.03955 230.74658
212.07098 758.03955 230.74658
217.80254 758.03955 230.74658
225.6541 744.17578 258.53906
233.75441 729.41748 288.12451
369.02408 771.90344 202.95435
374.70129 771.90344 202.95435
380.37869 771.90344 202.95435
386.05594 771.90344 202.95435
391.73334 771.90344 202.95435
397.41055 771.90344 202.95435
403.08774 771.90344 202.95435
412.67862 758.03955 230.74658
418.41019 758.03955 230.74658
424.14197 758.03955 230.74658
-356.61398 793.60754 146.9856
-351.04187 793.60754 146.9856
-345.46982 793.60754 146.9856
-343.10632 780.14246 173.86108
-337.4816 780.14246 173.86108
-331.8569 780.14246 173.86108
-326.23221 780.14246 173.86108
-320.60754 780.14246 173.86108
-314.98285 780.14246 173.86108
-309.35815 780.14246 173.86108
-303.73343 780.14246 173.86108
-170.3188 766.67749 200.73608
-164.64149 766.67749 200.73608
-158.96417 766.67749 200.73608
-151.86678 780.14246 173.86108
-146.24205 780.14246 173.86108
-139.30234 793.60754 146.9856
-132.5099 806.62366 121.00635
-126.98864 806.62366 121.00635
-121.46747 806.62366 121.00635
-114.87842 819.63989 95.026611
-109.408 819.63989 95.026611
-104.90366 806.62366 121.00635
-98.467163 819.63989 95.026611
-92.996849 819.63989 95.026611
-87.526421 819.63989 95.026611
-82.818703 806.62366 121.00635
-77.297432 806.62366 121.00635
-71.776169 806.62366 121.00635
-66.255005 806.62366 121.00635
-60.733734 806.62366 121.00635
-55.212467 806.62366 121.00635
-49.6912 806.62366 121.00635
-44.16993 806.62366 121.00635
-38.648773 806.62366 121.00635
-33.127502 806.62366 121.00635
-27.606234 806.62366 121.00635
-22.084965 806.62366 121.00635
-16.563698 806.62366 121.00635
-11.042537 806.62366 121.00635
-5.5212684 806.62366 121.00635
0 806.62366 121.00635
5.521163 806.62366 121.00635
11.042537 806.62366 121.00635
16.563698 806.62366 121.00635
22.085073 806.62366 121.00635
27.606234 806.62366 121.00635
33.127396 806.62366 121.00635
38.648773 806.62366 121.00635
44.16993 806.62366 121.00635
49.691303 806.62366 121.00635
55.720936 793.60754 146.9856
61.871544 780.14246 173.86108
67.496368 780.14246 173.86108
73.120972 780.14246 173.86108
78.745796 780.14246 173.86108
84.370399 780.14246 173.86108
89.99501 780.14246 173.86108
95.619835 780.14246 173.86108
100.29764 793.60754 146.9856
105.86987 793.60754 146.9856
112.49387 780.14246 173.86108
118.11848 780.14246 173.86108
123.7433 780.14246 173.86108
129.3679 780.14246 173.86108
134.99274 780.14246 173.86108
140.61734 780.14246 173.86108
146.24194 780.14246 173.86108
151.86678 780.14246 173.86108
157.49138 780.14246 173.86108
163.1162 780.14246 173.86108
168.7408 780.14246 173.86108
175.99602 766.67749 200.73608
181.67343 766.67749 200.73608
187.35065 766.67749 200.73608
193.02808 766.67749 200.73608
198.70528 766.67749 200.73608
206.33919 752.76367 228.50732
214.08206 738.84985 256.27832
219.86795 738.84985 256.27832
227.91064 724.03833 285.84106
233.75441 724.03833 285.84106
369.02408 766.67749 200.73608
374.70129 766.67749 200.73608
380.37869 766.67749 200.73608
386.05594 766.67749 200.73608
391.73334 766.67749 200.73608
401.21527 752.76367 228.50732
406.94684 752.76367 228.50732
412.67862 752.76367 228.50732
418.41019 752.76367 228.50732
-359.98038 774.96484 171.66333
-354.35565 774.96484 171.66333
-348.73102 774.96484 171.66333
-343.10632 774.96484 171.66333
-337.4816 774.96484 171.66333
-331.8569 774.96484 171.66333
-326.23221 774.96484 171.66333
-320.60754 774.96484 171.66333
-314.98285 774.96484 171.66333
-309.35815 774.96484 171.66333
-303.73343 774.96484 171.66333
-170.3188 761.45142 198.51782
-164.64149 761.45142 198.51782
-158.96417 761.45142 198.51782
-151.86678 774.96484 171.66333
-146.24205 774.96484 171.66333
-140.61734 774.96484 171.66333
-132.5099 801.54126 118.84888
-126.98864 801.54126 118.84888
-121.46747 801.54126 118.84888
-114.87842 814.60425 92.88916
-109.408 814.60425 92.88916
-104.90366 801.54126 118.84888
-98.467163 814.60425 92.88916
-92.996849 814.60425 92.88916
-87.526421 814.60425 92.88916
-82.818703 801.54126 118.84888
-77.297432 801.54126 118.84888
-71.776169 801.54126 118.84888
-66.255005 801.54126 118.84888
-60.733734 801.54126 118.84888
-55.212467 801.54126 118.84888
-49.6912 801.54126 118.84888
-44.16993 801.54126 118.84888
-38.648773 801.54126 118.84888
-33.127502 801.54126 118.84888
-27.606234 801.54126 118.84888
-22.288351 788.47827 144.80835
-16.563698 801.54126 118.84888
-11.042537 801.54126 118.84888
-5.5212684 801.54126 118.84888
0 801.54126 118.84888
5.521163 801.54126 118.84888
11.042537 801.54126 118.84888
16.563698 801.54126 118.84888
22.085073 801.54126 118.84888
27.860468 788.47827 144.80835
33.432476 788.47827 144.80835
39.0047 788.47827 144.80835
44.576702 788.47827 144.80835
50.148926 788.47827 144.80835
56.246937 774.96484 171.66333
61.871544 774.96484 171.66333
67.496368 774.96484 171.66333
73.120972 774.96484 171.66333
78.745796 774.96484 171.66333
84.370399 774.96484 171.66333
89.99501 774.96484 171.66333
95.619835 774.96484 171.66333
100.29764 788.47827 144.80835
105.86987 788.47827 144.80835
112.49387 774.96484 171.66333
118.11848 774.96484 171.66333
123.7433 774.96484 171.66333
129.3679 774.96484 171.66333
134.99274 774.96484 171.66333
140.61734 774.96484 171.66333
147.60954 761.45142 198.51782
151.86678 774.96484 171.66333
157.49138 774.96484 171.66333
163.1162 774.96484 171.66333
168.7408 774.96484 171.66333
175.99602 761.45142 198.51782
181.67343 761.45142 198.51782
187.35065 761.45142 198.51782
193.02808 761.45142 198.51782
198.70528 761.45142 198.51782
206.33919 747.48755 226.26758
214.08206 733.52368 254.01758
219.86795 733.52368 254.01758
227.91064 718.65894 283.55762
233.75441 718.65894 283.55762
369.02408 761.45142 198.51782
374.70129 761.45142 198.51782
380.37869 761.45142 198.51782
389.75195 747.48755 226.26758
395.48373 747.48755 226.26758
401.21527 747.48755 226.26758
406.94684 747.48755 226.26758
412.67862 747.48755 226.26758
422.37799 733.52368 254.01758
-354.35565 769.78735 169.46558
-348.73102 769.78735 169.46558
-343.10632 769.78735 169.46558
-337.4816 769.78735 169.46558
-331.8569 769.78735 169.46558
-326.23221 769.78735 169.46558
-320.60754 769.78735 169.46558
-312.03726 783.34924 142.63135
-306.46515 783.34924 142.63135
-170.3188 756.22559 196.29956
-164.64149 756.22559 196.29956
-158.96417 756.22559 196.29956
-151.86678 769.78735 169.46558
-146.24205 769.78735 169.46558
-140.61734 769.78735 169.46558
-132.5099 796.45898 116.69165
-126.98864 796.45898 116.69165
-121.46747 796.45898 116.69165
-114.87842 809.56885 90.751709
-109.408 809.56885 90.751709
-104.90366 796.45898 116.69165
-99.382401 796.45898 116.69165
-93.861237 796.45898 116.69165
-88.339973 796.45898 116.69165
-82.818703 796.45898 116.69165
-77.297432 796.45898 116.69165
-71.776169 796.45898 116.69165
-66.255005 796.45898 116.69165
-60.733734 796.45898 116.69165
-55.212467 796.45898 116.69165
-49.6912 796.45898 116.69165
-44.16993 796.45898 116.69165
-38.648773 796.45898 116.69165
-33.127502 796.45898 116.69165
-27.606234 796.45898 116.69165
-22.288351 783.34924 142.63135
-16.716238 783.34924 142.63135
-11.14423 783.34924 142.63135
-5.5721149 783.34924 142.63135
0 783.34924 142.63135
5.5720086 783.34924 142.63135
11.14423 783.34924 142.63135
16.716238 783.34924 142.63135
22.28846 783.34924 142.63135
27.860468 783.34924 142.63135
33.432476 783.34924 142.63135
39.0047 783.34924 142.63135
44.997505 769.78735 169.46558
50.622326 769.78735 169.46558
56.246937 769.78735 169.46558
61.871544 769.78735 169.46558
67.496368 769.78735 169.46558
73.804771 756.22559 196.29956
78.745796 769.78735 169.46558
84.370399 769.78735 169.46558
89.99501 769.78735 169.46558
95.619835 769.78735 169.46558
101.24444 769.78735 169.46558
106.86926 769.78735 169.46558
112.49387 769.78735 169.46558
118.11848 769.78735 169.46558
123.7433 769.78735 169.46558
129.3679 769.78735 169.46558
134.99274 769.78735 169.46558
140.61734 769.78735 169.46558
147.60954 756.22559 196.29956
151.86678 769.78735 169.46558
157.49138 769.78735 169.46558
163.1162 769.78735 169.46558
168.7408 769.78735 169.46558
175.99602 756.22559 196.29956
181.67343 756.22559 196.29956
187.35065 756.22559 196.29956
193.02808 756.22559 196.29956
200.60764 742.21167 224.02808
206.33919 742.21167 224.02808
214.08206 728.19775 251.75684
219.86795 728.19775 251.75684
227.91064 713.27966 281.27441
233.75441 713.27966 281.27441
374.70129 756.22559 196.29956
380.37869 756.22559 196.29956
389.75195 742.21167 224.02808
395.48373 742.21167 224.02808
401.21527 742.21167 224.02808
406.94684 742.21167 224.02808
412.67862 742.21167 224.02808
422.37799 728.19775 251.75684
-351.99222 750.99951 194.0813
-346.31491 750.99951 194.0813
-337.4816 764.60974 167.26782
-331.8569 764.60974 167.26782
-326.23221 764.60974 167.26782
-320.60754 764.60974 167.26782
-312.03726 778.21997 140.4541
-306.46515 778.21997 140.4541
-170.3188 750.99951 194.0813
-164.64149 750.99951 194.0813
-158.96417 750.99951 194.0813
-151.86678 764.60974 167.26782
-144.87445 778.21997 140.4541
-139.30234 778.21997 140.4541
-132.5099 791.37659 114.53442
-126.98864 791.37659 114.53442
-121.46747 791.37659 114.53442
-114.87842 804.5332 88.614258
-109.408 804.5332 88.614258
-104.90366 791.37659 114.53442
-99.382401 791.37659 114.53442
-93.861237 791.37659 114.53442
-88.339973 791.37659 114.53442
-83.581406 778.21997 140.4541
-78.745689 764.60974 167.26782
