ply
format ascii 1.0
comment PCL generated
element vertex 1582
property float x
property float y
property float z
element camera 0
property float view_px
property float view_py
property float view_pz
property float x_axisx
property float x_axisy
property float x_axisz
property float y_axisx
property float y_axisy
property float y_axisz
property float z_axisx
property float z_axisy
property float z_axisz
property float focal
property float scalex
property float scaley
property float centerx
property float centery
property int viewportx
property int viewporty
property float k1
property float k2
end_header
212.39873 666.22815 296.06567
218.29883 666.22815 296.06567
224.19868 666.22815 296.06567
262.22162 650.52881 326.33813
265.4985 666.22815 296.06567
271.39838 666.22815 296.06567
280.10031 650.52881 326.33813
286.05981 650.52881 326.33813
292.01953 650.52881 326.33813
294.99835 666.22815 296.06567
300.89819 666.22815 296.06567
309.89822 650.52881 326.33813
315.8577 650.52881 326.33813
321.81741 650.52881 326.33813
327.77692 650.52881 326.33813
330.39804 666.22815 296.06567
336.29816 666.22815 296.06567
-157.49138 733.54443 154.0813
-151.86678 733.54443 154.0813
-146.24205 733.54443 154.0813
-140.61734 733.54443 154.0813
-134.99263 733.54443 154.0813
-128.15811 747.44519 127.39087
-122.58611 747.44519 127.39087
-118.11858 733.54443 154.0813
-111.44187 747.44519 127.39087
-105.86976 747.44519 127.39087
-100.29764 747.44519 127.39087
-94.725632 747.44519 127.39087
-89.153519 747.44519 127.39087
-83.581406 747.44519 127.39087
-78.009285 747.44519 127.39087
-72.437172 747.44519 127.39087
-66.865166 747.44519 127.39087
-61.293053 747.44519 127.39087
-55.720936 747.44519 127.39087
-50.622219 733.54443 154.0813
-44.997505 733.54443 154.0813
-39.372898 733.54443 154.0813
-33.748184 733.54443 154.0813
-28.123468 733.54443 154.0813
-22.709152 719.64368 180.77148
-17.031837 719.64368 180.77148
-11.35463 719.64368 180.77148
-5.7316685 705.27954 208.35132
0 705.27954 208.35132
5.7315598 705.27954 208.35132
11.463337 705.27954 208.35132
17.194897 705.27954 208.35132
22.926674 705.27954 208.35132
28.658234 705.27954 208.35132
34.389793 705.27954 208.35132
40.121571 705.27954 208.35132
45.85313 705.27954 208.35132
51.095726 719.64368 180.77148
56.772934 719.64368 180.77148
62.450146 719.64368 180.77148
68.779808 705.27954 208.35132
73.804771 719.64368 180.77148
79.482201 719.64368 180.77148
85.159401 719.64368 180.77148
90.836609 719.64368 180.77148
96.514038 719.64368 180.77148
102.19124 719.64368 180.77148
107.86867 719.64368 180.77148
113.54587 719.64368 180.77148
119.22308 719.64368 180.77148
124.90051 719.64368 180.77148
130.57771 719.64368 180.77148
136.25513 719.64368 180.77148
143.29117 705.27954 208.35132
149.02272 705.27954 208.35132
154.75452 705.27954 208.35132
160.48607 705.27954 208.35132
167.7941 690.91541 235.9314
173.58 690.91541 235.9314
179.36592 690.91541 235.9314
185.15205 690.91541 235.9314
190.93796 690.91541 235.9314
198.69133 675.62451 265.29077
204.53511 675.62451 265.29077
212.39873 660.79712 293.76025
262.22162 645.04297 324.00952
268.18112 645.04297 324.00952
274.14059 645.04297 324.00952
280.10031 645.04297 324.00952
286.05981 645.04297 324.00952
292.01953 645.04297 324.00952
294.99835 660.79712 293.76025
300.89819 660.79712 293.76025
309.89822 645.04297 324.00952
315.8577 645.04297 324.00952
321.81741 645.04297 324.00952
327.77692 645.04297 324.00952
330.39804 660.79712 293.76025
336.29816 660.79712 293.76025
-157.49138 728.36682 151.88354
-151.86678 728.36682 151.88354
-146.24205 728.36682 151.88354
-140.61734 728.36682 151.88354
-134.99263 728.36682 151.88354
-129.3679 728.36682 151.88354
-123.7433 728.36682 151.88354
-118.11858 728.36682 151.88354
-111.44187 742.31604 125.21362
-105.86976 742.31604 125.21362
-100.29764 742.31604 125.21362
-94.725632 742.31604 125.21362
-89.153519 742.31604 125.21362
-83.581406 742.31604 125.21362
-78.009285 742.31604 125.21362
-72.437172 742.31604 125.21362
-66.865166 742.31604 125.21362
-61.293053 742.31604 125.21362
-55.720936 742.31604 125.21362
-50.148819 742.31604 125.21362
-44.997505 728.36682 151.88354
-39.372898 728.36682 151.88354
-33.748184 728.36682 151.88354
-28.123468 728.36682 151.88354
-22.709152 714.41772 178.55322
-17.031837 714.41772 178.55322
-11.35463 714.41772 178.55322
-5.7316685 700.00342 206.11182
0 700.00342 206.11182
5.7315598 700.00342 206.11182
11.572044 685.58936 233.67065
17.357956 685.58936 233.67065
23.144089 685.58936 233.67065
28.93 685.58936 233.67065
34.715912 685.58936 233.67065
40.502045 685.58936 233.67065
45.85313 700.00342 206.11182
51.584908 700.00342 206.11182
57.316467 700.00342 206.11182
63.048027 700.00342 206.11182
68.779808 700.00342 206.11182
74.51136 700.00342 206.11182
80.243141 700.00342 206.11182
85.159401 714.41772 178.55322
90.836609 714.41772 178.55322
96.514038 714.41772 178.55322
102.19124 714.41772 178.55322
107.86867 714.41772 178.55322
113.54587 714.41772 178.55322
119.22308 714.41772 178.55322
124.90051 714.41772 178.55322
130.57771 714.41772 178.55322
137.55962 700.00342 206.11182
143.29117 700.00342 206.11182
149.02272 700.00342 206.11182
154.75452 700.00342 206.11182
160.48607 700.00342 206.11182
167.7941 685.58936 233.67065
173.58 685.58936 233.67065
179.36592 685.58936 233.67065
185.15205 685.58936 233.67065
190.93796 685.58936 233.67065
198.69133 670.24512 263.00732
204.53511 670.24512 263.00732
212.39873 655.36621 291.45483
256.2619 639.55701 321.68091
262.22162 639.55701 321.68091
268.18112 639.55701 321.68091
274.14059 639.55701 321.68091
280.10031 639.55701 321.68091
286.05981 639.55701 321.68091
292.01953 639.55701 321.68091
297.979 639.55701 321.68091
303.93851 639.55701 321.68091
306.79831 655.36621 291.45483
312.69821 655.36621 291.45483
318.59833 655.36621 291.45483
324.49817 655.36621 291.45483
333.73639 639.55701 321.68091
-157.49138 723.18933 149.68579
-151.86678 723.18933 149.68579
-146.24205 723.18933 149.68579
-140.61734 723.18933 149.68579
-134.99263 723.18933 149.68579
-129.3679 723.18933 149.68579
-123.7433 723.18933 149.68579
-118.11858 723.18933 149.68579
-112.49387 723.18933 149.68579
-105.86976 737.18689 123.03662
-100.29764 737.18689 123.03662
-94.725632 737.18689 123.03662
-89.153519 737.18689 123.03662
-83.581406 737.18689 123.03662
-78.009285 737.18689 123.03662
-72.437172 737.18689 123.03662
-66.865166 737.18689 123.03662
-61.293053 737.18689 123.03662
-55.720936 737.18689 123.03662
-50.148819 737.18689 123.03662
-44.997505 723.18933 149.68579
-39.372898 723.18933 149.68579
-33.748184 723.18933 149.68579
-28.123468 723.18933 149.68579
-22.709152 709.19177 176.33496
-17.031837 709.19177 176.33496
-11.463337 694.72754 203.87231
-5.7316685 694.72754 203.87231
0 694.72754 203.87231
5.7315598 694.72754 203.87231
11.572044 680.26331 231.40991
17.357956 680.26331 231.40991
23.144089 680.26331 231.40991
28.93 680.26331 231.40991
34.715912 680.26331 231.40991
40.502045 680.26331 231.40991
45.85313 694.72754 203.87231
51.584908 694.72754 203.87231
57.316467 694.72754 203.87231
63.048027 694.72754 203.87231
68.779808 694.72754 203.87231
74.51136 694.72754 203.87231
80.243141 694.72754 203.87231
85.974701 694.72754 203.87231
90.836609 709.19177 176.33496
96.514038 709.19177 176.33496
102.19124 709.19177 176.33496
107.86867 709.19177 176.33496
113.54587 709.19177 176.33496
120.36449 694.72754 203.87231
124.90051 709.19177 176.33496
130.57771 709.19177 176.33496
137.55962 694.72754 203.87231
143.29117 694.72754 203.87231
149.02272 694.72754 203.87231
154.75452 694.72754 203.87231
160.48607 694.72754 203.87231
167.7941 680.26331 231.40991
173.58 680.26331 231.40991
179.36592 680.26331 231.40991
185.15205 680.26331 231.40991
190.93796 680.26331 231.40991
198.69133 664.86597 260.72388
206.49884 649.9353 289.14966
212.39873 649.9353 289.14966
253.69853 649.9353 289.14966
259.59863 649.9353 289.14966
268.18112 634.07129 319.35229
274.14059 634.07129 319.35229
280.10031 634.07129 319.35229
286.05981 634.07129 319.35229
289.09848 649.9353 289.14966
294.99835 649.9353 289.14966
300.89819 649.9353 289.14966
306.79831 649.9353 289.14966
312.69821 649.9353 289.14966
318.59833 649.9353 289.14966
324.49817 649.9353 289.14966
-157.49138 718.01172 147.48804
-151.86678 718.01172 147.48804
-146.24205 718.01172 147.48804
-140.61734 718.01172 147.48804
-134.99263 718.01172 147.48804
-129.3679 718.01172 147.48804
-123.7433 718.01172 147.48804
-118.11858 718.01172 147.48804
-111.44187 732.05774 120.85938
-105.86976 732.05774 120.85938
-100.29764 732.05774 120.85938
-94.725632 732.05774 120.85938
-89.153519 732.05774 120.85938
-83.581406 732.05774 120.85938
-78.009285 732.05774 120.85938
-72.437172 732.05774 120.85938
-66.865166 732.05774 120.85938
-61.293053 732.05774 120.85938
-55.720936 732.05774 120.85938
-50.622219 718.01172 147.48804
-44.997505 718.01172 147.48804
-39.372898 718.01172 147.48804
-33.748184 718.01172 147.48804
-28.123468 718.01172 147.48804
-22.709152 703.9657 174.11646
-17.031837 703.9657 174.11646
-11.463337 689.45142 201.63281
-5.7316685 689.45142 201.63281
0 689.45142 201.63281
5.785912 674.93726 229.14893
11.572044 674.93726 229.14893
17.531536 659.48657 258.44067
23.37553 659.48657 258.44067
29.219301 659.48657 258.44067
35.063072 659.48657 258.44067
40.907066 659.48657 258.44067
45.85313 689.45142 201.63281
51.584908 689.45142 201.63281
57.316467 689.45142 201.63281
63.048027 689.45142 201.63281
68.779808 689.45142 201.63281
74.51136 689.45142 201.63281
80.243141 689.45142 201.63281
85.974701 689.45142 201.63281
90.836609 703.9657 174.11646
96.514038 703.9657 174.11646
103.16959 689.45142 201.63281
108.90137 689.45142 201.63281
114.63293 689.45142 201.63281
120.36449 689.45142 201.63281
124.90051 703.9657 174.11646
130.57771 703.9657 174.11646
137.55962 689.45142 201.63281
143.29117 689.45142 201.63281
149.02272 689.45142 201.63281
154.75452 689.45142 201.63281
160.48607 689.45142 201.63281
167.7941 674.93726 229.14893
173.58 674.93726 229.14893
179.36592 674.93726 229.14893
185.15205 674.93726 229.14893
192.84734 659.48657 258.44067
198.69133 659.48657 258.44067
253.69853 644.50427 286.84424
259.59863 644.50427 286.84424
268.18112 628.58533 317.02368
271.39838 644.50427 286.84424
277.29849 644.50427 286.84424
286.05981 628.58533 317.02368
289.09848 644.50427 286.84424
294.99835 644.50427 286.84424
300.89819 644.50427 286.84424
306.79831 644.50427 286.84424
312.69821 644.50427 286.84424
318.59833 644.50427 286.84424
324.49817 644.50427 286.84424
-157.49138 712.83423 145.29028
-151.86678 712.83423 145.29028
-146.24205 712.83423 145.29028
-140.61734 712.83423 145.29028
-134.99263 712.83423 145.29028
-129.3679 712.83423 145.29028
-123.7433 712.83423 145.29028
-118.11858 712.83423 145.29028
-111.44187 726.92871 118.68213
-105.86976 726.92871 118.68213
-100.29764 726.92871 118.68213
-94.725632 726.92871 118.68213
-89.153519 726.92871 118.68213
-83.581406 726.92871 118.68213
-78.009285 726.92871 118.68213
-72.437172 726.92871 118.68213
-66.865166 726.92871 118.68213
-61.293053 726.92871 118.68213
-55.720936 726.92871 118.68213
-50.622219 712.83423 145.29028
-44.997505 712.83423 145.29028
-39.372898 712.83423 145.29028
-33.748184 712.83423 145.29028
-28.123468 712.83423 145.29028
-22.709152 698.73975 171.89819
-17.031837 698.73975 171.89819
-11.463337 684.17554 199.39331
-5.7316685 684.17554 199.39331
0 684.17554 199.39331
5.785912 669.61133 226.88818
11.572044 669.61133 226.88818
17.531536 654.10742 256.15723
23.37553 654.10742 256.15723
29.219301 654.10742 256.15723
35.063072 654.10742 256.15723
40.907066 654.10742 256.15723
46.28796 669.61133 226.88818
52.074093 669.61133 226.88818
57.316467 684.17554 199.39331
63.048027 684.17554 199.39331
68.779808 684.17554 199.39331
74.51136 684.17554 199.39331
80.243141 684.17554 199.39331
85.974701 684.17554 199.39331
91.706261 684.17554 199.39331
97.438042 684.17554 199.39331
103.16959 684.17554 199.39331
108.90137 684.17554 199.39331
114.63293 684.17554 199.39331
120.36449 684.17554 199.39331
126.09628 684.17554 199.39331
131.82784 684.17554 199.39331
137.55962 684.17554 199.39331
143.29117 684.17554 199.39331
149.02272 684.17554 199.39331
154.75452 684.17554 199.39331
160.48607 684.17554 199.39331
167.7941 669.61133 226.88818
173.58 669.61133 226.88818
179.36592 669.61133 226.88818
185.15205 669.61133 226.88818
192.84734 654.10742 256.15723
198.69133 654.10742 256.15723
253.69853 639.07336 284.53906
259.59863 639.07336 284.53906
265.4985 639.07336 284.53906
271.39838 639.07336 284.53906
277.29849 639.07336 284.53906
286.05981 623.09961 314.69507
289.09848 639.07336 284.53906
294.99835 639.07336 284.53906
300.89819 639.07336 284.53906
306.79831 639.07336 284.53906
312.69821 639.07336 284.53906
318.59833 639.07336 284.53906
-158.96417 693.51379 169.67993
-151.86678 707.65662 143.09253
-146.24205 707.65662 143.09253
-140.61734 707.65662 143.09253
-134.99263 707.65662 143.09253
-129.3679 707.65662 143.09253
-123.7433 707.65662 143.09253
-118.11858 707.65662 143.09253
-112.49387 707.65662 143.09253
-105.86976 721.79944 116.50488
-100.29764 721.79944 116.50488
-94.725632 721.79944 116.50488
-89.153519 721.79944 116.50488
-84.370399 707.65662 143.09253
-78.745689 707.65662 143.09253
-72.437172 721.79944 116.50488
-66.865166 721.79944 116.50488
-61.293053 721.79944 116.50488
-56.246937 707.65662 143.09253
-50.622219 707.65662 143.09253
-44.997505 707.65662 143.09253
-39.372898 707.65662 143.09253
-33.748184 707.65662 143.09253
-28.123468 707.65662 143.09253
-22.709152 693.51379 169.67993
-17.031837 693.51379 169.67993
-11.463337 678.89941 197.15381
-5.7316685 678.89941 197.15381
0 678.89941 197.15381
5.7315598 678.89941 197.15381
11.572044 664.28516 224.62744
17.357956 664.28516 224.62744
23.37553 648.72803 253.87378
29.219301 648.72803 253.87378
35.063072 648.72803 253.87378
40.907066 648.72803 253.87378
46.750835 648.72803 253.87378
52.59483 648.72803 253.87378
58.438602 648.72803 253.87378
63.645912 664.28516 224.62744
68.779808 678.89941 197.15381
74.51136 678.89941 197.15381
80.243141 678.89941 197.15381
85.974701 678.89941 197.15381
91.706261 678.89941 197.15381
97.438042 678.89941 197.15381
103.16959 678.89941 197.15381
108.90137 678.89941 197.15381
114.63293 678.89941 197.15381
120.36449 678.89941 197.15381
126.09628 678.89941 197.15381
131.82784 678.89941 197.15381
137.55962 678.89941 197.15381
143.29117 678.89941 197.15381
149.02272 678.89941 197.15381
154.75452 678.89941 197.15381
160.48607 678.89941 197.15381
167.7941 664.28516 224.62744
173.58 664.28516 224.62744
179.36592 664.28516 224.62744
185.15205 664.28516 224.62744
192.84734 648.72803 253.87378
198.69133 648.72803 253.87378
253.69853 633.64233 282.23364
259.59863 633.64233 282.23364
265.4985 633.64233 282.23364
271.39838 633.64233 282.23364
280.10031 617.61377 312.36646
286.05981 617.61377 312.36646
289.09848 633.64233 282.23364
294.99835 633.64233 282.23364
300.89819 633.64233 282.23364
306.79831 633.64233 282.23364
312.69821 633.64233 282.23364
318.59833 633.64233 282.23364
-158.96417 688.28784 167.46167
-151.86678 702.47913 140.89478
-146.24205 702.47913 140.89478
-140.61734 702.47913 140.89478
-134.99263 702.47913 140.89478
-129.3679 702.47913 140.89478
-123.7433 702.47913 140.89478
-118.11858 702.47913 140.89478
-112.49387 702.47913 140.89478
-105.86976 716.67041 114.32788
-100.29764 716.67041 114.32788
-94.725632 716.67041 114.32788
-89.153519 716.67041 114.32788
-84.370399 702.47913 140.89478
-78.745689 702.47913 140.89478
-73.120972 702.47913 140.89478
-67.496368 702.47913 140.89478
-61.871651 702.47913 140.89478
-56.246937 702.47913 140.89478
-50.622219 702.47913 140.89478
-44.997505 702.47913 140.89478
-39.372898 702.47913 140.89478
-33.748184 702.47913 140.89478
-28.123468 702.47913 140.89478
-22.709152 688.28784 167.46167
-17.031837 688.28784 167.46167
-11.463337 673.62354 194.91431
-5.7316685 673.62354 194.91431
0 673.62354 194.91431
5.7315598 673.62354 194.91431
11.463337 673.62354 194.91431
17.357956 658.95923 222.3667
23.144089 658.95923 222.3667
29.219301 643.34875 251.59058
35.063072 643.34875 251.59058
40.907066 643.34875 251.59058
46.750835 643.34875 251.59058
52.59483 643.34875 251.59058
58.438602 643.34875 251.59058
64.282372 643.34875 251.59058
70.126366 643.34875 251.59058
75.217957 658.95923 222.3667
81.004089 658.95923 222.3667
85.974701 673.62354 194.91431
91.706261 673.62354 194.91431
97.438042 673.62354 194.91431
103.16959 673.62354 194.91431
108.90137 673.62354 194.91431
114.63293 673.62354 194.91431
120.36449 673.62354 194.91431
126.09628 673.62354 194.91431
131.82784 673.62354 194.91431
137.55962 673.62354 194.91431
143.29117 673.62354 194.91431
149.02272 673.62354 194.91431
154.75452 673.62354 194.91431
160.48607 673.62354 194.91431
167.7941 658.95923 222.3667
173.58 658.95923 222.3667
179.36592 658.95923 222.3667
185.15205 658.95923 222.3667
253.69853 628.21143 279.92847
259.59863 628.21143 279.92847
265.4985 628.21143 279.92847
271.39838 628.21143 279.92847
277.29849 628.21143 279.92847
283.19836 628.21143 279.92847
289.09848 628.21143 279.92847
294.99835 628.21143 279.92847
300.89819 628.21143 279.92847
306.79831 628.21143 279.92847
312.69821 628.21143 279.92847
321.81741 612.12793 310.03784
-158.96417 683.06177 165.24341
-151.86678 697.30151 138.69702
-146.24205 697.30151 138.69702
-140.61734 697.30151 138.69702
-134.99263 697.30151 138.69702
-129.3679 697.30151 138.69702
-123.7433 697.30151 138.69702
-118.11858 697.30151 138.69702
-112.49387 697.30151 138.69702
-106.86916 697.30151 138.69702
-101.24444 697.30151 138.69702
-95.619835 697.30151 138.69702
-89.995117 697.30151 138.69702
-84.370399 697.30151 138.69702
-78.745689 697.30151 138.69702
-73.120972 697.30151 138.69702
-67.496368 697.30151 138.69702
-61.871651 697.30151 138.69702
-56.246937 697.30151 138.69702
-50.622219 697.30151 138.69702
-44.997505 697.30151 138.69702
-39.372898 697.30151 138.69702
-33.748184 697.30151 138.69702
-28.123468 697.30151 138.69702
-22.709152 683.06177 165.24341
-17.031837 683.06177 165.24341
-11.463337 668.34741 192.67456
-5.7316685 668.34741 192.67456
0 668.34741 192.67456
5.7315598 668.34741 192.67456
11.463337 668.34741 192.67456
17.357956 653.63306 220.10596
23.144089 653.63306 220.10596
29.219301 637.96936 249.30713
35.063072 637.96936 249.30713
41.299816 622.78052 277.62305
47.199688 622.78052 277.62305
53.099792 622.78052 277.62305
58.999668 622.78052 277.62305
64.282372 637.96936 249.30713
70.126366 637.96936 249.30713
75.970139 637.96936 249.30713
81.004089 653.63306 220.10596
86.790001 653.63306 220.10596
91.706261 668.34741 192.67456
97.438042 668.34741 192.67456
103.16959 668.34741 192.67456
108.90137 668.34741 192.67456
114.63293 668.34741 192.67456
120.36449 668.34741 192.67456
126.09628 668.34741 192.67456
131.82784 668.34741 192.67456
137.55962 668.34741 192.67456
143.29117 668.34741 192.67456
149.02272 668.34741 192.67456
154.75452 668.34741 192.67456
160.48607 668.34741 192.67456
167.7941 653.63306 220.10596
175.31581 637.96936 249.30713
181.15958 637.96936 249.30713
187.00357 637.96936 249.30713
259.59863 622.78052 277.62305
265.4985 622.78052 277.62305
271.39838 622.78052 277.62305
277.29849 622.78052 277.62305
283.19836 622.78052 277.62305
286.34924 637.96936 249.30713
292.19302 637.96936 249.30713
298.03677 637.96936 249.30713
303.8808 637.96936 249.30713
309.72452 637.96936 249.30713
321.81741 606.64209 307.70923
-157.49138 692.12402 136.49951
-151.86678 692.12402 136.49951
-146.24205 692.12402 136.49951
-140.61734 692.12402 136.49951
-134.99263 692.12402 136.49951
-129.3679 692.12402 136.49951
-123.7433 692.12402 136.49951
-118.11858 692.12402 136.49951
-112.49387 692.12402 136.49951
-106.86916 692.12402 136.49951
-101.24444 692.12402 136.49951
-95.619835 692.12402 136.49951
-89.995117 692.12402 136.49951
-84.370399 692.12402 136.49951
-78.745689 692.12402 136.49951
-73.120972 692.12402 136.49951
-67.496368 692.12402 136.49951
-61.871651 692.12402 136.49951
-56.246937 692.12402 136.49951
-50.622219 692.12402 136.49951
-44.997505 692.12402 136.49951
-39.372898 692.12402 136.49951
-34.063782 677.83594 163.02515
-28.386467 677.83594 163.02515
-22.709152 677.83594 163.02515
-17.031837 677.83594 163.02515
-11.463337 663.07153 190.43506
-5.7316685 663.07153 190.43506
0 663.07153 190.43506
5.7315598 663.07153 190.43506
11.463337 663.07153 190.43506
17.357956 648.30713 217.84521
23.144089 648.30713 217.84521
29.219301 632.59009 247.02368
35.399712 617.34961 275.31787
41.299816 617.34961 275.31787
47.199688 617.34961 275.31787
53.099792 617.34961 275.31787
58.999668 617.34961 275.31787
64.282372 632.59009 247.02368
70.126366 632.59009 247.02368
75.970139 632.59009 247.02368
81.814133 632.59009 247.02368
86.790001 648.30713 217.84521
91.706261 663.07153 190.43506
97.438042 663.07153 190.43506
103.16959 663.07153 190.43506
108.90137 663.07153 190.43506
114.63293 663.07153 190.43506
120.36449 663.07153 190.43506
126.09628 663.07153 190.43506
131.82784 663.07153 190.43506
137.55962 663.07153 190.43506
143.29117 663.07153 190.43506
149.02272 663.07153 190.43506
154.75452 663.07153 190.43506
160.48607 663.07153 190.43506
167.7941 648.30713 217.84521
175.31581 632.59009 247.02368
181.15958 632.59009 247.02368
187.00357 632.59009 247.02368
194.69885 617.34961 275.31787
259.59863 617.34961 275.31787
265.4985 617.34961 275.31787
271.39838 617.34961 275.31787
277.29849 617.34961 275.31787
280.50525 632.59009 247.02368
286.34924 632.59009 247.02368
303.8808 632.59009 247.02368
309.72452 632.59009 247.02368
-158.96417 672.60986 160.80688
-153.28697 672.60986 160.80688
-146.24205 686.94641 134.30151
-140.61734 686.94641 134.30151
-134.99263 686.94641 134.30151
-129.3679 686.94641 134.30151
-123.7433 686.94641 134.30151
-118.11858 686.94641 134.30151
-112.49387 686.94641 134.30151
-106.86916 686.94641 134.30151
-101.24444 686.94641 134.30151
-95.619835 686.94641 134.30151
-89.995117 686.94641 134.30151
-84.370399 686.94641 134.30151
-78.745689 686.94641 134.30151
-73.120972 686.94641 134.30151
-67.496368 686.94641 134.30151
-61.871651 686.94641 134.30151
-56.246937 686.94641 134.30151
-50.622219 686.94641 134.30151
-45.418304 672.60986 160.80688
-39.7411 672.60986 160.80688
-34.063782 672.60986 160.80688
-28.386467 672.60986 160.80688
-22.709152 672.60986 160.80688
-17.194897 657.79541 188.19556
-11.463337 657.79541 188.19556
-5.7316685 657.79541 188.19556
0 657.79541 188.19556
5.785912 642.98096 215.58447
11.572044 642.98096 215.58447
17.357956 642.98096 215.58447
23.37553 627.21082 244.74023
29.219301 627.21082 244.74023
35.399712 611.91858 273.01245
41.299816 611.91858 273.01245
47.199688 611.91858 273.01245
53.099792 611.91858 273.01245
58.999668 611.91858 273.01245
64.899544 611.91858 273.01245
70.126366 627.21082 244.74023
75.970139 627.21082 244.74023
81.814133 627.21082 244.74023
86.790001 642.98096 215.58447
91.706261 657.79541 188.19556
97.438042 657.79541 188.19556
103.16959 657.79541 188.19556
108.90137 657.79541 188.19556
114.63293 657.79541 188.19556
120.36449 657.79541 188.19556
126.09628 657.79541 188.19556
131.82784 657.79541 188.19556
137.55962 657.79541 188.19556
143.29117 657.79541 188.19556
149.02272 657.79541 188.19556
154.75452 657.79541 188.19556
160.48607 657.79541 188.19556
167.7941 642.98096 215.58447
175.31581 627.21082 244.74023
181.15958 627.21082 244.74023
187.00357 627.21082 244.74023
194.69885 611.91858 273.01245
271.39838 611.91858 273.01245
277.29849 611.91858 273.01245
280.50525 627.21082 244.74023
286.34924 627.21082 244.74023
-157.49138 681.76892 132.104
-151.86678 681.76892 132.104
-146.24205 681.76892 132.104
-140.61734 681.76892 132.104
-134.99263 681.76892 132.104
-129.3679 681.76892 132.104
-123.7433 681.76892 132.104
-118.11858 681.76892 132.104
-112.49387 681.76892 132.104
-106.86916 681.76892 132.104
-101.24444 681.76892 132.104
-95.619835 681.76892 132.104
-89.995117 681.76892 132.104
-84.370399 681.76892 132.104
-78.745689 681.76892 132.104
-73.120972 681.76892 132.104
-67.496368 681.76892 132.104
-61.871651 681.76892 132.104
-56.246937 681.76892 132.104
-50.622219 681.76892 132.104
-45.418304 667.38403 158.58838
-39.7411 667.38403 158.58838
-34.063782 667.38403 158.58838
-28.386467 667.38403 158.58838
-22.926565 652.51953 185.95605
-17.194897 652.51953 185.95605
-11.463337 652.51953 185.95605
-5.7316685 652.51953 185.95605
0 652.51953 185.95605
5.785912 637.65503 213.32373
11.572044 637.65503 213.32373
17.357956 637.65503 213.32373
23.37553 621.83154 242.45703
29.219301 621.83154 242.45703
35.399712 606.48779 270.70728
41.299816 606.48779 270.70728
47.199688 606.48779 270.70728
53.099792 606.48779 270.70728
58.999668 606.48779 270.70728
64.899544 606.48779 270.70728
70.126366 621.83154 242.45703
75.970139 621.83154 242.45703
81.814133 621.83154 242.45703
86.790001 637.65503 213.32373
91.706261 652.51953 185.95605
97.438042 652.51953 185.95605
103.16959 652.51953 185.95605
108.90137 652.51953 185.95605
114.63293 652.51953 185.95605
120.36449 652.51953 185.95605
126.09628 652.51953 185.95605
131.82784 652.51953 185.95605
137.55962 652.51953 185.95605
143.29117 652.51953 185.95605
149.02272 652.51953 185.95605
154.75452 652.51953 185.95605
160.48607 652.51953 185.95605
167.7941 637.65503 213.32373
175.31581 621.83154 242.45703
181.15958 621.83154 242.45703
187.00357 621.83154 242.45703
192.84734 621.83154 242.45703
-157.49138 676.59131 129.90625
-151.86678 676.59131 129.90625
-146.24205 676.59131 129.90625
-140.61734 676.59131 129.90625
-134.99263 676.59131 129.90625
-129.3679 676.59131 129.90625
-123.7433 676.59131 129.90625
-118.11858 676.59131 129.90625
-112.49387 676.59131 129.90625
-106.86916 676.59131 129.90625
-101.24444 676.59131 129.90625
-95.619835 676.59131 129.90625
-89.995117 676.59131 129.90625
-84.370399 676.59131 129.90625
-78.745689 676.59131 129.90625
-73.120972 676.59131 129.90625
-67.496368 676.59131 129.90625
-61.871651 676.59131 129.90625
-56.246937 676.59131 129.90625
-50.622219 676.59131 129.90625
-45.418304 662.15796 156.37012
-39.7411 662.15796 156.37012
-34.063782 662.15796 156.37012
-28.386467 662.15796 156.37012
-22.926565 647.24341 183.71655
-17.194897 647.24341 183.71655
-11.463337 647.24341 183.71655
-5.7316685 647.24341 183.71655
0 632.32898 211.06299
5.785912 632.32898 211.06299
11.572044 632.32898 211.06299
17.357956 632.32898 211.06299
23.37553 616.45215 240.17358
29.219301 616.45215 240.17358
35.399712 601.05664 268.40186
41.299816 601.05664 268.40186
47.199688 601.05664 268.40186
53.099792 601.05664 268.40186
58.999668 601.05664 268.40186
64.899544 601.05664 268.40186
70.799652 601.05664 268.40186
75.970139 616.45215 240.17358
81.814133 616.45215 240.17358
86.790001 632.32898 211.06299
91.706261 647.24341 183.71655
97.438042 647.24341 183.71655
103.16959 647.24341 183.71655
108.90137 647.24341 183.71655
114.63293 647.24341 183.71655
120.36449 647.24341 183.71655
126.09628 647.24341 183.71655
131.82784 647.24341 183.71655
137.55962 647.24341 183.71655
144.65001 632.32898 211.06299
150.43591 632.32898 211.06299
156.22206 632.32898 211.06299
162.00795 632.32898 211.06299
169.47203 616.45215 240.17358
175.31581 616.45215 240.17358
181.15958 616.45215 240.17358
187.00357 616.45215 240.17358
192.84734 616.45215 240.17358
-157.49138 671.41382 127.7085
-151.86678 671.41382 127.7085
-146.24205 671.41382 127.7085
-140.61734 671.41382 127.7085
-134.99263 671.41382 127.7085
-129.3679 671.41382 127.7085
-123.7433 671.41382 127.7085
-118.11858 671.41382 127.7085
-112.49387 671.41382 127.7085
-106.86916 671.41382 127.7085
-101.24444 671.41382 127.7085
-95.619835 671.41382 127.7085
-89.995117 671.41382 127.7085
-84.370399 671.41382 127.7085
-78.745689 671.41382 127.7085
-73.120972 671.41382 127.7085
-67.496368 671.41382 127.7085
-61.871651 671.41382 127.7085
-56.772934 656.93201 154.15186
-51.095619 656.93201 154.15186
-45.418304 656.93201 154.15186
-39.7411 656.93201 154.15186
-34.063782 656.93201 154.15186
-28.386467 656.93201 154.15186
-22.926565 641.96753 181.47705
-17.194897 641.96753 181.47705
-11.463337 641.96753 181.47705
-5.7860222 627.00305 208.80225
0 627.00305 208.80225
5.785912 627.00305 208.80225
11.572044 627.00305 208.80225
17.357956 627.00305 208.80225
23.37553 611.073 237.89014
29.219301 611.073 237.89014
35.399712 595.62585 266.09668
41.299816 595.62585 266.09668
47.199688 595.62585 266.09668
53.099792 595.62585 266.09668
58.999668 595.62585 266.09668
64.899544 595.62585 266.09668
70.799652 595.62585 266.09668
75.970139 611.073 237.89014
81.814133 611.073 237.89014
87.657906 611.073 237.89014
92.57592 627.00305 208.80225
98.362045 627.00305 208.80225
103.16959 641.96753 181.47705
108.90137 641.96753 181.47705
114.63293 641.96753 181.47705
120.36449 641.96753 181.47705
127.29205 627.00305 208.80225
133.07796 627.00305 208.80225
138.86409 627.00305 208.80225
144.65001 627.00305 208.80225
150.43591 627.00305 208.80225
156.22206 627.00305 208.80225
163.62804 611.073 237.89014
169.47203 611.073 237.89014
175.31581 611.073 237.89014
181.15958 611.073 237.89014
187.00357 611.073 237.89014
192.84734 611.073 237.89014
-157.49138 666.23621 125.51074
-151.86678 666.23621 125.51074
-146.24205 666.23621 125.51074
-140.61734 666.23621 125.51074
-134.99263 666.23621 125.51074
-129.3679 666.23621 125.51074
-123.7433 666.23621 125.51074
-118.11858 666.23621 125.51074
-112.49387 666.23621 125.51074
-106.86916 666.23621 125.51074
-101.24444 666.23621 125.51074
-95.619835 666.23621 125.51074
-89.995117 666.23621 125.51074
-84.370399 666.23621 125.51074
-78.745689 666.23621 125.51074
-73.120972 666.23621 125.51074
-67.496368 666.23621 125.51074
-61.871651 666.23621 125.51074
-56.772934 651.70605 151.93359
-51.095619 651.70605 151.93359
-45.418304 651.70605 151.93359
-39.7411 651.70605 151.93359
-34.063782 651.70605 151.93359
-28.386467 651.70605 151.93359
-22.926565 636.69141 179.23755
-17.194897 636.69141 179.23755
-11.572044 621.67688 206.54126
-5.7860222 621.67688 206.54126
0 621.67688 206.54126
5.785912 621.67688 206.54126
11.572044 621.67688 206.54126
17.357956 621.67688 206.54126
23.37553 605.6936 235.60669
29.219301 605.6936 235.60669
35.399712 590.19482 263.79126
41.299816 590.19482 263.79126
47.199688 590.19482 263.79126
53.099792 590.19482 263.79126
58.999668 590.19482 263.79126
64.899544 590.19482 263.79126
70.799652 590.19482 263.79126
76.699524 590.19482 263.79126
82.599632 590.19482 263.79126
87.657906 605.6936 235.60669
92.57592 621.67688 206.54126
98.362045 621.67688 206.54126
104.14796 621.67688 206.54126
109.93409 621.67688 206.54126
115.72 621.67688 206.54126
121.50592 621.67688 206.54126
127.29205 621.67688 206.54126
133.07796 621.67688 206.54126
138.86409 621.67688 206.54126
144.65001 621.67688 206.54126
150.43591 621.67688 206.54126
156.22206 621.67688 206.54126
163.62804 605.6936 235.60669
169.47203 605.6936 235.60669
175.31581 605.6936 235.60669
181.15958 605.6936 235.60669
187.00357 605.6936 235.60669
192.84734 605.6936 235.60669
198.69133 605.6936 235.60669
-157.49138 661.05872 123.31299
-151.86678 661.05872 123.31299
-146.24205 661.05872 123.31299
-140.61734 661.05872 123.31299
-134.99263 661.05872 123.31299
-129.3679 661.05872 123.31299
-123.7433 661.05872 123.31299
-118.11858 661.05872 123.31299
-112.49387 661.05872 123.31299
-106.86916 661.05872 123.31299
-101.24444 661.05872 123.31299
-95.619835 661.05872 123.31299
-89.995117 661.05872 123.31299
-84.370399 661.05872 123.31299
-78.745689 661.05872 123.31299
-73.120972 661.05872 123.31299
-67.496368 661.05872 123.31299
-61.871651 661.05872 123.31299
-56.772934 646.4801 149.71533
-51.095619 646.4801 149.71533
-45.418304 646.4801 149.71533
-39.7411 646.4801 149.71533
-34.063782 646.4801 149.71533
-28.386467 646.4801 149.71533
-22.926565 631.41553 176.99805
-17.357956 616.35095 204.28052
-11.572044 616.35095 204.28052
-5.7860222 616.35095 204.28052
0 600.31445 233.32349
5.843771 600.31445 233.32349
11.687765 600.31445 233.32349
17.531536 600.31445 233.32349
23.37553 600.31445 233.32349
29.219301 600.31445 233.32349
35.399712 584.76392 261.48608
41.299816 584.76392 261.48608
47.199688 584.76392 261.48608
53.099792 584.76392 261.48608
59.595802 568.24146 291.40918
64.899544 584.76392 261.48608
70.799652 584.76392 261.48608
76.699524 584.76392 261.48608
82.599632 584.76392 261.48608
87.657906 600.31445 233.32349
93.501671 600.31445 233.32349
98.362045 616.35095 204.28052
104.14796 616.35095 204.28052
109.93409 616.35095 204.28052
115.72 616.35095 204.28052
121.50592 616.35095 204.28052
127.29205 616.35095 204.28052
133.07796 616.35095 204.28052
138.86409 616.35095 204.28052
144.65001 616.35095 204.28052
150.43591 616.35095 204.28052
157.78427 600.31445 233.32349
163.62804 600.31445 233.32349
171.09912 584.76392 261.48608
176.99901 584.76392 261.48608
182.8989 584.76392 261.48608
187.00357 600.31445 233.32349
192.84734 600.31445 233.32349
198.69133 600.31445 233.32349
204.53511 600.31445 233.32349
-157.49138 655.8811 121.11523
-151.86678 655.8811 121.11523
-146.24205 655.8811 121.11523
-140.61734 655.8811 121.11523
-134.99263 655.8811 121.11523
-129.3679 655.8811 121.11523
-123.7433 655.8811 121.11523
-118.11858 655.8811 121.11523
-112.49387 655.8811 121.11523
-106.86916 655.8811 121.11523
-101.24444 655.8811 121.11523
-95.619835 655.8811 121.11523
-89.995117 655.8811 121.11523
-84.370399 655.8811 121.11523
-78.745689 655.8811 121.11523
-73.120972 655.8811 121.11523
-67.496368 655.8811 121.11523
-61.871651 655.8811 121.11523
-56.772934 641.25403 147.49707
-51.095619 641.25403 147.49707
-45.418304 641.25403 147.49707
-39.7411 641.25403 147.49707
-34.063782 641.25403 147.49707
-28.386467 641.25403 147.49707
-22.926565 626.1394 174.7583
-17.357956 611.02478 202.01978
-11.572044 611.02478 202.01978
-5.8438826 594.93506 231.04004
0 594.93506 231.04004
5.843771 594.93506 231.04004
11.687765 594.93506 231.04004
17.531536 594.93506 231.04004
23.37553 594.93506 231.04004
29.219301 594.93506 231.04004
35.399712 579.33301 259.18066
41.299816 579.33301 259.18066
47.199688 579.33301 259.18066
53.099792 579.33301 259.18066
58.999668 579.33301 259.18066
64.899544 579.33301 259.18066
70.799652 579.33301 259.18066
76.699524 579.33301 259.18066
82.599632 579.33301 259.18066
88.499504 579.33301 259.18066
94.399376 579.33301 259.18066
99.345665 594.93506 231.04004
105.18944 594.93506 231.04004
111.03343 594.93506 231.04004
116.8772 594.93506 231.04004
122.72098 594.93506 231.04004
128.56497 594.93506 231.04004
134.40874 594.93506 231.04004
140.25273 594.93506 231.04004
146.09651 594.93506 231.04004
151.94028 594.93506 231.04004
159.29916 579.33301 259.18066
165.19902 579.33301 259.18066
171.09912 579.33301 259.18066
176.99901 579.33301 259.18066
181.15958 594.93506 231.04004
187.00357 594.93506 231.04004
194.69885 579.33301 259.18066
198.69133 594.93506 231.04004
204.53511 594.93506 231.04004
-163.1161 650.70349 118.91748
-157.49138 650.70349 118.91748
-151.86678 650.70349 118.91748
-146.24205 650.70349 118.91748
-140.61734 650.70349 118.91748
-134.99263 650.70349 118.91748
-129.3679 650.70349 118.91748
-123.7433 650.70349 118.91748
-118.11858 650.70349 118.91748
-112.49387 650.70349 118.91748
-106.86916 650.70349 118.91748
-101.24444 650.70349 118.91748
-95.619835 650.70349 118.91748
-89.995117 650.70349 118.91748
-84.370399 650.70349 118.91748
-78.745689 650.70349 118.91748
-73.120972 650.70349 118.91748
-67.496368 650.70349 118.91748
-61.871651 650.70349 118.91748
-56.772934 636.02808 145.27881
-51.095619 636.02808 145.27881
-45.418304 636.02808 145.27881
-39.7411 636.02808 145.27881
-34.063782 636.02808 145.27881
-28.386467 636.02808 145.27881
-22.926565 620.86328 172.5188
-17.357956 605.69873 199.75903
-11.572044 605.69873 199.75903
-5.7860222 605.69873 199.75903
0 589.55566 228.75659
5.843771 589.55566 228.75659
11.687765 589.55566 228.75659
17.531536 589.55566 228.75659
23.37553 589.55566 228.75659
29.499834 573.90186 256.87549
35.399712 573.90186 256.87549
41.299816 573.90186 256.87549
47.199688 573.90186 256.87549
53.099792 573.90186 256.87549
58.999668 573.90186 256.87549
64.899544 573.90186 256.87549
70.799652 573.90186 256.87549
76.699524 573.90186 256.87549
82.599632 573.90186 256.87549
88.499504 573.90186 256.87549
94.399376 573.90186 256.87549
100.29948 573.90186 256.87549
106.19936 573.90186 256.87549
111.03343 589.55566 228.75659
116.8772 589.55566 228.75659
122.72098 589.55566 228.75659
128.56497 589.55566 228.75659
134.40874 589.55566 228.75659
140.25273 589.55566 228.75659
146.09651 589.55566 228.75659
153.39905 573.90186 256.87549
159.29916 573.90186 256.87549
165.19902 573.90186 256.87549
171.09912 573.90186 256.87549
176.99901 573.90186 256.87549
181.15958 589.55566 228.75659
187.00357 589.55566 228.75659
194.69885 573.90186 256.87549
200.59895 573.90186 256.87549
-163.1161 645.526 116.71973
-157.49138 645.526 116.71973
-151.86678 645.526 116.71973
-146.24205 645.526 116.71973
-140.61734 645.526 116.71973
-134.99263 645.526 116.71973
-129.3679 645.526 116.71973
-123.7433 645.526 116.71973
-118.11858 645.526 116.71973
-112.49387 645.526 116.71973
-106.86916 645.526 116.71973
-101.24444 645.526 116.71973
-95.619835 645.526 116.71973
-89.995117 645.526 116.71973
-84.370399 645.526 116.71973
-78.745689 645.526 116.71973
-73.120972 645.526 116.71973
-67.496368 645.526 116.71973
-61.871651 645.526 116.71973
-56.772934 630.80212 143.06055
-51.095619 630.80212 143.06055
-45.418304 630.80212 143.06055
-39.7411 630.80212 143.06055
-34.063782 630.80212 143.06055
-28.386467 630.80212 143.06055
-22.926565 615.5874 170.2793
-17.194897 615.5874 170.2793
-11.463337 615.5874 170.2793
-5.7860222 600.3728 197.49829
0 584.17639 226.47339
5.843771 584.17639 226.47339
11.687765 584.17639 226.47339
41.299816 568.47107 254.57007
47.199688 568.47107 254.57007
53.099792 568.47107 254.57007
58.999668 568.47107 254.57007
65.55529 551.78394 284.42334
70.799652 568.47107 254.57007
76.699524 568.47107 254.57007
82.599632 568.47107 254.57007
88.499504 568.47107 254.57007
94.399376 568.47107 254.57007
100.29948 568.47107 254.57007
106.19936 568.47107 254.57007
112.09946 568.47107 254.57007
116.8772 584.17639 226.47339
122.72098 584.17639 226.47339
128.56497 584.17639 226.47339
134.40874 584.17639 226.47339
140.25273 584.17639 226.47339
146.09651 584.17639 226.47339
153.39905 568.47107 254.57007
159.29916 568.47107 254.57007
165.19902 568.47107 254.57007
171.09912 568.47107 254.57007
176.99901 568.47107 254.57007
181.15958 584.17639 226.47339
187.00357 584.17639 226.47339
194.69885 568.47107 254.57007
-163.1161 640.34839 114.52197
-157.49138 640.34839 114.52197
-151.86678 640.34839 114.52197
-146.24205 640.34839 114.52197
-140.61734 640.34839 114.52197
-134.99263 640.34839 114.52197
-129.3679 640.34839 114.52197
-123.7433 640.34839 114.52197
-118.11858 640.34839 114.52197
-112.49387 640.34839 114.52197
-106.86916 640.34839 114.52197
-101.24444 640.34839 114.52197
-95.619835 640.34839 114.52197
-89.995117 640.34839 114.52197
-84.370399 640.34839 114.52197
-78.745689 640.34839 114.52197
-73.120972 640.34839 114.52197
-67.496368 640.34839 114.52197
-61.871651 640.34839 114.52197
-56.772934 625.57605 140.84204
-51.095619 625.57605 140.84204
-45.418304 625.57605 140.84204
-39.7411 625.57605 140.84204
-34.063782 625.57605 140.84204
-28.386467 625.57605 140.84204
-22.926565 610.31128 168.03979
-17.194897 610.31128 168.03979
-11.463337 610.31128 168.03979
-5.7860222 595.04663 195.23755
0 578.79712 224.18994
5.843771 578.79712 224.18994
11.687765 578.79712 224.18994
41.299816 563.04004 252.26489
47.199688 563.04004 252.26489
53.099792 563.04004 252.26489
58.999668 563.04004 252.26489
65.55529 546.2981 282.09473
71.515007 546.2981 282.09473
77.474495 546.2981 282.09473
83.434212 546.2981 282.09473
88.499504 563.04004 252.26489
94.399376 563.04004 252.26489
100.29948 563.04004 252.26489
106.19936 563.04004 252.26489
112.09946 563.04004 252.26489
117.99934 563.04004 252.26489
122.72098 578.79712 224.18994
128.56497 578.79712 224.18994
134.40874 578.79712 224.18994
141.5993 563.04004 252.26489
147.49918 563.04004 252.26489
153.39905 563.04004 252.26489
159.29916 563.04004 252.26489
166.86819 546.2981 282.09473
172.82793 546.2981 282.09473
178.7874 546.2981 282.09473
182.8989 563.04004 252.26489
188.799 563.04004 252.26489
196.66609 546.2981 282.09473
202.62582 546.2981 282.09473
-163.1161 635.1709 112.32422
-157.49138 635.1709 112.32422
-151.86678 635.1709 112.32422
-147.60965 620.35022 138.62378
-141.93234 620.35022 138.62378
-134.99263 635.1709 112.32422
-129.3679 635.1709 112.32422
-123.7433 635.1709 112.32422
-118.11858 635.1709 112.32422
-112.49387 635.1709 112.32422
-106.86916 635.1709 112.32422
-101.24444 635.1709 112.32422
-95.619835 635.1709 112.32422
-89.995117 635.1709 112.32422
-84.370399 635.1709 112.32422
-78.745689 635.1709 112.32422
-73.120972 635.1709 112.32422
-67.496368 635.1709 112.32422
-61.871651 635.1709 112.32422
-56.246937 635.1709 112.32422
-50.622219 635.1709 112.32422
-45.418304 620.35022 138.62378
-39.7411 620.35022 138.62378
-34.063782 620.35022 138.62378
-28.386467 620.35022 138.62378
-23.14398 589.7207 192.97681
-17.357956 589.7207 192.97681
-11.572044 589.7207 192.97681
-5.7860222 589.7207 192.97681
0 557.60913 249.95947
5.8998771 557.60913 249.95947
41.299816 557.60913 249.95947
47.199688 557.60913 249.95947
53.636314 540.81226 279.76611
59.595802 540.81226 279.76611
65.55529 540.81226 279.76611
71.515007 540.81226 279.76611
77.474495 540.81226 279.76611
83.434212 540.81226 279.76611
88.499504 557.60913 249.95947
94.399376 557.60913 249.95947
100.29948 557.60913 249.95947
106.19936 557.60913 249.95947
112.09946 557.60913 249.95947
117.99934 557.60913 249.95947
123.89921 557.60913 249.95947
129.79932 557.60913 249.95947
135.69919 557.60913 249.95947
141.5993 557.60913 249.95947
147.49918 557.60913 249.95947
153.39905 557.60913 249.95947
160.90871 540.81226 279.76611
166.86819 540.81226 279.76611
172.82793 540.81226 279.76611
178.7874 540.81226 279.76611
182.8989 557.60913 249.95947
188.799 557.60913 249.95947
196.66609 540.81226 279.76611
202.62582 540.81226 279.76611
-163.1161 629.99329 110.12646
-157.49138 629.99329 110.12646
-151.86678 629.99329 110.12646
-146.24205 629.99329 110.12646
-141.93234 615.12415 136.40552
-134.99263 629.99329 110.12646
-129.3679 629.99329 110.12646
-123.7433 629.99329 110.12646
-118.11858 629.99329 110.12646
-112.49387 629.99329 110.12646
-106.86916 629.99329 110.12646
-101.24444 629.99329 110.12646
-95.619835 629.99329 110.12646
-89.995117 629.99329 110.12646
-84.370399 629.99329 110.12646
-78.745689 629.99329 110.12646
-73.120972 629.99329 110.12646
-67.496368 629.99329 110.12646
-61.871651 629.99329 110.12646
-56.246937 629.99329 110.12646
-50.622219 629.99329 110.12646
-45.418304 615.12415 136.40552
-39.7411 615.12415 136.40552
-34.063782 615.12415 136.40552
-28.386467 615.12415 136.40552
-23.14398 584.39453 190.71582
-17.357956 584.39453 190.71582
-11.687765 568.03845 219.62305
-5.8438826 568.03845 219.62305
0 552.1781 247.6543
5.8998771 552.1781 247.6543
41.717106 535.32642 277.4375
47.676598 535.32642 277.4375
53.636314 535.32642 277.4375
59.595802 535.32642 277.4375
65.55529 535.32642 277.4375
71.515007 535.32642 277.4375
77.474495 535.32642 277.4375
83.434212 535.32642 277.4375
88.499504 552.1781 247.6543
94.399376 552.1781 247.6543
100.29948 552.1781 247.6543
106.19936 552.1781 247.6543
112.09946 552.1781 247.6543
117.99934 552.1781 247.6543
123.89921 552.1781 247.6543
129.79932 552.1781 247.6543
135.69919 552.1781 247.6543
141.5993 552.1781 247.6543
147.49918 552.1781 247.6543
153.39905 552.1781 247.6543
160.90871 535.32642 277.4375
166.86819 535.32642 277.4375
172.82793 535.32642 277.4375
178.7874 535.32642 277.4375
184.74689 535.32642 277.4375
190.70662 535.32642 277.4375
196.66609 535.32642 277.4375
202.62582 535.32642 277.4375
-163.1161 624.8158 107.92871
-157.49138 624.8158 107.92871
-151.86678 624.8158 107.92871
-146.24205 624.8158 107.92871
-141.93234 609.89819 134.18726
-134.99263 624.8158 107.92871
-129.3679 624.8158 107.92871
-123.7433 624.8158 107.92871
-118.11858 624.8158 107.92871
-112.49387 624.8158 107.92871
-106.86916 624.8158 107.92871
-101.24444 624.8158 107.92871
-95.619835 624.8158 107.92871
-89.995117 624.8158 107.92871
-84.370399 624.8158 107.92871
-78.745689 624.8158 107.92871
-73.120972 624.8158 107.92871
-67.496368 624.8158 107.92871
-61.871651 624.8158 107.92871
-56.772934 609.89819 134.18726
-51.095619 609.89819 134.18726
-45.418304 609.89819 134.18726
-39.7411 609.89819 134.18726
-34.063782 609.89819 134.18726
-28.386467 609.89819 134.18726
-23.14398 579.0686 188.45508
-17.357956 579.0686 188.45508
-11.463337 594.4834 161.32129
-5.7316685 594.4834 161.32129
0 594.4834 161.32129
47.676598 529.8407 275.10889
53.636314 529.8407 275.10889
59.595802 529.8407 275.10889
65.55529 529.8407 275.10889
71.515007 529.8407 275.10889
77.474495 529.8407 275.10889
83.434212 529.8407 275.10889
88.499504 546.74731 245.34888
94.399376 546.74731 245.34888
100.29948 546.74731 245.34888
106.19936 546.74731 245.34888
112.09946 546.74731 245.34888
117.99934 546.74731 245.34888
123.89921 546.74731 245.34888
129.79932 546.74731 245.34888
135.69919 546.74731 245.34888
143.03001 529.8407 275.10889
148.9895 529.8407 275.10889
154.94899 529.8407 275.10889
160.90871 529.8407 275.10889
168.53737 512.93408 304.8689
174.5567 512.93408 304.8689
178.7874 529.8407 275.10889
184.74689 529.8407 275.10889
190.70662 529.8407 275.10889
196.66609 529.8407 275.10889
202.62582 529.8407 275.10889
-164.64149 604.67212 131.96899
-158.96417 604.67212 131.96899
-151.86678 619.63818 105.73096
-146.24205 619.63818 105.73096
-141.93234 604.67212 131.96899
-134.99263 619.63818 105.73096
-129.3679 619.63818 105.73096
-123.7433 619.63818 105.73096
-118.11858 619.63818 105.73096
-112.49387 619.63818 105.73096
-106.86916 619.63818 105.73096
-101.24444 619.63818 105.73096
-95.619835 619.63818 105.73096
-89.995117 619.63818 105.73096
-84.370399 619.63818 105.73096
-78.745689 619.63818 105.73096
-73.120972 619.63818 105.73096
-67.496368 619.63818 105.73096
-62.450253 604.67212 131.96899
-56.772934 604.67212 131.96899
-51.095619 604.67212 131.96899
-45.418304 604.67212 131.96899
-39.7411 604.67212 131.96899
-34.063782 604.67212 131.96899
-28.386467 604.67212 131.96899
-22.926565 589.20728 159.08154
-17.357956 573.74243 186.19434
-11.463337 589.20728 159.08154
-5.7316685 589.20728 159.08154
0 589.20728 159.08154
47.676598 524.35474 272.78027
53.636314 524.35474 272.78027
60.191936 507.39331 302.51685
65.55529 524.35474 272.78027
71.515007 524.35474 272.78027
77.474495 524.35474 272.78027
83.434212 524.35474 272.78027
89.3937 524.35474 272.78027
95.353195 524.35474 272.78027
100.29948 541.31628 243.0437
106.19936 541.31628 243.0437
112.09946 541.31628 243.0437
117.99934 541.31628 243.0437
123.89921 541.31628 243.0437
129.79932 541.31628 243.0437
135.69919 541.31628 243.0437
143.03001 524.35474 272.78027
148.9895 524.35474 272.78027
154.94899 524.35474 272.78027
160.90871 524.35474 272.78027
168.53737 507.39331 302.51685
174.5567 507.39331 302.51685
178.7874 524.35474 272.78027
184.74689 524.35474 272.78027
190.70662 524.35474 272.78027
198.63335 507.39331 302.51685
-157.49138 614.46069 103.5332
-151.86678 614.46069 103.5332
-146.24205 614.46069 103.5332
-140.61734 614.46069 103.5332
-134.99263 614.46069 103.5332
-129.3679 614.46069 103.5332
-123.7433 614.46069 103.5332
-118.11858 614.46069 103.5332
-112.49387 614.46069 103.5332
-106.86916 614.46069 103.5332
-101.24444 614.46069 103.5332
-95.619835 614.46069 103.5332
-89.995117 614.46069 103.5332
-84.370399 614.46069 103.5332
-78.745689 614.46069 103.5332
-73.120972 614.46069 103.5332
-67.496368 614.46069 103.5332
-61.871651 614.46069 103.5332
-56.246937 614.46069 103.5332
-51.095619 599.44629 129.75073
-45.418304 599.44629 129.75073
-39.7411 599.44629 129.75073
-34.063782 599.44629 129.75073
-28.386467 599.44629 129.75073
-22.709152 599.44629 129.75073
-17.357956 568.4165 183.93359
-11.572044 568.4165 183.93359
-5.7860222 568.4165 183.93359
0 568.4165 183.93359
5.785912 568.4165 183.93359
48.153503 501.85266 300.16504
