ply
format ascii 1.0
comment PCL generated
element vertex 1589
property float x
property float y
property float z
element camera 0
property float view_px
property float view_py
property float view_pz
property float x_axisx
property float x_axisy
property float x_axisz
property float y_axisx
property float y_axisy
property float y_axisz
property float z_axisx
property float z_axisy
property float z_axisz
property float focal
property float scalex
property float scaley
property float centerx
property float centery
property int viewportx
property int viewporty
property float k1
property float k2
end_header
-179.36603 951.89148 346.70898
-173.58 951.89148 346.70898
-169.47191 939.21033 377.17627
-163.62804 939.21033 377.17627
-157.78427 939.21033 377.17627
-151.9404 939.21033 377.17627
-146.09651 939.21033 377.17627
-140.25262 939.21033 377.17627
-134.40874 939.21033 377.17627
-128.56497 939.21033 377.17627
-122.72108 939.21033 377.17627
-116.8772 939.21033 377.17627
-111.03333 939.21033 377.17627
-105.18944 939.21033 377.17627
-99.345665 939.21033 377.17627
-93.501785 939.21033 377.17627
-87.657906 939.21033 377.17627
-81.814018 939.21033 377.17627
-75.970139 939.21033 377.17627
-70.126366 939.21033 377.17627
-64.282486 939.21033 377.17627
-58.438602 939.21033 377.17627
-52.594719 939.21033 377.17627
-46.750835 939.21033 377.17627
-40.907066 939.21033 377.17627
50.148926 998.77295 234.07324
55.212467 1009.917 207.29932
60.733631 1009.917 207.29932
66.255005 1009.917 207.29932
71.776169 1009.917 207.29932
77.297546 1009.917 207.29932
82.818703 1009.917 207.29932
87.526314 1021.061 180.5249
92.996849 1021.061 180.5249
98.467163 1021.061 180.5249
103.93769 1021.061 180.5249
109.408 1021.061 180.5249
114.87832 1021.061 180.5249
120.34885 1021.061 180.5249
124.69002 1031.8207 154.67432
130.11145 1031.8207 154.67432
135.53267 1031.8207 154.67432
139.67747 1042.5803 128.82324
145.04982 1042.5803 128.82324
150.42194 1042.5803 128.82324
155.79427 1042.5803 128.82324
159.7462 1052.9559 103.89551
165.071 1052.9559 103.89551
170.396 1052.9559 103.89551
175.72078 1052.9559 103.89551
182.65533 1042.5803 128.82324
188.02748 1042.5803 128.82324
193.39961 1042.5803 128.82324
198.77194 1042.5803 128.82324
204.14407 1042.5803 128.82324
209.5164 1042.5803 128.82324
214.88853 1042.5803 128.82324
220.26068 1042.5803 128.82324
227.69493 1031.8207 154.67432
233.11615 1031.8207 154.67432
238.53758 1031.8207 154.67432
243.9588 1031.8207 154.67432
249.38004 1031.8207 154.67432
254.80147 1031.8207 154.67432
260.22269 1031.8207 154.67432
265.6441 1031.8207 154.67432
273.52002 1021.061 180.5249
278.99033 1021.061 180.5249
284.46085 1021.061 180.5249
289.93118 1021.061 180.5249
295.40167 1021.061 180.5249
303.66858 1009.917 207.29932
309.18973 1009.917 207.29932
321.21765 1102.5273 -15.203125
326.31647 1102.5273 -15.203125
334.26425 1092.9204 7.8781738
342.29968 1083.3136 30.959473
350.5405 1073.3225 54.963867
355.77234 1073.3225 54.963867
361.00443 1073.3225 54.963867
366.23627 1073.3225 54.963867
371.46814 1073.3225 54.963867
376.70023 1073.3225 54.963867
381.93207 1073.3225 54.963867
387.16415 1073.3225 54.963867
392.39603 1073.3225 54.963867
397.62787 1073.3225 54.963867
402.85995 1073.3225 54.963867
408.0918 1073.3225 54.963867
413.32388 1073.3225 54.963867
422.20267 1063.3313 78.968018
427.48013 1063.3313 78.968018
432.75778 1063.3313 78.968018
438.03525 1063.3313 78.968018
-194.69885 921.48267 404.41479
-188.799 921.48267 404.41479
-179.36603 946.56543 344.44824
-173.58 946.56543 344.44824
-169.47191 933.83105 374.89282
-163.62804 933.83105 374.89282
-157.78427 933.83105 374.89282
-151.9404 933.83105 374.89282
-146.09651 933.83105 374.89282
-140.25262 933.83105 374.89282
-134.40874 933.83105 374.89282
-128.56497 933.83105 374.89282
-122.72108 933.83105 374.89282
-116.8772 933.83105 374.89282
-111.03333 933.83105 374.89282
-105.18944 933.83105 374.89282
-99.345665 933.83105 374.89282
-93.501785 933.83105 374.89282
-87.657906 933.83105 374.89282
-81.814018 933.83105 374.89282
-75.970139 933.83105 374.89282
-70.799652 921.48267 404.41479
50.148926 993.64392 231.896
55.212467 1004.8346 205.14185
60.733631 1004.8346 205.14185
66.255005 1004.8346 205.14185
71.776169 1004.8346 205.14185
77.297546 1004.8346 205.14185
82.818703 1004.8346 205.14185
87.526314 1016.0255 178.38745
92.996849 1016.0255 178.38745
98.467163 1016.0255 178.38745
103.93769 1016.0255 178.38745
109.408 1016.0255 178.38745
114.87832 1016.0255 178.38745
120.34885 1016.0255 178.38745
124.69002 1026.8303 152.55591
130.11145 1026.8303 152.55591
135.53267 1026.8303 152.55591
140.9539 1026.8303 152.55591
145.04982 1037.6353 126.72437
150.42194 1037.6353 126.72437
155.79427 1037.6353 126.72437
159.7462 1048.0543 101.81494
165.071 1048.0543 101.81494
170.396 1048.0543 101.81494
175.72078 1048.0543 101.81494
182.65533 1037.6353 126.72437
188.02748 1037.6353 126.72437
193.39961 1037.6353 126.72437
198.77194 1037.6353 126.72437
204.14407 1037.6353 126.72437
209.5164 1037.6353 126.72437
214.88853 1037.6353 126.72437
220.26068 1037.6353 126.72437
227.69493 1026.8303 152.55591
233.11615 1026.8303 152.55591
238.53758 1026.8303 152.55591
243.9588 1026.8303 152.55591
249.38004 1026.8303 152.55591
254.80147 1026.8303 152.55591
260.22269 1026.8303 152.55591
268.04968 1016.0255 178.38745
273.52002 1016.0255 178.38745
278.99033 1016.0255 178.38745
284.46085 1016.0255 178.38745
289.93118 1016.0255 178.38745
295.40167 1016.0255 178.38745
303.66858 1004.8346 205.14185
309.18973 1004.8346 205.14185
337.1134 1078.5394 28.932861
342.29968 1078.5394 28.932861
350.5405 1068.5065 52.919434
355.77234 1068.5065 52.919434
361.00443 1068.5065 52.919434
369.42734 1058.4733 76.906006
374.7048 1058.4733 76.906006
376.70023 1068.5065 52.919434
381.93207 1068.5065 52.919434
387.16415 1068.5065 52.919434
392.39603 1068.5065 52.919434
397.62787 1068.5065 52.919434
402.85995 1068.5065 52.919434
408.0918 1068.5065 52.919434
413.32388 1068.5065 52.919434
422.20267 1058.4733 76.906006
427.48013 1058.4733 76.906006
432.75778 1058.4733 76.906006
438.03525 1058.4733 76.906006
443.3129 1058.4733 76.906006
-202.51001 941.23938 342.1875
-196.72398 941.23938 342.1875
-190.93796 941.23938 342.1875
-185.15205 941.23938 342.1875
-179.36603 941.23938 342.1875
-173.58 941.23938 342.1875
-169.47191 928.45166 372.60938
-163.62804 928.45166 372.60938
-157.78427 928.45166 372.60938
-151.9404 928.45166 372.60938
-146.09651 928.45166 372.60938
-140.25262 928.45166 372.60938
-134.40874 928.45166 372.60938
-128.56497 928.45166 372.60938
-122.72108 928.45166 372.60938
-116.8772 928.45166 372.60938
-111.03333 928.45166 372.60938
-105.18944 928.45166 372.60938
-99.345665 928.45166 372.60938
-93.501785 928.45166 372.60938
-87.657906 928.45166 372.60938
-81.814018 928.45166 372.60938
-76.699524 916.05176 402.10938
49.691303 999.75232 202.98462
55.212467 999.75232 202.98462
61.292946 988.51477 229.71899
66.255005 999.75232 202.98462
71.776169 999.75232 202.98462
77.297546 999.75232 202.98462
82.818703 999.75232 202.98462
88.339859 999.75232 202.98462
92.996849 1010.99 176.25
98.467163 1010.99 176.25
103.93769 1010.99 176.25
109.408 1010.99 176.25
114.87832 1010.99 176.25
120.34885 1010.99 176.25
124.69002 1021.8401 150.43774
130.11145 1021.8401 150.43774
135.53267 1021.8401 150.43774
139.67747 1032.6901 124.62524
145.04982 1032.6901 124.62524
150.42194 1032.6901 124.62524
155.79427 1032.6901 124.62524
161.16641 1032.6901 124.62524
166.53854 1032.6901 124.62524
171.91087 1032.6901 124.62524
177.283 1032.6901 124.62524
182.65533 1032.6901 124.62524
188.02748 1032.6901 124.62524
193.39961 1032.6901 124.62524
198.77194 1032.6901 124.62524
204.14407 1032.6901 124.62524
209.5164 1032.6901 124.62524
214.88853 1032.6901 124.62524
222.2735 1021.8401 150.43774
227.69493 1021.8401 150.43774
233.11615 1021.8401 150.43774
238.53758 1021.8401 150.43774
243.9588 1021.8401 150.43774
249.38004 1021.8401 150.43774
254.80147 1021.8401 150.43774
260.22269 1021.8401 150.43774
268.04968 1010.99 176.25
273.52002 1010.99 176.25
278.99033 1010.99 176.25
284.46085 1010.99 176.25
289.93118 1010.99 176.25
295.40167 1010.99 176.25
300.87201 1010.99 176.25
345.30841 1063.6904 50.875244
350.5405 1063.6904 50.875244
355.77234 1063.6904 50.875244
364.14987 1053.6152 74.843994
369.42734 1053.6152 74.843994
374.7048 1053.6152 74.843994
376.70023 1063.6904 50.875244
381.93207 1063.6904 50.875244
387.16415 1063.6904 50.875244
392.39603 1063.6904 50.875244
397.62787 1063.6904 50.875244
402.85995 1063.6904 50.875244
408.0918 1063.6904 50.875244
416.92523 1053.6152 74.843994
422.20267 1053.6152 74.843994
427.48013 1053.6152 74.843994
432.75778 1053.6152 74.843994
438.03525 1053.6152 74.843994
447.28946 1043.1527 99.734375
-216.22287 923.07239 370.32617
-210.379 923.07239 370.32617
-202.51001 935.91333 339.92676
-196.72398 935.91333 339.92676
-190.93796 935.91333 339.92676
-185.15205 935.91333 339.92676
-179.36603 935.91333 339.92676
-173.58 935.91333 339.92676
-167.79399 935.91333 339.92676
-162.00795 935.91333 339.92676
-157.78427 923.07239 370.32617
-151.9404 923.07239 370.32617
-146.09651 923.07239 370.32617
-140.25262 923.07239 370.32617
-134.40874 923.07239 370.32617
-128.56497 923.07239 370.32617
-122.72108 923.07239 370.32617
-116.8772 923.07239 370.32617
-111.03333 923.07239 370.32617
-105.18944 923.07239 370.32617
-99.345665 923.07239 370.32617
-93.501785 923.07239 370.32617
44.576702 983.38562 227.54175
49.691303 994.66992 200.82715
55.212467 994.66992 200.82715
61.292946 983.38562 227.54175
66.255005 994.66992 200.82715
71.776169 994.66992 200.82715
77.297546 994.66992 200.82715
82.818703 994.66992 200.82715
88.339859 994.66992 200.82715
92.996849 1005.9545 174.11255
98.467163 1005.9545 174.11255
103.93769 1005.9545 174.11255
109.408 1005.9545 174.11255
114.87832 1005.9545 174.11255
120.34885 1005.9545 174.11255
125.81916 1005.9545 174.11255
130.11145 1016.8497 148.31934
135.53267 1016.8497 148.31934
139.67747 1027.745 122.52612
145.04982 1027.745 122.52612
150.42194 1027.745 122.52612
155.79427 1027.745 122.52612
161.16641 1027.745 122.52612
166.53854 1027.745 122.52612
171.91087 1027.745 122.52612
177.283 1027.745 122.52612
182.65533 1027.745 122.52612
188.02748 1027.745 122.52612
193.39961 1027.745 122.52612
198.77194 1027.745 122.52612
204.14407 1027.745 122.52612
209.5164 1027.745 122.52612
214.88853 1027.745 122.52612
220.26068 1027.745 122.52612
227.69493 1016.8497 148.31934
233.11615 1016.8497 148.31934
238.53758 1016.8497 148.31934
243.9588 1016.8497 148.31934
249.38004 1016.8497 148.31934
254.80147 1016.8497 148.31934
262.57916 1005.9545 174.11255
268.04968 1005.9545 174.11255
273.52002 1005.9545 174.11255
278.99033 1005.9545 174.11255
284.46085 1005.9545 174.11255
289.93118 1005.9545 174.11255
295.40167 1005.9545 174.11255
300.87201 1005.9545 174.11255
345.30841 1058.8744 48.830811
350.5405 1058.8744 48.830811
358.87225 1048.7573 72.781738
364.14987 1048.7573 72.781738
369.42734 1048.7573 72.781738
374.7048 1048.7573 72.781738
376.70023 1058.8744 48.830811
381.93207 1058.8744 48.830811
387.16415 1058.8744 48.830811
392.39603 1058.8744 48.830811
397.62787 1058.8744 48.830811
402.85995 1058.8744 48.830811
411.64758 1048.7573 72.781738
416.92523 1048.7573 72.781738
422.20267 1048.7573 72.781738
427.48013 1048.7573 72.781738
432.75778 1048.7573 72.781738
438.03525 1048.7573 72.781738
447.28946 1038.2512 97.653809
452.61426 1038.2512 97.653809
-246.46077 942.69995 309.13037
-240.72922 942.69995 309.13037
-237.22603 930.58728 337.66602
-233.75441 917.69312 368.04272
-227.91052 917.69312 368.04272
-222.06665 917.69312 368.04272
-216.22287 917.69312 368.04272
-210.379 917.69312 368.04272
-204.53511 917.69312 368.04272
-196.72398 930.58728 337.66602
-190.93796 930.58728 337.66602
-185.15205 930.58728 337.66602
-179.36603 930.58728 337.66602
-173.58 930.58728 337.66602
-167.79399 930.58728 337.66602
-162.00795 930.58728 337.66602
-157.78427 917.69312 368.04272
-151.9404 917.69312 368.04272
-146.09651 917.69312 368.04272
-140.25262 917.69312 368.04272
-134.40874 917.69312 368.04272
-128.56497 917.69312 368.04272
-122.72108 917.69312 368.04272
-116.8772 917.69312 368.04272
-111.03333 917.69312 368.04272
-105.18944 917.69312 368.04272
44.576702 978.25647 225.3645
49.691303 989.58765 198.66992
55.212467 989.58765 198.66992
61.292946 978.25647 225.3645
66.255005 989.58765 198.66992
71.776169 989.58765 198.66992
77.297546 989.58765 198.66992
82.818703 989.58765 198.66992
87.526314 1000.9189 171.9751
92.996849 1000.9189 171.9751
98.467163 1000.9189 171.9751
103.93769 1000.9189 171.9751
109.408 1000.9189 171.9751
114.87832 1000.9189 171.9751
120.34885 1000.9189 171.9751
125.81916 1000.9189 171.9751
130.11145 1011.8594 146.20117
135.53267 1011.8594 146.20117
140.9539 1011.8594 146.20117
145.04982 1022.7998 120.427
150.42194 1022.7998 120.427
155.79427 1022.7998 120.427
161.16641 1022.7998 120.427
166.53854 1022.7998 120.427
171.91087 1022.7998 120.427
177.283 1022.7998 120.427
182.65533 1022.7998 120.427
188.02748 1022.7998 120.427
193.39961 1022.7998 120.427
198.77194 1022.7998 120.427
204.14407 1022.7998 120.427
209.5164 1022.7998 120.427
214.88853 1022.7998 120.427
220.26068 1022.7998 120.427
225.63301 1022.7998 120.427
233.11615 1011.8594 146.20117
238.53758 1011.8594 146.20117
243.9588 1011.8594 146.20117
249.38004 1011.8594 146.20117
254.80147 1011.8594 146.20117
262.57916 1000.9189 171.9751
268.04968 1000.9189 171.9751
273.52002 1000.9189 171.9751
278.99033 1000.9189 171.9751
284.46085 1000.9189 171.9751
289.93118 1000.9189 171.9751
295.40167 1000.9189 171.9751
300.87201 1000.9189 171.9751
348.31714 1043.8993 70.719727
353.59479 1043.8993 70.719727
358.87225 1043.8993 70.719727
364.14987 1043.8993 70.719727
369.42734 1043.8993 70.719727
374.7048 1043.8993 70.719727
379.98245 1043.8993 70.719727
385.25992 1043.8993 70.719727
387.16415 1054.0583 46.786621
392.39603 1054.0583 46.786621
397.62787 1054.0583 46.786621
402.85995 1054.0583 46.786621
411.64758 1043.8993 70.719727
416.92523 1043.8993 70.719727
422.20267 1043.8993 70.719727
427.48013 1043.8993 70.719727
432.75778 1043.8993 70.719727
438.03525 1043.8993 70.719727
447.28946 1033.3496 95.573242
452.61426 1033.3496 95.573242
-255.47821 949.58655 278.37646
-249.8009 949.58655 278.37646
-244.12358 949.58655 278.37646
-240.72922 937.42383 306.89087
-234.99754 937.42383 306.89087
-233.75441 912.31372 365.75928
-227.91052 912.31372 365.75928
-222.06665 912.31372 365.75928
-216.22287 912.31372 365.75928
-210.379 912.31372 365.75928
-204.53511 912.31372 365.75928
-196.72398 925.26111 335.40527
-190.93796 925.26111 335.40527
-185.15205 925.26111 335.40527
-179.36603 925.26111 335.40527
-173.58 925.26111 335.40527
-169.47191 912.31372 365.75928
-163.62804 912.31372 365.75928
-157.78427 912.31372 365.75928
-151.9404 912.31372 365.75928
-146.09651 912.31372 365.75928
-140.25262 912.31372 365.75928
-134.40874 912.31372 365.75928
-128.56497 912.31372 365.75928
-122.72108 912.31372 365.75928
-116.8772 912.31372 365.75928
-111.03333 912.31372 365.75928
-105.18944 912.31372 365.75928
44.576702 973.12732 223.18726
50.148926 973.12732 223.18726
55.720936 973.12732 223.18726
61.292946 973.12732 223.18726
66.255005 984.50525 196.51245
71.776169 984.50525 196.51245
77.297546 984.50525 196.51245
82.818703 984.50525 196.51245
87.526314 995.8833 169.83765
92.996849 995.8833 169.83765
98.467163 995.8833 169.83765
103.93769 995.8833 169.83765
109.408 995.8833 169.83765
114.87832 995.8833 169.83765
120.34885 995.8833 169.83765
125.81916 995.8833 169.83765
130.11145 1006.869 144.08276
135.53267 1006.869 144.08276
140.9539 1006.869 144.08276
146.37532 1006.869 144.08276
151.79655 1006.869 144.08276
157.21799 1006.869 144.08276
161.16641 1017.8546 118.32788
166.53854 1017.8546 118.32788
171.91087 1017.8546 118.32788
177.283 1017.8546 118.32788
182.65533 1017.8546 118.32788
188.02748 1017.8546 118.32788
193.39961 1017.8546 118.32788
198.77194 1017.8546 118.32788
204.14407 1017.8546 118.32788
209.5164 1017.8546 118.32788
214.88853 1017.8546 118.32788
220.26068 1017.8546 118.32788
225.63301 1017.8546 118.32788
231.00513 1017.8546 118.32788
236.37747 1017.8546 118.32788
243.9588 1006.869 144.08276
249.38004 1006.869 144.08276
257.10886 995.8833 169.83765
262.57916 995.8833 169.83765
268.04968 995.8833 169.83765
273.52002 995.8833 169.83765
278.99033 995.8833 169.83765
284.46085 995.8833 169.83765
289.93118 995.8833 169.83765
298.14743 984.50525 196.51245
303.66858 984.50525 196.51245
353.59479 1039.0413 68.657715
358.87225 1039.0413 68.657715
364.14987 1039.0413 68.657715
369.42734 1039.0413 68.657715
374.7048 1039.0413 68.657715
379.98245 1039.0413 68.657715
385.25992 1039.0413 68.657715
387.16415 1049.2423 44.742188
392.39603 1049.2423 44.742188
397.62787 1049.2423 44.742188
402.85995 1049.2423 44.742188
411.64758 1039.0413 68.657715
416.92523 1039.0413 68.657715
422.20267 1039.0413 68.657715
427.48013 1039.0413 68.657715
432.75778 1039.0413 68.657715
438.03525 1039.0413 68.657715
443.3129 1039.0413 68.657715
452.61426 1028.448 93.492676
-266.15604 919.93518 333.14453
-255.47821 944.36072 276.1582
-249.8009 944.36072 276.1582
-244.12358 944.36072 276.1582
-240.72922 932.14795 304.65137
-234.99754 932.14795 304.65137
-233.75441 906.93457 363.47607
-227.91052 906.93457 363.47607
-222.06665 906.93457 363.47607
-216.22287 906.93457 363.47607
-210.379 906.93457 363.47607
-204.53511 906.93457 363.47607
-198.69122 906.93457 363.47607
-192.84734 906.93457 363.47607
-187.00357 906.93457 363.47607
-181.1597 906.93457 363.47607
-175.31581 906.93457 363.47607
-169.47191 906.93457 363.47607
-163.62804 906.93457 363.47607
-157.78427 906.93457 363.47607
-151.9404 906.93457 363.47607
-146.09651 906.93457 363.47607
-140.25262 906.93457 363.47607
-134.40874 906.93457 363.47607
-128.56497 906.93457 363.47607
-122.72108 906.93457 363.47607
-116.8772 906.93457 363.47607
-111.03333 906.93457 363.47607
44.997505 956.17944 248.58423
50.148926 967.99817 221.01001
55.720936 967.99817 221.01001
61.292946 967.99817 221.01001
66.255005 979.42297 194.35522
71.776169 979.42297 194.35522
77.297546 979.42297 194.35522
82.818703 979.42297 194.35522
87.526314 990.8479 167.7002
92.996849 990.8479 167.7002
98.467163 990.8479 167.7002
103.93769 990.8479 167.7002
109.408 990.8479 167.7002
114.87832 990.8479 167.7002
120.34885 990.8479 167.7002
125.81916 990.8479 167.7002
130.11145 1001.8787 141.9646
135.53267 1001.8787 141.9646
140.9539 1001.8787 141.9646
146.37532 1001.8787 141.9646
151.79655 1001.8787 141.9646
157.21799 1001.8787 141.9646
162.63921 1001.8787 141.9646
168.06042 1001.8787 141.9646
173.48186 1001.8787 141.9646
178.90309 1001.8787 141.9646
184.32451 1001.8787 141.9646
188.02748 1012.9095 116.22876
193.39961 1012.9095 116.22876
198.77194 1012.9095 116.22876
204.14407 1012.9095 116.22876
209.5164 1012.9095 116.22876
214.88853 1012.9095 116.22876
220.26068 1012.9095 116.22876
225.63301 1012.9095 116.22876
231.00513 1012.9095 116.22876
236.37747 1012.9095 116.22876
243.9588 1001.8787 141.9646
249.38004 1001.8787 141.9646
254.80147 1001.8787 141.9646
262.57916 990.8479 167.7002
268.04968 990.8479 167.7002
273.52002 990.8479 167.7002
278.99033 990.8479 167.7002
284.46085 990.8479 167.7002
289.93118 990.8479 167.7002
295.40167 990.8479 167.7002
300.87201 990.8479 167.7002
353.59479 1034.1833 66.595459
358.87225 1034.1833 66.595459
364.14987 1034.1833 66.595459
369.42734 1034.1833 66.595459
374.7048 1034.1833 66.595459
379.98245 1034.1833 66.595459
381.93207 1044.4263 42.697998
387.16415 1044.4263 42.697998
392.39603 1044.4263 42.697998
397.62787 1044.4263 42.697998
402.85995 1044.4263 42.697998
411.64758 1034.1833 66.595459
416.92523 1034.1833 66.595459
422.20267 1034.1833 66.595459
427.48013 1034.1833 66.595459
432.75778 1034.1833 66.595459
438.03525 1034.1833 66.595459
443.3129 1034.1833 66.595459
452.61426 1023.5465 91.412109
457.93906 1023.5465 91.412109
-300.89835 888.89697 390.58276
-294.99835 888.89697 390.58276
-286.34912 901.55518 361.19263
-280.50525 901.55518 361.19263
-271.94205 914.60913 330.88379
-266.15604 914.60913 330.88379
-257.9241 926.87183 302.41187
-252.19244 926.87183 302.41187
-246.46077 926.87183 302.41187
-240.72922 926.87183 302.41187
-237.22603 914.60913 330.88379
-233.75441 901.55518 361.19263
-227.91052 901.55518 361.19263
-222.06665 901.55518 361.19263
-216.22287 901.55518 361.19263
-210.379 901.55518 361.19263
-204.53511 901.55518 361.19263
-198.69122 901.55518 361.19263
-192.84734 901.55518 361.19263
-187.00357 901.55518 361.19263
-181.1597 901.55518 361.19263
-175.31581 901.55518 361.19263
-169.47191 901.55518 361.19263
-163.62804 901.55518 361.19263
-157.78427 901.55518 361.19263
-151.9404 901.55518 361.19263
-146.09651 901.55518 361.19263
-140.25262 901.55518 361.19263
44.997505 951.00183 246.38647
50.148926 962.86902 218.83301
55.720936 962.86902 218.83301
61.292946 962.86902 218.83301
66.255005 974.34058 192.198
71.776169 974.34058 192.198
77.297546 974.34058 192.198
82.056 985.81226 165.56274
87.526314 985.81226 165.56274
92.996849 985.81226 165.56274
98.467163 985.81226 165.56274
103.93769 985.81226 165.56274
109.408 985.81226 165.56274
114.87832 985.81226 165.56274
120.34885 985.81226 165.56274
125.81916 985.81226 165.56274
130.11145 996.88831 139.84644
135.53267 996.88831 139.84644
140.9539 996.88831 139.84644
146.37532 996.88831 139.84644
151.79655 996.88831 139.84644
157.21799 996.88831 139.84644
162.63921 996.88831 139.84644
168.06042 996.88831 139.84644
173.48186 996.88831 139.84644
178.90309 996.88831 139.84644
184.32451 996.88831 139.84644
189.74574 996.88831 139.84644
195.16696 996.88831 139.84644
200.58839 996.88831 139.84644
206.00961 996.88831 139.84644
209.5164 1007.9644 114.12964
214.88853 1007.9644 114.12964
220.26068 1007.9644 114.12964
225.63301 1007.9644 114.12964
231.00513 1007.9644 114.12964
236.37747 1007.9644 114.12964
243.9588 996.88831 139.84644
249.38004 996.88831 139.84644
254.80147 996.88831 139.84644
262.57916 985.81226 165.56274
268.04968 985.81226 165.56274
273.52002 985.81226 165.56274
278.99033 985.81226 165.56274
284.46085 985.81226 165.56274
289.93118 985.81226 165.56274
295.40167 985.81226 165.56274
353.59479 1029.3252 64.533447
358.87225 1029.3252 64.533447
364.14987 1029.3252 64.533447
369.42734 1029.3252 64.533447
374.7048 1029.3252 64.533447
379.98245 1029.3252 64.533447
381.93207 1039.6102 40.653809
387.16415 1039.6102 40.653809
392.39603 1039.6102 40.653809
397.62787 1039.6102 40.653809
402.85995 1039.6102 40.653809
408.0918 1039.6102 40.653809
416.92523 1029.3252 64.533447
422.20267 1029.3252 64.533447
427.48013 1029.3252 64.533447
432.75778 1029.3252 64.533447
438.03525 1029.3252 64.533447
443.3129 1029.3252 64.533447
452.61426 1018.6449 89.331543
457.93906 1018.6449 89.331543
-309.72452 896.1759 358.90918
-303.8808 896.1759 358.90918
-298.0369 896.1759 358.90918
-292.19302 896.1759 358.90918
-286.34912 896.1759 358.90918
-277.72797 909.28308 328.62305
-271.94205 909.28308 328.62305
-266.15604 909.28308 328.62305
-260.37 909.28308 328.62305
-254.584 909.28308 328.62305
-248.79796 909.28308 328.62305
-245.44217 896.1759 358.90918
-239.5983 896.1759 358.90918
-233.75441 896.1759 358.90918
-227.91052 896.1759 358.90918
-222.06665 896.1759 358.90918
-216.22287 896.1759 358.90918
-210.379 896.1759 358.90918
-204.53511 896.1759 358.90918
-198.69122 896.1759 358.90918
-192.84734 896.1759 358.90918
-187.00357 896.1759 358.90918
-181.1597 896.1759 358.90918
-175.31581 896.1759 358.90918
-169.47191 896.1759 358.90918
-163.62804 896.1759 358.90918
-157.78427 896.1759 358.90918
-150.43602 909.28308 328.62305
-144.65001 909.28308 328.62305
-140.25262 896.1759 358.90918
44.16993 969.2583 190.04053
49.691303 969.2583 190.04053
55.720936 957.73999 216.65576
60.733631 969.2583 190.04053
66.255005 969.2583 190.04053
71.776169 969.2583 190.04053
77.297546 969.2583 190.04053
82.056 980.77686 163.42529
87.526314 980.77686 163.42529
92.996849 980.77686 163.42529
98.467163 980.77686 163.42529
103.93769 980.77686 163.42529
109.408 980.77686 163.42529
114.87832 980.77686 163.42529
120.34885 980.77686 163.42529
125.81916 980.77686 163.42529
130.11145 991.89807 137.72803
135.53267 991.89807 137.72803
140.9539 991.89807 137.72803
146.37532 991.89807 137.72803
151.79655 991.89807 137.72803
157.21799 991.89807 137.72803
162.63921 991.89807 137.72803
168.06042 991.89807 137.72803
173.48186 991.89807 137.72803
178.90309 991.89807 137.72803
184.32451 991.89807 137.72803
189.74574 991.89807 137.72803
195.16696 991.89807 137.72803
200.58839 991.89807 137.72803
206.00961 991.89807 137.72803
209.5164 1003.0193 112.03076
214.88853 1003.0193 112.03076
220.26068 1003.0193 112.03076
225.63301 1003.0193 112.03076
231.00513 1003.0193 112.03076
238.53758 991.89807 137.72803
243.9588 991.89807 137.72803
249.38004 991.89807 137.72803
257.10886 980.77686 163.42529
262.57916 980.77686 163.42529
268.04968 980.77686 163.42529
273.52002 980.77686 163.42529
278.99033 980.77686 163.42529
284.46085 980.77686 163.42529
289.93118 980.77686 163.42529
295.40167 980.77686 163.42529
353.59479 1024.4673 62.471436
358.87225 1024.4673 62.471436
364.14987 1024.4673 62.471436
369.42734 1024.4673 62.471436
374.7048 1024.4673 62.471436
379.98245 1024.4673 62.471436
381.93207 1034.7942 38.609375
387.16415 1034.7942 38.609375
392.39603 1034.7942 38.609375
397.62787 1034.7942 38.609375
402.85995 1034.7942 38.609375
408.0918 1034.7942 38.609375
416.92523 1024.4673 62.471436
422.20267 1024.4673 62.471436
427.48013 1024.4673 62.471436
432.75778 1024.4673 62.471436
438.03525 1024.4673 62.471436
443.3129 1024.4673 62.471436
452.61426 1013.7433 87.250977
-309.72452 890.79651 356.62573
-303.8808 890.79651 356.62573
-295.08606 903.95703 326.36206
-289.30002 903.95703 326.36206
-283.51401 903.95703 326.36206
-277.72797 903.95703 326.36206
-271.94205 903.95703 326.36206
-266.15604 903.95703 326.36206
-260.37 903.95703 326.36206
-254.584 903.95703 326.36206
-248.79796 903.95703 326.36206
-245.44217 890.79651 356.62573
-239.5983 890.79651 356.62573
-233.75441 890.79651 356.62573
-227.91052 890.79651 356.62573
-222.06665 890.79651 356.62573
-216.22287 890.79651 356.62573
-210.379 890.79651 356.62573
-204.53511 890.79651 356.62573
-198.69122 890.79651 356.62573
-192.84734 890.79651 356.62573
-187.00357 890.79651 356.62573
-181.1597 890.79651 356.62573
-175.31581 890.79651 356.62573
-169.47191 890.79651 356.62573
-163.62804 890.79651 356.62573
-157.78427 890.79651 356.62573
-150.43602 903.95703 326.36206
-144.65001 903.95703 326.36206
-140.25262 890.79651 356.62573
44.16993 964.1759 187.8833
49.691303 964.1759 187.8833
55.720936 952.61072 214.47852
60.733631 964.1759 187.8833
66.255005 964.1759 187.8833
71.776169 964.1759 187.8833
76.585686 975.74121 161.28784
82.056 975.74121 161.28784
87.526314 975.74121 161.28784
92.996849 975.74121 161.28784
98.467163 975.74121 161.28784
103.93769 975.74121 161.28784
109.408 975.74121 161.28784
114.87832 975.74121 161.28784
120.34885 975.74121 161.28784
125.81916 975.74121 161.28784
130.11145 986.90759 135.60986
135.53267 986.90759 135.60986
140.9539 986.90759 135.60986
146.37532 986.90759 135.60986
151.79655 986.90759 135.60986
157.21799 986.90759 135.60986
162.63921 986.90759 135.60986
168.06042 986.90759 135.60986
173.48186 986.90759 135.60986
178.90309 986.90759 135.60986
184.32451 986.90759 135.60986
189.74574 986.90759 135.60986
195.16696 986.90759 135.60986
200.58839 986.90759 135.60986
206.00961 986.90759 135.60986
209.5164 998.07397 109.93164
214.88853 998.07397 109.93164
220.26068 998.07397 109.93164
225.63301 998.07397 109.93164
233.11615 986.90759 135.60986
238.53758 986.90759 135.60986
243.9588 986.90759 135.60986
249.38004 986.90759 135.60986
257.10886 975.74121 161.28784
262.57916 975.74121 161.28784
268.04968 975.74121 161.28784
273.52002 975.74121 161.28784
278.99033 975.74121 161.28784
281.90799 986.90759 135.60986
287.32922 986.90759 135.60986
292.75064 986.90759 135.60986
353.59479 1019.6093 60.40918
358.87225 1019.6093 60.40918
364.14987 1019.6093 60.40918
369.42734 1019.6093 60.40918
374.7048 1019.6093 60.40918
379.98245 1019.6093 60.40918
381.93207 1029.9781 36.565186
387.16415 1029.9781 36.565186
392.39603 1029.9781 36.565186
397.62787 1029.9781 36.565186
402.85995 1029.9781 36.565186
408.0918 1029.9781 36.565186
416.92523 1019.6093 60.40918
422.20267 1019.6093 60.40918
427.48013 1019.6093 60.40918
432.75778 1019.6093 60.40918
438.03525 1019.6093 60.40918
443.3129 1019.6093 60.40918
452.61426 1008.8417 85.170166
-315.56845 885.41736 354.34253
-309.72452 885.41736 354.34253
-303.8808 885.41736 354.34253
-292.314 911.04395 295.69312
-286.58234 911.04395 295.69312
-283.51401 898.6311 324.10132
-277.72797 898.6311 324.10132
-271.94205 898.6311 324.10132
-266.15604 898.6311 324.10132
-260.37 898.6311 324.10132
-254.584 898.6311 324.10132
-248.79796 898.6311 324.10132
-245.44217 885.41736 354.34253
-239.5983 885.41736 354.34253
-233.75441 885.41736 354.34253
-227.91052 885.41736 354.34253
-222.06665 885.41736 354.34253
-216.22287 885.41736 354.34253
-210.379 885.41736 354.34253
-204.53511 885.41736 354.34253
-198.69122 885.41736 354.34253
-192.84734 885.41736 354.34253
-187.00357 885.41736 354.34253
-181.1597 885.41736 354.34253
-175.31581 885.41736 354.34253
-169.47191 885.41736 354.34253
-163.62804 885.41736 354.34253
-157.78427 885.41736 354.34253
-151.9404 885.41736 354.34253
44.576702 947.48169 212.30127
50.148926 947.48169 212.30127
55.720936 947.48169 212.30127
60.733631 959.09363 185.72607
66.255005 959.09363 185.72607
71.776169 959.09363 185.72607
76.585686 970.70581 159.15039
82.056 970.70581 159.15039
87.526314 970.70581 159.15039
92.996849 970.70581 159.15039
98.467163 970.70581 159.15039
103.93769 970.70581 159.15039
109.408 970.70581 159.15039
114.87832 970.70581 159.15039
120.34885 970.70581 159.15039
125.81916 970.70581 159.15039
131.28969 970.70581 159.15039
136.76001 970.70581 159.15039
140.9539 981.91736 133.49146
146.37532 981.91736 133.49146
151.79655 981.91736 133.49146
157.21799 981.91736 133.49146
162.63921 981.91736 133.49146
168.06042 981.91736 133.49146
173.48186 981.91736 133.49146
178.90309 981.91736 133.49146
184.32451 981.91736 133.49146
189.74574 981.91736 133.49146
195.16696 981.91736 133.49146
200.58839 981.91736 133.49146
206.00961 981.91736 133.49146
209.5164 993.12891 107.83252
214.88853 993.12891 107.83252
220.26068 993.12891 107.83252
225.63301 993.12891 107.83252
233.11615 981.91736 133.49146
238.53758 981.91736 133.49146
246.16801 970.70581 159.15039
251.63832 970.70581 159.15039
257.10886 970.70581 159.15039
262.57916 970.70581 159.15039
268.04968 970.70581 159.15039
273.52002 970.70581 159.15039
278.99033 970.70581 159.15039
281.90799 981.91736 133.49146
287.32922 981.91736 133.49146
292.75064 981.91736 133.49146
350.5405 1025.1622 34.520996
355.77234 1025.1622 34.520996
364.14987 1014.7513 58.347168
369.42734 1014.7513 58.347168
374.7048 1014.7513 58.347168
379.98245 1014.7513 58.347168
385.25992 1014.7513 58.347168
390.53754 1014.7513 58.347168
392.39603 1025.1622 34.520996
397.62787 1025.1622 34.520996
402.85995 1025.1622 34.520996
408.0918 1025.1622 34.520996
416.92523 1014.7513 58.347168
422.20267 1014.7513 58.347168
427.48013 1014.7513 58.347168
432.75778 1014.7513 58.347168
438.03525 1014.7513 58.347168
443.3129 1014.7513 58.347168
-315.56845 880.03796 352.05908
-309.72452 880.03796 352.05908
-303.8808 880.03796 352.05908
-292.314 905.76782 293.45361
-286.58234 905.76782 293.45361
-283.51401 893.30493 321.84058
-277.72797 893.30493 321.84058
-271.94205 893.30493 321.84058
-266.15604 893.30493 321.84058
-260.37 893.30493 321.84058
-254.584 893.30493 321.84058
-248.79796 893.30493 321.84058
-245.44217 880.03796 352.05908
-239.5983 880.03796 352.05908
-233.75441 880.03796 352.05908
-227.91052 880.03796 352.05908
-224.19868 867.1731 381.36157
-216.22287 880.03796 352.05908
-210.379 880.03796 352.05908
-204.53511 880.03796 352.05908
-198.69122 880.03796 352.05908
-192.84734 880.03796 352.05908
-187.00357 880.03796 352.05908
-181.1597 880.03796 352.05908
-175.31581 880.03796 352.05908
-169.47191 880.03796 352.05908
-163.62804 880.03796 352.05908
-157.78427 880.03796 352.05908
-151.9404 880.03796 352.05908
44.576702 942.35242 210.12427
50.148926 942.35242 210.12427
55.720936 942.35242 210.12427
61.292946 942.35242 210.12427
66.255005 954.01123 183.5686
71.776169 954.01123 183.5686
77.297546 954.01123 183.5686
82.056 965.67017 157.01294
87.526314 965.67017 157.01294
92.996849 965.67017 157.01294
98.467163 965.67017 157.01294
103.93769 965.67017 157.01294
109.408 965.67017 157.01294
114.87832 965.67017 157.01294
120.34885 965.67017 157.01294
125.81916 965.67017 157.01294
131.28969 965.67017 157.01294
136.76001 965.67017 157.01294
140.9539 976.927 131.37329
146.37532 976.927 131.37329
151.79655 976.927 131.37329
157.21799 976.927 131.37329
162.63921 976.927 131.37329
168.06042 976.927 131.37329
173.48186 976.927 131.37329
178.90309 976.927 131.37329
184.32451 976.927 131.37329
189.74574 976.927 131.37329
195.16696 976.927 131.37329
200.58839 976.927 131.37329
206.00961 976.927 131.37329
209.5164 988.18372 105.7334
214.88853 988.18372 105.7334
220.26068 988.18372 105.7334
227.69493 976.927 131.37329
233.11615 976.927 131.37329
240.69769 965.67017 157.01294
246.16801 965.67017 157.01294
251.63832 965.67017 157.01294
257.10886 965.67017 157.01294
262.57916 965.67017 157.01294
268.04968 965.67017 157.01294
273.52002 965.67017 157.01294
278.99033 965.67017 157.01294
284.46085 965.67017 157.01294
287.32922 976.927 131.37329
292.75064 976.927 131.37329
350.5405 1020.3461 32.476562
355.77234 1020.3461 32.476562
364.14987 1009.8933 56.285156
369.42734 1009.8933 56.285156
374.7048 1009.8933 56.285156
379.98245 1009.8933 56.285156
385.25992 1009.8933 56.285156
390.53754 1009.8933 56.285156
392.39603 1020.3461 32.476562
397.62787 1020.3461 32.476562
402.85995 1020.3461 32.476562
408.0918 1020.3461 32.476562
416.92523 1009.8933 56.285156
422.20267 1009.8933 56.285156
427.48013 1009.8933 56.285156
432.75778 1009.8933 56.285156
438.03525 1009.8933 56.285156
443.3129 1009.8933 56.285156
-315.56845 874.65869 349.77563
-309.72452 874.65869 349.77563
-303.8808 874.65869 349.77563
-295.08606 887.979 319.57983
-289.30002 887.979 319.57983
-283.51401 887.979 319.57983
-277.72797 887.979 319.57983
-271.94205 887.979 319.57983
-266.15604 887.979 319.57983
-260.37 887.979 319.57983
-257.12982 874.65869 349.77563
-251.28595 874.65869 349.77563
-245.44217 874.65869 349.77563
-239.5983 874.65869 349.77563
-233.75441 874.65869 349.77563
-227.91052 874.65869 349.77563
-224.19868 861.74231 379.0564
-218.29883 861.74231 379.0564
-210.379 874.65869 349.77563
-204.53511 874.65869 349.77563
-198.69122 874.65869 349.77563
-192.84734 874.65869 349.77563
-187.00357 874.65869 349.77563
-181.1597 874.65869 349.77563
-175.31581 874.65869 349.77563
-169.47191 874.65869 349.77563
44.576702 937.22339 207.94702
50.148926 937.22339 207.94702
55.720936 937.22339 207.94702
60.733631 948.92896 181.41138
66.255005 948.92896 181.41138
71.776169 948.92896 181.41138
77.297546 948.92896 181.41138
82.818703 948.92896 181.41138
87.526314 960.63477 154.87549
92.996849 960.63477 154.87549
98.467163 960.63477 154.87549
103.93769 960.63477 154.87549
109.408 960.63477 154.87549
114.87832 960.63477 154.87549
120.34885 960.63477 154.87549
125.81916 960.63477 154.87549
131.28969 960.63477 154.87549
136.76001 960.63477 154.87549
140.9539 971.93665 129.25488
146.37532 971.93665 129.25488
151.79655 971.93665 129.25488
157.21799 971.93665 129.25488
162.63921 971.93665 129.25488
168.06042 971.93665 129.25488
173.48186 971.93665 129.25488
178.90309 971.93665 129.25488
184.32451 971.93665 129.25488
189.74574 971.93665 129.25488
195.16696 971.93665 129.25488
200.58839 971.93665 129.25488
206.00961 971.93665 129.25488
209.5164 983.23865 103.63428
214.88853 983.23865 103.63428
222.2735 971.93665 129.25488
227.69493 971.93665 129.25488
235.22717 960.63477 154.87549
240.69769 960.63477 154.87549
246.16801 960.63477 154.87549
251.63832 960.63477 154.87549
257.10886 960.63477 154.87549
262.57916 960.63477 154.87549
268.04968 960.63477 154.87549
273.52002 960.63477 154.87549
278.99033 960.63477 154.87549
284.46085 960.63477 154.87549
287.32922 971.93665 129.25488
292.75064 971.93665 129.25488
350.5405 1015.5302 30.432373
355.77234 1015.5302 30.432373
364.14987 1005.0354 54.2229
369.42734 1005.0354 54.2229
374.7048 1005.0354 54.2229
379.98245 1005.0354 54.2229
385.25992 1005.0354 54.2229
390.53754 1005.0354 54.2229
392.39603 1015.5302 30.432373
397.62787 1015.5302 30.432373
402.85995 1015.5302 30.432373
411.64758 1005.0354 54.2229
416.92523 1005.0354 54.2229
422.20267 1005.0354 54.2229
427.48013 1005.0354 54.2229
432.75778 1005.0354 54.2229
438.03525 1005.0354 54.2229
-315.56845 869.27942 347.49219
-309.72452 869.27942 347.49219
-303.8808 869.27942 347.49219
-295.08606 882.65283 317.31909
-289.30002 882.65283 317.31909
-283.51401 882.65283 317.31909
-277.72797 882.65283 317.31909
-271.94205 882.65283 317.31909
-266.15604 882.65283 317.31909
-260.37 882.65283 317.31909
-257.12982 869.27942 347.49219
-251.28595 869.27942 347.49219
-245.44217 869.27942 347.49219
-239.5983 869.27942 347.49219
-233.75441 869.27942 347.49219
-227.91052 869.27942 347.49219
-222.06665 869.27942 347.49219
-218.29883 856.31128 376.75098
-212.39882 856.31128 376.75098
-204.53511 869.27942 347.49219
-198.69122 869.27942 347.49219
-194.69885 856.31128 376.75098
-188.799 856.31128 376.75098
44.576702 932.09424 205.76978
50.148926 932.09424 205.76978
55.720936 932.09424 205.76978
60.733631 943.84656 179.25391
66.255005 943.84656 179.25391
71.776169 943.84656 179.25391
77.297546 943.84656 179.25391
82.818703 943.84656 179.25391
88.339859 943.84656 179.25391
92.996849 955.59912 152.73804
98.467163 955.59912 152.73804
103.93769 955.59912 152.73804
109.408 955.59912 152.73804
114.87832 955.59912 152.73804
120.34885 955.59912 152.73804
125.81916 955.59912 152.73804
131.28969 955.59912 152.73804
136.76001 955.59912 152.73804
140.9539 966.94629 127.13672
146.37532 966.94629 127.13672
151.79655 966.94629 127.13672
157.21799 966.94629 127.13672
162.63921 966.94629 127.13672
168.06042 966.94629 127.13672
173.48186 966.94629 127.13672
178.90309 966.94629 127.13672
184.32451 966.94629 127.13672
189.74574 966.94629 127.13672
195.16696 966.94629 127.13672
200.58839 966.94629 127.13672
206.00961 966.94629 127.13672
211.43105 966.94629 127.13672
216.85228 966.94629 127.13672
222.2735 966.94629 127.13672
227.69493 966.94629 127.13672
235.22717 955.59912 152.73804
240.69769 955.59912 152.73804
246.16801 955.59912 152.73804
251.63832 955.59912 152.73804
257.10886 955.59912 152.73804
262.57916 955.59912 152.73804
268.04968 955.59912 152.73804
273.52002 955.59912 152.73804
278.99033 955.59912 152.73804
284.46085 955.59912 152.73804
287.32922 966.94629 127.13672
292.75064 966.94629 127.13672
348.31714 1000.1772 52.160889
353.59479 1000.1772 52.160889
358.87225 1000.1772 52.160889
364.14987 1000.1772 52.160889
369.42734 1000.1772 52.160889
374.7048 1000.1772 52.160889
379.98245 1000.1772 52.160889
385.25992 1000.1772 52.160889
390.53754 1000.1772 52.160889
395.815 1000.1772 52.160889
397.62787 1010.714 28.387939
402.85995 1010.714 28.387939
411.64758 1000.1772 52.160889
416.92523 1000.1772 52.160889
422.20267 1000.1772 52.160889
427.48013 1000.1772 52.160889
432.75778 1000.1772 52.160889
-315.56845 863.90015 345.20898
-309.72452 863.90015 345.20898
-303.8808 863.90015 345.20898
-295.08606 877.3269 315.05835
-289.30002 877.3269 315.05835
-283.51401 877.3269 315.05835
-277.72797 877.3269 315.05835
-271.94205 877.3269 315.05835
-266.15604 877.3269 315.05835
-260.37 877.3269 315.05835
-257.12982 863.90015 345.20898
-251.28595 863.90015 345.20898
-245.44217 863.90015 345.20898
-239.5983 863.90015 345.20898
-233.75441 863.90015 345.20898
-227.91052 863.90015 345.20898
-222.06665 863.90015 345.20898
-218.29883 850.88037 374.4458
-212.39882 850.88037 374.4458
-204.53511 863.90015 345.20898
-198.69122 863.90015 345.20898
-194.69885 850.88037 374.4458
-188.799 850.88037 374.4458
50.148926 926.96509 203.59253
55.720936 926.96509 203.59253
61.292946 926.96509 203.59253
66.255005 938.7644 177.09668
71.776169 938.7644 177.09668
77.297546 938.7644 177.09668
82.818703 938.7644 177.09668
88.339859 938.7644 177.09668
92.996849 950.56372 150.60059
98.467163 950.56372 150.60059
103.93769 950.56372 150.60059
109.408 950.56372 150.60059
114.87832 950.56372 150.60059
120.34885 950.56372 150.60059
125.81916 950.56372 150.60059
131.28969 950.56372 150.60059
136.76001 950.56372 150.60059
140.9539 961.95605 125.01855
146.37532 961.95605 125.01855
151.79655 961.95605 125.01855
157.21799 961.95605 125.01855
162.63921 961.95605 125.01855
168.06042 961.95605 125.01855
173.48186 961.95605 125.01855
178.90309 961.95605 125.01855
184.32451 961.95605 125.01855
189.74574 961.95605 125.01855
195.16696 961.95605 125.01855
200.58839 961.95605 125.01855
206.00961 961.95605 125.01855
211.43105 961.95605 125.01855
216.85228 961.95605 125.01855
224.28632 950.56372 150.60059
229.75684 950.56372 150.60059
235.22717 950.56372 150.60059
240.69769 950.56372 150.60059
246.16801 950.56372 150.60059
251.63832 950.56372 150.60059
257.10886 950.56372 150.60059
262.57916 950.56372 150.60059
268.04968 950.56372 150.60059
273.52002 950.56372 150.60059
278.99033 950.56372 150.60059
284.46085 950.56372 150.60059
289.93118 950.56372 150.60059
348.31714 995.31934 50.098877
353.59479 995.31934 50.098877
358.87225 995.31934 50.098877
361.00443 1005.8981 26.34375
366.23627 1005.8981 26.34375
371.46814 1005.8981 26.34375
379.98245 995.31934 50.098877
385.25992 995.31934 50.098877
390.53754 995.31934 50.098877
395.815 995.31934 50.098877
397.62787 1005.8981 26.34375
402.85995 1005.8981 26.34375
411.64758 995.31934 50.098877
416.92523 995.31934 50.098877
422.20267 995.31934 50.098877
431.31467 984.33398 74.767334
436.63968 984.33398 74.767334
-309.72452 858.52075 342.92554
-303.8808 858.52075 342.92554
-295.08606 872.00085 312.79761
-286.58234 884.66382 284.49561
-280.85068 884.66382 284.49561
-277.72797 872.00085 312.79761
-271.94205 872.00085 312.79761
-266.15604 872.00085 312.79761
-260.37 872.00085 312.79761
-254.584 872.00085 312.79761
-251.28595 858.52075 342.92554
-245.44217 858.52075 342.92554
-239.5983 858.52075 342.92554
-231.44 872.00085 312.79761
-225.65399 872.00085 312.79761
-222.06665 858.52075 342.92554
-218.29883 845.44934 372.14038
-212.39882 845.44934 372.14038
-206.49884 845.44934 372.14038
-200.59886 845.44934 372.14038
-194.69885 845.44934 372.14038
44.997505 909.58142 228.80444
50.622326 909.58142 228.80444
56.246937 909.58142 228.80444
61.292946 921.83594 201.41528
66.255005 933.68188 174.93945
71.776169 933.68188 174.93945
77.297546 933.68188 174.93945
82.818703 933.68188 174.93945
88.339859 933.68188 174.93945
92.996849 945.52808 148.46313
98.467163 945.52808 148.46313
103.93769 945.52808 148.46313
109.408 945.52808 148.46313
114.87832 945.52808 148.46313
120.34885 945.52808 148.46313
125.81916 945.52808 148.46313
131.28969 945.52808 148.46313
136.76001 945.52808 148.46313
142.23032 945.52808 148.46313
146.37532 956.96558 122.90015
151.79655 956.96558 122.90015
157.21799 956.96558 122.90015
162.63921 956.96558 122.90015
168.06042 956.96558 122.90015
173.48186 956.96558 122.90015
178.90309 956.96558 122.90015
182.65533 968.4032 97.336914
188.02748 968.4032 97.336914
193.39961 968.4032 97.336914
200.58839 956.96558 122.90015
206.00961 956.96558 122.90015
211.43105 956.96558 122.90015
216.85228 956.96558 122.90015
222.2735 956.96558 122.90015
229.75684 945.52808 148.46313
235.22717 945.52808 148.46313
240.69769 945.52808 148.46313
246.16801 945.52808 148.46313
251.63832 945.52808 148.46313
257.10886 945.52808 148.46313
262.57916 945.52808 148.46313
268.04968 945.52808 148.46313
273.52002 945.52808 148.46313
278.99033 945.52808 148.46313
284.46085 945.52808 148.46313
289.93118 945.52808 148.46313
345.30841 1001.082 24.299561
350.5405 1001.082 24.299561
355.77234 1001.082 24.299561
361.00443 1001.082 24.299561
366.23627 1001.082 24.299561
371.46814 1001.082 24.299561
376.70023 1001.082 24.299561
381.93207 1001.082 24.299561
390.53754 990.4613 48.036621
395.815 990.4613 48.036621
401.09247 990.4613 48.036621
406.37012 990.4613 48.036621
411.64758 990.4613 48.036621
416.92523 990.4613 48.036621
422.20267 990.4613 48.036621
431.31467 979.43225 72.686768
-303.8808 853.1416 340.64233
-295.08606 866.6748 310.53687
-286.58234 879.38794 282.2561
-280.85068 879.38794 282.2561
-277.72797 866.6748 310.53687
-271.94205 866.6748 310.53687
-261.15552 892.10095 253.9751
-255.47821 892.10095 253.9751
-254.584 866.6748 310.53687
-246.46077 879.38794 282.2561
-240.72922 879.38794 282.2561
-237.22603 866.6748 310.53687
-231.44 866.6748 310.53687
-225.65399 866.6748 310.53687
-224.19868 840.01855 369.83521
-218.29883 840.01855 369.83521
-212.39882 840.01855 369.83521
33.748077 904.40393 226.60693
39.372898 904.40393 226.60693
44.997505 904.40393 226.60693
50.622326 904.40393 226.60693
56.246937 904.40393 226.60693
61.292946 916.70691 199.23828
66.865166 916.70691 199.23828
71.776169 928.59973 172.78198
77.297546 928.59973 172.78198
82.818703 928.59973 172.78198
88.339859 928.59973 172.78198
92.996849 940.49268 146.32568
98.467163 940.49268 146.32568
103.93769 940.49268 146.32568
109.408 940.49268 146.32568
114.87832 940.49268 146.32568
120.34885 940.49268 146.32568
125.81916 940.49268 146.32568
131.28969 940.49268 146.32568
136.76001 940.49268 146.32568
142.23032 940.49268 146.32568
146.37532 951.97534 120.78198
151.79655 951.97534 120.78198
157.21799 951.97534 120.78198
162.63921 951.97534 120.78198
168.06042 951.97534 120.78198
173.48186 951.97534 120.78198
178.90309 951.97534 120.78198
182.65533 963.45813 95.238037
188.02748 963.45813 95.238037
193.39961 963.45813 95.238037
200.58839 951.97534 120.78198
206.00961 951.97534 120.78198
211.43105 951.97534 120.78198
216.85228 951.97534 120.78198
222.2735 951.97534 120.78198
229.75684 940.49268 146.32568
235.22717 940.49268 146.32568
240.69769 940.49268 146.32568
246.16801 940.49268 146.32568
251.63832 940.49268 146.32568
257.10886 940.49268 146.32568
262.57916 940.49268 146.32568
268.04968 940.49268 146.32568
273.52002 940.49268 146.32568
281.58353 928.59973 172.78198
287.10489 928.59973 172.78198
292.62604 928.59973 172.78198
340.07654 996.26599 22.255127
345.30841 996.26599 22.255127
350.5405 996.26599 22.255127
355.77234 996.26599 22.255127
361.00443 996.26599 22.255127
366.23627 996.26599 22.255127
371.46814 996.26599 22.255127
376.70023 996.26599 22.255127
381.93207 996.26599 22.255127
390.53754 985.60339 45.974609
395.815 985.60339 45.974609
401.09247 985.60339 45.974609
406.37012 985.60339 45.974609
411.64758 985.60339 45.974609
420.6651 974.53076 70.606201
425.98987 974.53076 70.606201
-286.34912 847.76221 338.35889
-277.72797 861.34875 308.27588
-266.83286 886.87488 251.75684
-261.15552 886.87488 251.75684
-255.47821 886.87488 251.75684
-252.19244 874.11182 280.01636
-246.46077 874.11182 280.01636
-240.72922 874.11182 280.01636
-234.99754 874.11182 280.01636
-229.26587 874.11182 280.01636
-223.53421 874.11182 280.01636
-224.19868 834.58752 367.52979
-218.29883 834.58752 367.52979
33.748077 899.22632 224.40918
39.372898 899.22632 224.40918
44.997505 899.22632 224.40918
50.622326 899.22632 224.40918
56.246937 899.22632 224.40918
61.292946 911.57764 197.06104
66.865166 911.57764 197.06104
71.776169 923.51733 170.62476
77.297546 923.51733 170.62476
82.818703 923.51733 170.62476
88.339859 923.51733 170.62476
92.996849 935.45703 144.18823
98.467163 935.45703 144.18823
103.93769 935.45703 144.18823
109.408 935.45703 144.18823
114.87832 935.45703 144.18823
120.34885 935.45703 144.18823
125.81916 935.45703 144.18823
131.28969 935.45703 144.18823
136.76001 935.45703 144.18823
142.23032 935.45703 144.18823
146.37532 946.98499 118.66357
151.79655 946.98499 118.66357
158.64169 935.45703 144.18823
162.63921 946.98499 118.66357
168.06042 946.98499 118.66357
173.48186 946.98499 118.66357
