ply
format ascii 1.0
comment PCL generated
element vertex 1582
property float x
property float y
property float z
element camera 0
property float view_px
property float view_py
property float view_pz
property float x_axisx
property float x_axisy
property float x_axisz
property float y_axisx
property float y_axisy
property float y_axisz
property float z_axisx
property float z_axisy
property float z_axisz
property float focal
property float scalex
property float scaley
property float centerx
property float centery
property int viewportx
property int viewporty
property float k1
property float k2
end_header
-54.677719 1464.5948 59.181396
-49.707001 1464.5948 59.181396
-44.736286 1464.5948 59.181396
-39.765564 1464.5948 59.181396
-34.794941 1464.5948 59.181396
-29.824221 1464.5948 59.181396
-24.651867 1470.7234 36.796387
-19.721476 1470.7234 36.796387
-14.791082 1470.7234 36.796387
-9.7801313 1476.8518 14.411377
-4.8900657 1476.8518 14.411377
0 1476.8518 14.411377
4.8899722 1476.8518 14.411377
9.8607845 1470.7234 36.796387
14.791082 1470.7234 36.796387
19.721569 1470.7234 36.796387
24.651867 1470.7234 36.796387
29.582165 1470.7234 36.796387
34.51265 1470.7234 36.796387
39.442951 1470.7234 36.796387
44.373436 1470.7234 36.796387
49.303734 1470.7234 36.796387
54.234035 1470.7234 36.796387
59.16452 1470.7234 36.796387
64.619064 1464.5948 59.181396
69.589882 1464.5948 59.181396
74.560501 1464.5948 59.181396
79.531128 1464.5948 59.181396
84.501938 1464.5948 59.181396
90.230003 1458.1998 82.539307
94.443382 1464.5948 59.181396
99.414001 1464.5948 59.181396
105.2683 1458.1998 82.539307
-99.414001 1460.0193 57.239014
-94.443283 1460.0193 57.239014
-89.472572 1460.0193 57.239014
-84.501938 1460.0193 57.239014
-79.531219 1460.0193 57.239014
-74.560501 1460.0193 57.239014
-70.178902 1453.5856 80.580811
-64.619064 1460.0193 57.239014
-59.648441 1460.0193 57.239014
-54.677719 1460.0193 57.239014
-49.707001 1460.0193 57.239014
-44.736286 1460.0193 57.239014
-39.765564 1460.0193 57.239014
-34.794941 1460.0193 57.239014
-29.824221 1460.0193 57.239014
-24.651867 1466.1849 34.869873
-19.721476 1466.1849 34.869873
-14.791082 1466.1849 34.869873
-9.8607845 1466.1849 34.869873
-4.8900657 1472.3506 12.500732
0 1472.3506 12.500732
4.8899722 1472.3506 12.500732
9.8607845 1466.1849 34.869873
14.791082 1466.1849 34.869873
19.721569 1466.1849 34.869873
24.651867 1466.1849 34.869873
29.582165 1466.1849 34.869873
34.51265 1466.1849 34.869873
39.442951 1466.1849 34.869873
44.373436 1466.1849 34.869873
49.303734 1466.1849 34.869873
54.677624 1460.0193 57.239014
59.648441 1460.0193 57.239014
64.619064 1460.0193 57.239014
70.178993 1453.5856 80.580811
75.191704 1453.5856 80.580811
79.531128 1460.0193 57.239014
84.501938 1460.0193 57.239014
90.230003 1453.5856 80.580811
94.443382 1460.0193 57.239014
99.414001 1460.0193 57.239014
104.38463 1460.0193 57.239014
-99.414001 1455.4437 55.296875
-94.443283 1455.4437 55.296875
-89.472572 1455.4437 55.296875
-84.501938 1455.4437 55.296875
-79.531219 1455.4437 55.296875
-74.560501 1455.4437 55.296875
-70.178902 1448.9713 78.62207
-65.1661 1448.9713 78.62207
-60.1534 1448.9713 78.62207
-55.140602 1448.9713 78.62207
-50.1278 1448.9713 78.62207
-44.736286 1455.4437 55.296875
-39.765564 1455.4437 55.296875
-34.794941 1455.4437 55.296875
-29.824221 1455.4437 55.296875
-24.651867 1461.6465 32.943604
-19.721476 1461.6465 32.943604
-14.791082 1461.6465 32.943604
-9.8607845 1461.6465 32.943604
-4.8900657 1467.8492 10.590088
0 1467.8492 10.590088
4.9302983 1461.6465 32.943604
9.8607845 1461.6465 32.943604
14.791082 1461.6465 32.943604
19.721569 1461.6465 32.943604
24.651867 1461.6465 32.943604
29.582165 1461.6465 32.943604
34.51265 1461.6465 32.943604
39.442951 1461.6465 32.943604
44.373436 1461.6465 32.943604
49.303734 1461.6465 32.943604
54.677624 1455.4437 55.296875
59.648441 1455.4437 55.296875
64.619064 1455.4437 55.296875
70.178993 1448.9713 78.62207
75.191704 1448.9713 78.62207
79.531128 1455.4437 55.296875
84.501938 1455.4437 55.296875
90.230003 1448.9713 78.62207
94.443382 1455.4437 55.296875
99.414001 1455.4437 55.296875
104.38463 1455.4437 55.296875
-99.414001 1450.8682 53.354736
-94.443283 1450.8682 53.354736
-89.472572 1450.8682 53.354736
-85.2173 1444.3571 76.66333
-80.204498 1444.3571 76.66333
-75.191704 1444.3571 76.66333
-70.178902 1444.3571 76.66333
-65.1661 1444.3571 76.66333
-60.1534 1444.3571 76.66333
-54.677719 1450.8682 53.354736
-49.707001 1450.8682 53.354736
-44.736286 1450.8682 53.354736
-39.765564 1450.8682 53.354736
-34.794941 1450.8682 53.354736
-29.824221 1450.8682 53.354736
-24.651867 1457.108 31.01709
-19.721476 1457.108 31.01709
-14.791082 1457.108 31.01709
-9.8607845 1457.108 31.01709
-4.9303923 1457.108 31.01709
0 1457.108 31.01709
4.9302983 1457.108 31.01709
9.8607845 1457.108 31.01709
14.791082 1457.108 31.01709
19.721569 1457.108 31.01709
24.651867 1457.108 31.01709
29.582165 1457.108 31.01709
34.51265 1457.108 31.01709
39.442951 1457.108 31.01709
44.373436 1457.108 31.01709
49.303734 1457.108 31.01709
54.234035 1457.108 31.01709
59.16452 1457.108 31.01709
64.619064 1450.8682 53.354736
70.178993 1444.3571 76.66333
75.191704 1444.3571 76.66333
79.531128 1450.8682 53.354736
84.501938 1450.8682 53.354736
90.230003 1444.3571 76.66333
95.242905 1444.3571 76.66333
99.414001 1450.8682 53.354736
104.38463 1450.8682 53.354736
-94.443283 1446.2926 51.412598
-89.472572 1446.2926 51.412598
-84.501938 1446.2926 51.412598
-79.531219 1446.2926 51.412598
-75.191704 1439.7427 74.704834
-70.178902 1439.7427 74.704834
-65.1661 1439.7427 74.704834
-60.1534 1439.7427 74.704834
-54.677719 1446.2926 51.412598
-49.707001 1446.2926 51.412598
-44.736286 1446.2926 51.412598
-39.765564 1446.2926 51.412598
-34.794941 1446.2926 51.412598
-29.824221 1446.2926 51.412598
-24.8535 1446.2926 51.412598
-19.721476 1452.5696 29.090576
-14.791082 1452.5696 29.090576
-9.8607845 1452.5696 29.090576
-4.9303923 1452.5696 29.090576
0 1452.5696 29.090576
4.9302983 1452.5696 29.090576
9.8607845 1452.5696 29.090576
14.791082 1452.5696 29.090576
19.721569 1452.5696 29.090576
24.651867 1452.5696 29.090576
29.582165 1452.5696 29.090576
34.51265 1452.5696 29.090576
39.442951 1452.5696 29.090576
44.373436 1452.5696 29.090576
49.303734 1452.5696 29.090576
54.234035 1452.5696 29.090576
59.16452 1452.5696 29.090576
64.619064 1446.2926 51.412598
69.589882 1446.2926 51.412598
74.560501 1446.2926 51.412598
79.531128 1446.2926 51.412598
84.501938 1446.2926 51.412598
90.230003 1439.7427 74.704834
94.443382 1446.2926 51.412598
99.414001 1446.2926 51.412598
104.38463 1446.2926 51.412598
-94.443283 1441.717 49.470215
-89.472572 1441.717 49.470215
-84.501938 1441.717 49.470215
-79.531219 1441.717 49.470215
-75.191704 1435.1284 72.746094
-69.589783 1441.717 49.470215
-64.619064 1441.717 49.470215
-59.648441 1441.717 49.470215
-54.677719 1441.717 49.470215
-49.707001 1441.717 49.470215
-44.736286 1441.717 49.470215
-39.765564 1441.717 49.470215
-34.51265 1448.0312 27.164062
-29.58226 1448.0312 27.164062
-24.651867 1448.0312 27.164062
-19.721476 1448.0312 27.164062
-14.791082 1448.0312 27.164062
-9.8607845 1448.0312 27.164062
-4.9303923 1448.0312 27.164062
0 1448.0312 27.164062
4.9302983 1448.0312 27.164062
9.8607845 1448.0312 27.164062
14.791082 1448.0312 27.164062
19.721569 1448.0312 27.164062
24.651867 1448.0312 27.164062
29.582165 1448.0312 27.164062
34.51265 1448.0312 27.164062
39.442951 1448.0312 27.164062
44.373436 1448.0312 27.164062
49.303734 1448.0312 27.164062
54.234035 1448.0312 27.164062
59.16452 1448.0312 27.164062
64.619064 1441.717 49.470215
69.589882 1441.717 49.470215
74.560501 1441.717 49.470215
79.531128 1441.717 49.470215
84.501938 1441.717 49.470215
90.230003 1435.1284 72.746094
94.443382 1441.717 49.470215
99.414001 1441.717 49.470215
105.2683 1435.1284 72.746094
-89.472572 1437.1416 47.528076
-84.501938 1437.1416 47.528076
-79.531219 1437.1416 47.528076
-74.560501 1437.1416 47.528076
-69.589783 1437.1416 47.528076
-64.619064 1437.1416 47.528076
-59.648441 1437.1416 47.528076
-54.677719 1437.1416 47.528076
-49.707001 1437.1416 47.528076
-44.736286 1437.1416 47.528076
-39.765564 1437.1416 47.528076
-34.51265 1443.4928 25.237793
-29.58226 1443.4928 25.237793
-24.651867 1443.4928 25.237793
-19.721476 1443.4928 25.237793
-14.791082 1443.4928 25.237793
-9.8607845 1443.4928 25.237793
-4.9303923 1443.4928 25.237793
0 1443.4928 25.237793
4.9302983 1443.4928 25.237793
9.8607845 1443.4928 25.237793
14.791082 1443.4928 25.237793
19.721569 1443.4928 25.237793
24.651867 1443.4928 25.237793
29.582165 1443.4928 25.237793
34.51265 1443.4928 25.237793
39.442951 1443.4928 25.237793
44.373436 1443.4928 25.237793
49.303734 1443.4928 25.237793
54.677624 1437.1416 47.528076
59.648441 1437.1416 47.528076
64.619064 1437.1416 47.528076
69.589882 1437.1416 47.528076
74.560501 1437.1416 47.528076
79.531128 1437.1416 47.528076
84.501938 1437.1416 47.528076
90.230003 1430.5142 70.787598
95.242905 1430.5142 70.787598
100.2556 1430.5142 70.787598
105.2683 1430.5142 70.787598
111.20696 1423.8868 94.046875
-89.472572 1432.566 45.585938
-84.501938 1432.566 45.585938
-79.531219 1432.566 45.585938
-74.560501 1432.566 45.585938
-69.589783 1432.566 45.585938
-64.619064 1432.566 45.585938
-59.648441 1432.566 45.585938
-54.677719 1432.566 45.585938
-49.707001 1432.566 45.585938
-44.736286 1432.566 45.585938
-39.765564 1432.566 45.585938
-34.51265 1438.9543 23.311279
-29.58226 1438.9543 23.311279
-24.651867 1438.9543 23.311279
-19.721476 1438.9543 23.311279
-14.791082 1438.9543 23.311279
-9.8607845 1438.9543 23.311279
-4.9303923 1438.9543 23.311279
0 1438.9543 23.311279
4.9302983 1438.9543 23.311279
9.8607845 1438.9543 23.311279
14.791082 1438.9543 23.311279
19.721569 1438.9543 23.311279
24.651867 1438.9543 23.311279
29.582165 1438.9543 23.311279
34.51265 1438.9543 23.311279
39.442951 1438.9543 23.311279
44.373436 1438.9543 23.311279
49.303734 1438.9543 23.311279
54.234035 1438.9543 23.311279
59.16452 1438.9543 23.311279
64.619064 1432.566 45.585938
70.178993 1425.8999 68.828857
75.191704 1425.8999 68.828857
80.204407 1425.8999 68.828857
85.2173 1425.8999 68.828857
90.230003 1425.8999 68.828857
95.242905 1425.8999 68.828857
100.2556 1425.8999 68.828857
105.2683 1425.8999 68.828857
111.20696 1419.2339 92.071777
-84.501938 1427.9905 43.643555
-79.531219 1427.9905 43.643555
-74.560501 1427.9905 43.643555
-69.589783 1427.9905 43.643555
-64.619064 1427.9905 43.643555
-59.648441 1427.9905 43.643555
-54.677719 1427.9905 43.643555
-49.707001 1427.9905 43.643555
-44.736286 1427.9905 43.643555
-39.765564 1427.9905 43.643555
-34.794941 1427.9905 43.643555
-29.824221 1427.9905 43.643555
-24.8535 1427.9905 43.643555
-19.721476 1434.4159 21.384766
-14.791082 1434.4159 21.384766
-9.8607845 1434.4159 21.384766
-4.9303923 1434.4159 21.384766
0 1434.4159 21.384766
4.9302983 1434.4159 21.384766
9.8607845 1434.4159 21.384766
14.791082 1434.4159 21.384766
19.721569 1434.4159 21.384766
24.651867 1434.4159 21.384766
29.582165 1434.4159 21.384766
34.51265 1434.4159 21.384766
39.442951 1434.4159 21.384766
44.373436 1434.4159 21.384766
49.303734 1434.4159 21.384766
54.234035 1434.4159 21.384766
59.16452 1434.4159 21.384766
64.094818 1434.4159 21.384766
70.178993 1421.2856 66.870117
75.191704 1421.2856 66.870117
80.204407 1421.2856 66.870117
85.2173 1421.2856 66.870117
90.98745 1414.5808 90.09668
96.042427 1414.5808 90.09668
101.09721 1414.5808 90.09668
106.15199 1414.5808 90.09668
111.20696 1414.5808 90.09668
-80.204498 1416.6713 64.911621
-75.191704 1416.6713 64.911621
-70.178902 1416.6713 64.911621
-65.1661 1416.6713 64.911621
-60.1534 1416.6713 64.911621
-55.140602 1416.6713 64.911621
-50.1278 1416.6713 64.911621
-44.736286 1423.4149 41.701416
-39.765564 1423.4149 41.701416
-34.51265 1429.8774 19.458252
-29.58226 1429.8774 19.458252
-24.8535 1423.4149 41.701416
-19.721476 1429.8774 19.458252
-14.791082 1429.8774 19.458252
-9.8607845 1429.8774 19.458252
-4.9303923 1429.8774 19.458252
0 1429.8774 19.458252
4.9302983 1429.8774 19.458252
9.8607845 1429.8774 19.458252
14.791082 1429.8774 19.458252
19.721569 1429.8774 19.458252
24.651867 1429.8774 19.458252
29.582165 1429.8774 19.458252
34.51265 1429.8774 19.458252
39.442951 1429.8774 19.458252
44.373436 1429.8774 19.458252
49.303734 1429.8774 19.458252
54.234035 1429.8774 19.458252
59.16452 1429.8774 19.458252
64.094818 1429.8774 19.458252
69.589882 1423.4149 41.701416
75.191704 1416.6713 64.911621
80.204407 1416.6713 64.911621
85.2173 1416.6713 64.911621
90.98745 1409.9279 88.121582
96.042427 1409.9279 88.121582
101.09721 1409.9279 88.121582
106.15199 1409.9279 88.121582
111.20696 1409.9279 88.121582
-75.822906 1405.2747 86.146484
-70.178902 1412.0569 62.952881
-65.1661 1412.0569 62.952881
-60.1534 1412.0569 62.952881
-55.140602 1412.0569 62.952881
-50.1278 1412.0569 62.952881
-44.736286 1418.8392 39.759277
-39.765564 1418.8392 39.759277
-34.51265 1425.339 17.531982
-29.58226 1425.339 17.531982
-24.8535 1418.8392 39.759277
-19.721476 1425.339 17.531982
-14.791082 1425.339 17.531982
-9.8607845 1425.339 17.531982
-4.9303923 1425.339 17.531982
0 1425.339 17.531982
4.9302983 1425.339 17.531982
9.8607845 1425.339 17.531982
14.791082 1425.339 17.531982
19.721569 1425.339 17.531982
24.651867 1425.339 17.531982
29.582165 1425.339 17.531982
34.51265 1425.339 17.531982
39.442951 1425.339 17.531982
44.373436 1425.339 17.531982
49.303734 1425.339 17.531982
54.234035 1425.339 17.531982
59.16452 1425.339 17.531982
64.094818 1425.339 17.531982
69.589882 1418.8392 39.759277
75.191704 1412.0569 62.952881
80.204407 1412.0569 62.952881
85.2173 1412.0569 62.952881
90.98745 1405.2747 86.146484
96.042427 1405.2747 86.146484
101.09721 1405.2747 86.146484
106.15199 1405.2747 86.146484
111.20696 1405.2747 86.146484
-75.191704 1407.4426 60.994141
-70.178902 1407.4426 60.994141
-65.1661 1407.4426 60.994141
-60.658363 1400.6217 84.171387
-55.603481 1400.6217 84.171387
-50.548603 1400.6217 84.171387
-45.115002 1407.4426 60.994141
-40.102203 1407.4426 60.994141
-34.794941 1414.2637 37.816895
-29.824221 1414.2637 37.816895
-24.8535 1414.2637 37.816895
-19.721476 1420.8005 15.605469
-14.791082 1420.8005 15.605469
-9.8607845 1420.8005 15.605469
-4.9303923 1420.8005 15.605469
0 1420.8005 15.605469
4.9302983 1420.8005 15.605469
9.8607845 1420.8005 15.605469
14.791082 1420.8005 15.605469
19.721569 1420.8005 15.605469
24.651867 1420.8005 15.605469
29.582165 1420.8005 15.605469
34.51265 1420.8005 15.605469
39.442951 1420.8005 15.605469
44.373436 1420.8005 15.605469
48.900467 1427.3374 -6.6062012
53.79044 1427.3374 -6.6062012
58.680603 1427.3374 -6.6062012
64.094818 1420.8005 15.605469
69.025299 1420.8005 15.605469
75.191704 1407.4426 60.994141
80.204407 1407.4426 60.994141
85.2173 1407.4426 60.994141
90.98745 1400.6217 84.171387
96.042427 1400.6217 84.171387
101.09721 1400.6217 84.171387
106.15199 1400.6217 84.171387
111.20696 1400.6217 84.171387
116.26175 1400.6217 84.171387
-75.191704 1402.8284 59.035645
-70.178902 1402.8284 59.035645
-65.1661 1402.8284 59.035645
-60.1534 1402.8284 59.035645
-55.140602 1402.8284 59.035645
-50.548603 1395.9688 82.196289
-45.493725 1395.9688 82.196289
-40.438843 1395.9688 82.196289
-35.089497 1402.8284 59.035645
-29.824221 1409.6882 35.874756
-24.8535 1409.6882 35.874756
-19.721476 1416.2622 13.678955
-14.791082 1416.2622 13.678955
-9.8607845 1416.2622 13.678955
-4.9303923 1416.2622 13.678955
0 1416.2622 13.678955
4.9302983 1416.2622 13.678955
9.8607845 1416.2622 13.678955
14.791082 1416.2622 13.678955
19.721569 1416.2622 13.678955
24.651867 1416.2622 13.678955
29.582165 1416.2622 13.678955
34.230366 1422.8362 -8.5168457
39.120335 1422.8362 -8.5168457
44.010494 1422.8362 -8.5168457
48.900467 1422.8362 -8.5168457
53.79044 1422.8362 -8.5168457
58.680603 1422.8362 -8.5168457
64.094818 1416.2622 13.678955
69.025299 1416.2622 13.678955
75.191704 1402.8284 59.035645
80.204407 1402.8284 59.035645
85.932655 1395.9688 82.196289
90.98745 1395.9688 82.196289
96.042427 1395.9688 82.196289
101.09721 1395.9688 82.196289
106.15199 1395.9688 82.196289
111.20696 1395.9688 82.196289
116.26175 1395.9688 82.196289
-75.191704 1398.2141 57.076904
-70.178902 1398.2141 57.076904
-65.1661 1398.2141 57.076904
-60.1534 1398.2141 57.076904
-55.140602 1398.2141 57.076904
-50.548603 1391.3157 80.221191
-45.493725 1391.3157 80.221191
-40.438843 1391.3157 80.221191
-35.38406 1391.3157 80.221191
-30.0767 1398.2141 57.076904
-24.8535 1405.1127 33.932617
-19.882782 1405.1127 33.932617
-14.912063 1405.1127 33.932617
-9.9414377 1405.1127 33.932617
-4.9303923 1411.7238 11.752441
0 1411.7238 11.752441
4.9302983 1411.7238 11.752441
9.8607845 1411.7238 11.752441
14.791082 1411.7238 11.752441
19.721569 1411.7238 11.752441
24.651867 1411.7238 11.752441
29.582165 1411.7238 11.752441
34.230366 1418.3347 -10.42749
39.120335 1418.3347 -10.42749
44.010494 1418.3347 -10.42749
48.900467 1418.3347 -10.42749
53.79044 1418.3347 -10.42749
58.680603 1418.3347 -10.42749
63.570568 1418.3347 -10.42749
69.025299 1411.7238 11.752441
75.191704 1398.2141 57.076904
80.204407 1398.2141 57.076904
85.932655 1391.3157 80.221191
90.98745 1391.3157 80.221191
96.042427 1391.3157 80.221191
101.09721 1391.3157 80.221191
106.15199 1391.3157 80.221191
111.20696 1391.3157 80.221191
116.26175 1391.3157 80.221191
-70.178902 1393.5999 55.118164
-65.1661 1393.5999 55.118164
-60.1534 1393.5999 55.118164
-55.140602 1393.5999 55.118164
-50.548603 1386.6627 78.246094
-45.493725 1386.6627 78.246094
-40.438843 1386.6627 78.246094
-35.38406 1386.6627 78.246094
-30.329182 1386.6627 78.246094
-25.0639 1393.5999 55.118164
-20.051102 1393.5999 55.118164
-15.038302 1393.5999 55.118164
-9.9414377 1400.5371 31.990479
-4.9707189 1400.5371 31.990479
0 1400.5371 31.990479
4.970624 1400.5371 31.990479
9.8607845 1407.1853 9.8261719
14.791082 1407.1853 9.8261719
19.721569 1407.1853 9.8261719
24.450233 1413.8335 -12.338135
29.340206 1413.8335 -12.338135
34.230366 1413.8335 -12.338135
39.120335 1413.8335 -12.338135
44.010494 1413.8335 -12.338135
48.900467 1413.8335 -12.338135
53.79044 1413.8335 -12.338135
58.680603 1413.8335 -12.338135
63.570568 1413.8335 -12.338135
69.025299 1407.1853 9.8261719
75.191704 1393.5999 55.118164
80.204407 1393.5999 55.118164
85.932655 1386.6627 78.246094
90.98745 1386.6627 78.246094
96.042427 1386.6627 78.246094
101.97387 1379.4363 102.33789
107.07249 1379.4363 102.33789
112.1713 1379.4363 102.33789
117.26991 1379.4363 102.33789
122.36873 1379.4363 102.33789
-45.888226 1374.7429 100.3457
-40.789509 1374.7429 100.3457
-35.38406 1382.0096 76.270996
-30.329182 1382.0096 76.270996
-25.0639 1388.9855 53.159668
-20.051102 1388.9855 53.159668
-15.038302 1388.9855 53.159668
-10.025599 1388.9855 53.159668
-4.9707189 1395.9615 30.048096
0 1395.9615 30.048096
4.970624 1395.9615 30.048096
9.9414377 1395.9615 30.048096
14.791082 1402.6469 7.8996582
19.721569 1402.6469 7.8996582
24.450233 1409.3322 -14.249023
29.340206 1409.3322 -14.249023
34.230366 1409.3322 -14.249023
39.120335 1409.3322 -14.249023
44.010494 1409.3322 -14.249023
48.900467 1409.3322 -14.249023
53.79044 1409.3322 -14.249023
58.680603 1409.3322 -14.249023
64.094818 1402.6469 7.8996582
69.025299 1402.6469 7.8996582
75.191704 1388.9855 53.159668
80.204407 1388.9855 53.159668
85.932655 1382.0096 76.270996
90.98745 1382.0096 76.270996
96.042427 1382.0096 76.270996
101.09721 1382.0096 76.270996
106.15199 1382.0096 76.270996
111.20696 1382.0096 76.270996
117.26991 1374.7429 100.3457
122.36873 1374.7429 100.3457
-35.690891 1370.0496 98.353516
-30.0767 1384.3712 51.200928
-25.0639 1384.3712 51.200928
-20.051102 1384.3712 51.200928
-15.038302 1384.3712 51.200928
-10.025599 1384.3712 51.200928
-5.0127993 1384.3712 51.200928
0 1391.386 28.105957
4.970624 1391.386 28.105957
9.9414377 1391.386 28.105957
14.791082 1398.1084 5.9731445
19.721569 1398.1084 5.9731445
24.450233 1404.8308 -16.159668
29.340206 1404.8308 -16.159668
34.230366 1404.8308 -16.159668
39.120335 1404.8308 -16.159668
44.010494 1404.8308 -16.159668
48.900467 1404.8308 -16.159668
54.234035 1398.1084 5.9731445
59.16452 1398.1084 5.9731445
64.094818 1398.1084 5.9731445
69.589882 1391.386 28.105957
75.191704 1384.3712 51.200928
80.204407 1384.3712 51.200928
85.932655 1377.3567 74.295898
90.98745 1377.3567 74.295898
96.042427 1377.3567 74.295898
101.09721 1377.3567 74.295898
106.15199 1377.3567 74.295898
111.20696 1377.3567 74.295898
117.26991 1370.0496 98.353516
122.36873 1370.0496 98.353516
-35.690891 1365.3562 96.361328
-30.329182 1372.7036 72.320801
-25.0639 1379.757 49.242432
-20.051102 1379.757 49.242432
-15.038302 1379.757 49.242432
-10.025599 1379.757 49.242432
-5.0127993 1379.757 49.242432
0 1379.757 49.242432
4.970624 1386.8104 26.163818
9.9414377 1386.8104 26.163818
14.791082 1393.5699 4.0466309
19.721569 1393.5699 4.0466309
24.450233 1400.3296 -18.070312
29.340206 1400.3296 -18.070312
34.230366 1400.3296 -18.070312
39.120335 1400.3296 -18.070312
44.010494 1400.3296 -18.070312
48.900467 1400.3296 -18.070312
54.234035 1393.5699 4.0466309
59.16452 1393.5699 4.0466309
64.094818 1393.5699 4.0466309
69.589882 1386.8104 26.163818
75.191704 1379.757 49.242432
80.877686 1372.7036 72.320801
85.932655 1372.7036 72.320801
90.98745 1372.7036 72.320801
96.042427 1372.7036 72.320801
101.09721 1372.7036 72.320801
106.15199 1372.7036 72.320801
111.20696 1372.7036 72.320801
117.26991 1365.3562 96.361328
122.36873 1365.3562 96.361328
-35.690891 1360.6628 94.368896
-30.329182 1368.0505 70.345703
-25.274302 1368.0505 70.345703
-20.051102 1375.1427 47.283691
-15.038302 1375.1427 47.283691
-10.025599 1375.1427 47.283691
-5.0127993 1375.1427 47.283691
0 1375.1427 47.283691
4.970624 1382.2349 24.22168
9.9414377 1382.2349 24.22168
14.791082 1389.0315 2.1203613
19.721569 1389.0315 2.1203613
24.450233 1395.8282 -19.980957
29.340206 1395.8282 -19.980957
34.230366 1395.8282 -19.980957
39.120335 1395.8282 -19.980957
44.010494 1395.8282 -19.980957
48.900467 1395.8282 -19.980957
54.234035 1389.0315 2.1203613
59.16452 1389.0315 2.1203613
64.094818 1389.0315 2.1203613
69.589882 1382.2349 24.22168
75.191704 1375.1427 47.283691
80.877686 1368.0505 70.345703
85.932655 1368.0505 70.345703
90.98745 1368.0505 70.345703
96.042427 1368.0505 70.345703
101.09721 1368.0505 70.345703
107.07249 1360.6628 94.368896
112.1713 1360.6628 94.368896
117.26991 1360.6628 94.368896
122.36873 1360.6628 94.368896
127.46734 1360.6628 94.368896
-25.274302 1363.3976 68.370605
-20.051102 1370.5284 45.324951
-15.038302 1370.5284 45.324951
-10.025599 1370.5284 45.324951
-5.0127993 1370.5284 45.324951
0 1370.5284 45.324951
4.970624 1377.6593 22.279297
9.9414377 1377.6593 22.279297
14.791082 1384.4932 0.19384766
19.721569 1384.4932 0.19384766
24.651867 1384.4932 0.19384766
29.582165 1384.4932 0.19384766
34.230366 1391.3269 -21.891602
39.120335 1391.3269 -21.891602
44.010494 1391.3269 -21.891602
48.900467 1391.3269 -21.891602
54.234035 1384.4932 0.19384766
59.16452 1384.4932 0.19384766
64.094818 1384.4932 0.19384766
69.589882 1377.6593 22.279297
74.560501 1377.6593 22.279297
80.204407 1370.5284 45.324951
85.932655 1363.3976 68.370605
90.98745 1363.3976 68.370605
96.042427 1363.3976 68.370605
101.09721 1363.3976 68.370605
107.07249 1355.9695 92.376709
112.1713 1355.9695 92.376709
118.27808 1348.5414 116.38281
123.42072 1348.5414 116.38281
129.65901 1341.1133 140.38892
134.84529 1341.1133 140.38892
-20.394754 1351.2761 90.384521
-15.038302 1365.9141 43.366455
-10.025599 1365.9141 43.366455
-5.0127993 1365.9141 43.366455
0 1365.9141 43.366455
4.970624 1373.0837 20.337158
9.9414377 1373.0837 20.337158
14.912063 1373.0837 20.337158
19.721569 1379.9547 -1.732666
24.651867 1379.9547 -1.732666
29.582165 1379.9547 -1.732666
34.51265 1379.9547 -1.732666
39.442951 1379.9547 -1.732666
44.373436 1379.9547 -1.732666
49.303734 1379.9547 -1.732666
54.234035 1379.9547 -1.732666
59.16452 1379.9547 -1.732666
64.619064 1373.0837 20.337158
69.589882 1373.0837 20.337158
74.560501 1373.0837 20.337158
80.204407 1365.9141 43.366455
85.2173 1365.9141 43.366455
90.230003 1365.9141 43.366455
96.042427 1358.7446 66.395752
101.09721 1358.7446 66.395752
107.07249 1351.2761 90.384521
112.1713 1351.2761 90.384521
118.27808 1343.8076 114.37354
124.47272 1336.3392 138.36255
129.65901 1336.3392 138.36255
134.84529 1336.3392 138.36255
140.03175 1336.3392 138.36255
-15.038302 1361.2998 41.407715
-10.025599 1361.2998 41.407715
-5.0127993 1361.2998 41.407715
0 1361.2998 41.407715
4.970624 1368.5083 18.39502
9.9414377 1368.5083 18.39502
14.912063 1368.5083 18.39502
19.721569 1375.4163 -3.6591797
24.651867 1375.4163 -3.6591797
29.582165 1375.4163 -3.6591797
34.51265 1375.4163 -3.6591797
39.442951 1375.4163 -3.6591797
44.373436 1375.4163 -3.6591797
49.303734 1375.4163 -3.6591797
54.234035 1375.4163 -3.6591797
59.16452 1375.4163 -3.6591797
64.094818 1375.4163 -3.6591797
69.589882 1368.5083 18.39502
74.560501 1368.5083 18.39502
80.204407 1361.2998 41.407715
85.2173 1361.2998 41.407715
90.230003 1361.2998 41.407715
96.042427 1354.0916 64.420654
101.97387 1346.5828 88.392334
107.07249 1346.5828 88.392334
112.1713 1346.5828 88.392334
118.27808 1339.074 112.36426
124.47272 1331.5652 136.33594
129.65901 1331.5652 136.33594
134.84529 1331.5652 136.33594
-10.109758 1349.4385 62.445557
-5.0548792 1349.4385 62.445557
0 1356.6855 39.449219
4.970624 1363.9326 16.452637
9.9414377 1363.9326 16.452637
14.912063 1363.9326 16.452637
19.721569 1370.8779 -5.5854492
24.651867 1370.8779 -5.5854492
29.582165 1370.8779 -5.5854492
34.51265 1370.8779 -5.5854492
39.442951 1370.8779 -5.5854492
44.373436 1370.8779 -5.5854492
49.303734 1370.8779 -5.5854492
54.234035 1370.8779 -5.5854492
59.16452 1370.8779 -5.5854492
64.094818 1370.8779 -5.5854492
69.589882 1363.9326 16.452637
74.560501 1363.9326 16.452637
80.204407 1356.6855 39.449219
85.2173 1356.6855 39.449219
90.98745 1349.4385 62.445557
96.042427 1349.4385 62.445557
101.97387 1341.8894 86.400146
107.07249 1341.8894 86.400146
112.1713 1341.8894 86.400146
118.27808 1334.3403 110.35474
124.47272 1326.7911 134.30957
-10.197426 1337.196 84.407959
-5.0548792 1344.7855 60.470459
0 1352.0713 37.490479
4.970624 1359.3572 14.510498
9.9414377 1359.3572 14.510498
14.912063 1359.3572 14.510498
19.721569 1366.3395 -7.5119629
24.651867 1366.3395 -7.5119629
29.582165 1366.3395 -7.5119629
34.51265 1366.3395 -7.5119629
39.442951 1366.3395 -7.5119629
44.373436 1366.3395 -7.5119629
49.303734 1366.3395 -7.5119629
54.234035 1366.3395 -7.5119629
59.16452 1366.3395 -7.5119629
64.094818 1366.3395 -7.5119629
69.589882 1359.3572 14.510498
74.560501 1359.3572 14.510498
80.204407 1352.0713 37.490479
85.2173 1352.0713 37.490479
90.98745 1344.7855 60.470459
96.042427 1344.7855 60.470459
101.97387 1337.196 84.407959
107.07249 1337.196 84.407959
112.1713 1337.196 84.407959
118.27808 1329.6066 108.34546
-15.83256 1301.373 180.01074
-10.555108 1301.373 180.01074
-5.277554 1301.373 180.01074
0 1347.457 35.531738
4.970624 1354.7815 12.568359
9.8607845 1361.801 -9.4384766
14.791082 1361.801 -9.4384766
19.721569 1361.801 -9.4384766
24.651867 1361.801 -9.4384766
29.582165 1361.801 -9.4384766
34.51265 1361.801 -9.4384766
39.442951 1361.801 -9.4384766
44.373436 1361.801 -9.4384766
49.303734 1361.801 -9.4384766
54.234035 1361.801 -9.4384766
59.16452 1361.801 -9.4384766
64.094818 1361.801 -9.4384766
69.589882 1354.7815 12.568359
74.560501 1354.7815 12.568359
80.204407 1347.457 35.531738
85.2173 1347.457 35.531738
90.98745 1340.1326 58.495361
96.042427 1340.1326 58.495361
101.97387 1332.5027 82.415771
107.07249 1332.5027 82.415771
112.1713 1332.5027 82.415771
118.27808 1324.8728 106.33618
123.42072 1324.8728 106.33618
127.46734 1332.5027 82.415771
-15.83256 1296.515 177.94873
-10.555108 1296.515 177.94873
-5.277554 1296.515 177.94873
0 1296.515 177.94873
4.9302983 1357.2625 -11.36499
9.8607845 1357.2625 -11.36499
14.791082 1357.2625 -11.36499
19.721569 1357.2625 -11.36499
24.651867 1357.2625 -11.36499
29.582165 1357.2625 -11.36499
34.51265 1357.2625 -11.36499
39.442951 1357.2625 -11.36499
44.373436 1357.2625 -11.36499
49.303734 1357.2625 -11.36499
54.234035 1357.2625 -11.36499
59.648441 1350.2061 10.626221
64.619064 1350.2061 10.626221
69.589882 1350.2061 10.626221
74.560501 1350.2061 10.626221
80.204407 1342.8427 33.573242
85.2173 1342.8427 33.573242
90.98745 1335.4794 56.520264
96.042427 1335.4794 56.520264
101.97387 1327.8092 80.42334
107.07249 1327.8092 80.42334
112.1713 1327.8092 80.42334
117.26991 1327.8092 80.42334
122.36873 1327.8092 80.42334
127.46734 1327.8092 80.42334
-15.83256 1291.657 175.88672
-10.555108 1291.657 175.88672
-5.324894 1283.3297 201.68359
0 1283.3297 201.68359
4.970624 1345.6304 8.6838379
9.9414377 1345.6304 8.6838379
14.912063 1345.6304 8.6838379
19.721569 1352.7241 -13.29126
24.651867 1352.7241 -13.29126
29.582165 1352.7241 -13.29126
34.51265 1352.7241 -13.29126
39.765564 1345.6304 8.6838379
44.736378 1345.6304 8.6838379
49.707001 1345.6304 8.6838379
54.677624 1345.6304 8.6838379
59.648441 1345.6304 8.6838379
64.619064 1345.6304 8.6838379
69.589882 1345.6304 8.6838379
74.560501 1345.6304 8.6838379
80.204407 1338.2283 31.614502
85.2173 1338.2283 31.614502
90.98745 1330.8264 54.545166
96.042427 1330.8264 54.545166
101.09721 1330.8264 54.545166
106.15199 1330.8264 54.545166
112.1713 1323.1158 78.431152
117.26991 1323.1158 78.431152
122.36873 1323.1158 78.431152
128.56317 1315.4053 102.31738
133.70561 1315.4053 102.31738
-31.66522 1286.7991 173.82446
-26.387667 1286.7991 173.82446
-21.110115 1286.7991 173.82446
-15.695801 1294.86 149.00073
-10.463933 1294.86 149.00073
-5.2319665 1294.86 149.00073
0 1294.86 149.00073
5.2318668 1294.86 149.00073
9.9414377 1341.0549 6.7416992
14.912063 1341.0549 6.7416992
19.721569 1348.1857 -15.217773
24.651867 1348.1857 -15.217773
29.582165 1348.1857 -15.217773
34.51265 1348.1857 -15.217773
39.765564 1341.0549 6.7416992
44.736378 1341.0549 6.7416992
49.707001 1341.0549 6.7416992
54.677624 1341.0549 6.7416992
59.648441 1341.0549 6.7416992
64.619064 1341.0549 6.7416992
69.589882 1341.0549 6.7416992
74.560501 1341.0549 6.7416992
80.204407 1333.614 29.655762
85.2173 1333.614 29.655762
90.230003 1333.614 29.655762
96.042427 1326.1733 52.570068
101.09721 1326.1733 52.570068
106.15199 1326.1733 52.570068
111.20696 1326.1733 52.570068
116.26175 1326.1733 52.570068
121.31673 1326.1733 52.570068
127.46734 1318.4225 76.438965
133.70561 1310.6716 100.30811
138.84827 1310.6716 100.30811
-31.66522 1281.941 171.76245
-26.159735 1290.0439 146.95654
-20.927767 1290.0439 146.95654
-15.695801 1290.0439 146.95654
-10.37276 1298.1467 122.15063
-5.1863799 1298.1467 122.15063
0 1298.1467 122.15063
9.9414377 1336.4792 4.7995605
14.912063 1336.4792 4.7995605
19.721569 1343.6472 -17.144287
24.651867 1343.6472 -17.144287
29.582165 1343.6472 -17.144287
34.51265 1343.6472 -17.144287
39.765564 1336.4792 4.7995605
44.736378 1336.4792 4.7995605
49.707001 1336.4792 4.7995605
54.677624 1336.4792 4.7995605
59.648441 1336.4792 4.7995605
64.619064 1336.4792 4.7995605
69.589882 1336.4792 4.7995605
74.560501 1336.4792 4.7995605
80.204407 1328.9998 27.697266
85.2173 1328.9998 27.697266
90.230003 1328.9998 27.697266
95.242905 1328.9998 27.697266
101.09721 1321.5203 50.594971
106.15199 1321.5203 50.594971
111.20696 1321.5203 50.594971
116.26175 1321.5203 50.594971
121.31673 1321.5203 50.594971
127.46734 1313.7291 74.446777
132.56595 1313.7291 74.446777
137.66476 1313.7291 74.446777
143.99071 1305.938 98.298828
-37.274155 1268.625 195.44165
-31.66522 1277.083 169.70044
-26.159735 1285.2279 144.91235
-20.927767 1285.2279 144.91235
-15.695801 1285.2279 144.91235
-10.37276 1293.3726 120.12427
-5.1863799 1293.3726 120.12427
0 1293.3726 120.12427
9.9414377 1331.9038 2.8571777
14.912063 1331.9038 2.8571777
19.721569 1339.1088 -19.070801
24.651867 1339.1088 -19.070801
29.582165 1339.1088 -19.070801
34.51265 1339.1088 -19.070801
39.765564 1331.9038 2.8571777
44.736378 1331.9038 2.8571777
49.707001 1331.9038 2.8571777
54.677624 1331.9038 2.8571777
59.648441 1331.9038 2.8571777
64.619064 1331.9038 2.8571777
69.589882 1331.9038 2.8571777
75.191704 1324.3855 25.738525
80.204407 1324.3855 25.738525
85.2173 1324.3855 25.738525
90.230003 1324.3855 25.738525
95.242905 1324.3855 25.738525
100.2556 1324.3855 25.738525
105.2683 1324.3855 25.738525
111.20696 1316.8673 48.619873
116.26175 1316.8673 48.619873
121.31673 1316.8673 48.619873
126.37151 1316.8673 48.619873
131.42628 1316.8673 48.619873
136.48126 1316.8673 48.619873
142.76338 1309.0358 72.45459
-42.598946 1263.7234 193.36108
-37.274155 1263.7234 193.36108
-31.66522 1272.2251 167.63818
-26.159735 1280.4119 142.86792
-20.927767 1280.4119 142.86792
-15.559041 1288.5986 118.09766
-10.285093 1296.4705 94.280029
-5.1425467 1296.4705 94.280029
0 1296.4705 94.280029
5.1424484 1296.4705 94.280029
9.9414377 1327.3282 0.91503906
14.912063 1327.3282 0.91503906
19.721569 1334.5703 -20.99707
24.651867 1334.5703 -20.99707
29.582165 1334.5703 -20.99707
34.51265 1334.5703 -20.99707
39.765564 1327.3282 0.91503906
44.736378 1327.3282 0.91503906
49.707001 1327.3282 0.91503906
54.677624 1327.3282 0.91503906
59.648441 1327.3282 0.91503906
64.619064 1327.3282 0.91503906
69.589882 1327.3282 0.91503906
74.560501 1327.3282 0.91503906
79.531128 1327.3282 0.91503906
84.501938 1327.3282 0.91503906
89.472572 1327.3282 0.91503906
95.242905 1319.7712 23.779785
100.2556 1319.7712 23.779785
105.2683 1319.7712 23.779785
110.2812 1319.7712 23.779785
115.29391 1319.7712 23.779785
120.3068 1319.7712 23.779785
126.37151 1312.2144 46.644775
131.42628 1312.2144 46.644775
136.48126 1312.2144 46.644775
141.53606 1312.2144 46.644775
-31.66522 1267.3671 165.57617
-26.159735 1275.5958 140.82373
-20.74542 1283.8245 116.07129
-15.427542 1291.7368 92.270752
-10.285093 1291.7368 92.270752
-5.1425467 1291.7368 92.270752
0 1291.7368 92.270752
5.1424484 1291.7368 92.270752
9.9414377 1322.7527 -1.0270996
14.912063 1322.7527 -1.0270996
19.721569 1330.032 -22.923584
24.651867 1330.032 -22.923584
29.582165 1330.032 -22.923584
34.51265 1330.032 -22.923584
39.765564 1322.7527 -1.0270996
44.373436 1330.032 -22.923584
49.303734 1330.032 -22.923584
54.234035 1330.032 -22.923584
59.16452 1330.032 -22.923584
64.094818 1330.032 -22.923584
69.025299 1330.032 -22.923584
73.955605 1330.032 -22.923584
78.885902 1330.032 -22.923584
83.816391 1330.032 -22.923584
89.472572 1322.7527 -1.0270996
94.443382 1322.7527 -1.0270996
99.414001 1322.7527 -1.0270996
105.2683 1315.157 21.821289
110.2812 1315.157 21.821289
115.29391 1315.157 21.821289
120.3068 1315.157 21.821289
126.37151 1307.5613 44.669678
131.42628 1307.5613 44.669678
136.48126 1307.5613 44.669678
141.53606 1307.5613 44.669678
146.59102 1307.5613 44.669678
-31.391701 1270.7798 138.7793
-26.159735 1270.7798 138.7793
-20.74542 1279.0504 114.04468
-15.427542 1287.0031 90.26123
-10.197426 1294.9556 66.478027
-5.0987129 1294.9556 66.478027
0 1302.9082 42.69458
5.0547829 1302.9082 42.69458
10.109758 1302.9082 42.69458
15.164542 1302.9082 42.69458
20.051197 1310.5426 19.862549
24.8535 1318.1771 -2.9692383
29.582165 1325.4935 -24.850098
34.51265 1325.4935 -24.850098
39.765564 1318.1771 -2.9692383
44.373436 1325.4935 -24.850098
49.303734 1325.4935 -24.850098
54.234035 1325.4935 -24.850098
59.16452 1325.4935 -24.850098
64.094818 1325.4935 -24.850098
69.025299 1325.4935 -24.850098
73.955605 1325.4935 -24.850098
78.885902 1325.4935 -24.850098
83.816391 1325.4935 -24.850098
88.746681 1325.4935 -24.850098
93.67717 1325.4935 -24.850098
99.414001 1318.1771 -2.9692383
104.38463 1318.1771 -2.9692383
110.2812 1310.5426 19.862549
115.29391 1310.5426 19.862549
120.3068 1310.5426 19.862549
125.3195 1310.5426 19.862549
130.3322 1310.5426 19.862549
136.48126 1302.9082 42.69458
140.3578 1310.5426 19.862549
145.3707 1310.5426 19.862549
-37.274155 1249.0188 187.11938
-31.391701 1265.9637 136.73511
-26.159735 1265.9637 136.73511
-20.570087 1282.2693 88.251953
-15.427542 1282.2693 88.251953
-10.197426 1290.2622 64.48584
-5.0987129 1290.2622 64.48584
0 1298.2552 40.719482
5.0547829 1298.2552 40.719482
10.109758 1298.2552 40.719482
15.164542 1298.2552 40.719482
20.051197 1305.9283 17.904053
25.0639 1305.9283 17.904053
29.824125 1313.6016 -4.9116211
34.794941 1313.6016 -4.9116211
39.442951 1320.9551 -26.776367
44.373436 1320.9551 -26.776367
49.303734 1320.9551 -26.776367
53.79044 1328.3086 -48.641357
58.680603 1328.3086 -48.641357
64.094818 1320.9551 -26.776367
69.025299 1320.9551 -26.776367
73.955605 1320.9551 -26.776367
78.885902 1320.9551 -26.776367
83.816391 1320.9551 -26.776367
88.746681 1320.9551 -26.776367
93.67717 1320.9551 -26.776367
98.607468 1320.9551 -26.776367
104.38463 1313.6016 -4.9116211
110.2812 1305.9283 17.904053
114.32607 1313.6016 -4.9116211
119.29688 1313.6016 -4.9116211
125.3195 1305.9283 17.904053
130.3322 1305.9283 17.904053
135.34511 1305.9283 17.904053
140.3578 1305.9283 17.904053
144.15038 1313.6016 -4.9116211
149.121 1313.6016 -4.9116211
154.09164 1313.6016 -4.9116211
-42.598946 1244.1172 185.03882
-37.274155 1244.1172 185.03882
-31.391701 1261.1477 134.69092
-26.159735 1261.1477 134.69092
-20.570087 1277.5356 86.242676
-15.427542 1277.5356 86.242676
-10.197426 1285.5688 62.493408
-5.0987129 1285.5688 62.493408
0 1293.6023 38.744385
5.0547829 1293.6023 38.744385
10.109758 1293.6023 38.744385
15.164542 1293.6023 38.744385
20.219517 1293.6023 38.744385
25.0639 1301.3141 15.945312
29.824125 1309.026 -6.8537598
34.794941 1309.026 -6.8537598
39.442951 1316.4166 -28.702881
44.373436 1316.4166 -28.702881
49.303734 1316.4166 -28.702881
53.79044 1323.8073 -50.552002
58.680603 1323.8073 -50.552002
63.570568 1323.8073 -50.552002
68.460732 1323.8073 -50.552002
73.955605 1316.4166 -28.702881
78.885902 1316.4166 -28.702881
83.816391 1316.4166 -28.702881
88.746681 1316.4166 -28.702881
93.67717 1316.4166 -28.702881
98.607468 1316.4166 -28.702881
103.53777 1316.4166 -28.702881
109.35544 1309.026 -6.8537598
114.32607 1309.026 -6.8537598
119.29688 1309.026 -6.8537598
124.2675 1309.026 -6.8537598
129.23813 1309.026 -6.8537598
135.34511 1301.3141 15.945312
140.3578 1301.3141 15.945312
144.15038 1309.026 -6.8537598
147.91121 1316.4166 -28.702881
152.84149 1316.4166 -28.702881
159.06244 1309.026 -6.8537598
-42.598946 1239.2156 182.95825
-36.942772 1247.9351 157.32788
-31.391701 1256.3318 132.64648
-26.159735 1256.3318 132.64648
-20.570087 1272.8019 84.233398
-15.427542 1272.8019 84.233398
-10.197426 1280.8755 60.501221
-5.0987129 1280.8755 60.501221
0 1288.9492 36.769287
5.0547829 1288.9492 36.769287
10.109758 1288.9492 36.769287
15.164542 1288.9492 36.769287
20.219517 1288.9492 36.769287
25.0639 1296.6997 13.986572
29.824125 1304.4504 -8.7958984
34.794941 1304.4504 -8.7958984
39.442951 1311.8782 -30.629395
44.373436 1311.8782 -30.629395
48.900467 1319.3059 -52.462891
53.79044 1319.3059 -52.462891
58.680603 1319.3059 -52.462891
63.570568 1319.3059 -52.462891
68.460732 1319.3059 -52.462891
73.3507 1319.3059 -52.462891
78.240669 1319.3059 -52.462891
83.816391 1311.8782 -30.629395
88.746681 1311.8782 -30.629395
93.67717 1311.8782 -30.629395
98.607468 1311.8782 -30.629395
103.53777 1311.8782 -30.629395
108.46826 1311.8782 -30.629395
114.32607 1304.4504 -8.7958984
119.29688 1304.4504 -8.7958984
124.2675 1304.4504 -8.7958984
129.23813 1304.4504 -8.7958984
134.20894 1304.4504 -8.7958984
139.17957 1304.4504 -8.7958984
142.98091 1311.8782 -30.629395
147.91121 1311.8782 -30.629395
152.84149 1311.8782 -30.629395
159.06244 1304.4504 -8.7958984
-52.775333 1243.0771 155.26562
-47.49778 1243.0771 155.26562
-42.22023 1243.0771 155.26562
-36.942772 1243.0771 155.26562
-31.391701 1251.5156 130.60229
-26.159735 1251.5156 130.60229
-20.570087 1268.0681 82.223877
-15.427542 1268.0681 82.223877
-10.197426 1276.1821 58.509033
-5.0987129 1276.1821 58.509033
0 1284.2961 34.794189
5.0547829 1284.2961 34.794189
10.109758 1284.2961 34.794189
15.164542 1284.2961 34.794189
20.219517 1284.2961 34.794189
25.0639 1292.0854 12.028076
29.824125 1299.875 -10.738037
34.794941 1299.875 -10.738037
39.442951 1307.3398 -32.555908
44.373436 1307.3398 -32.555908
48.900467 1314.8047 -54.373535
53.79044 1314.8047 -54.373535
58.680603 1314.8047 -54.373535
63.570568 1314.8047 -54.373535
68.460732 1314.8047 -54.373535
73.3507 1314.8047 -54.373535
78.240669 1314.8047 -54.373535
83.130836 1314.8047 -54.373535
88.746681 1307.3398 -32.555908
93.67717 1307.3398 -32.555908
98.607468 1307.3398 -32.555908
103.53777 1307.3398 -32.555908
108.46826 1307.3398 -32.555908
114.32607 1299.875 -10.738037
119.29688 1299.875 -10.738037
124.2675 1299.875 -10.738037
129.23813 1299.875 -10.738037
134.20894 1299.875 -10.738037
139.17957 1299.875 -10.738037
142.98091 1307.3398 -32.555908
147.91121 1307.3398 -32.555908
154.09164 1299.875 -10.738037
159.06244 1299.875 -10.738037
-63.330441 1238.2191 153.20361
-58.052891 1238.2191 153.20361
-52.775333 1238.2191 153.20361
-47.49778 1238.2191 153.20361
-42.22023 1238.2191 153.20361
-36.942772 1238.2191 153.20361
-31.391701 1246.6997 128.55811
-26.159735 1246.6997 128.55811
-20.570087 1263.3345 80.2146
-15.296041 1271.4888 56.516846
-10.197426 1271.4888 56.516846
-5.0987129 1271.4888 56.516846
0 1279.6432 32.819092
5.0547829 1279.6432 32.819092
10.109758 1279.6432 32.819092
15.164542 1279.6432 32.819092
20.219517 1279.6432 32.819092
25.0639 1287.4712 10.069336
29.824125 1295.2993 -12.68042
34.794941 1295.2993 -12.68042
39.442951 1302.8014 -34.482178
44.373436 1302.8014 -34.482178
48.900467 1310.3033 -56.28418
53.79044 1310.3033 -56.28418
58.680603 1310.3033 -56.28418
63.570568 1310.3033 -56.28418
68.460732 1310.3033 -56.28418
73.3507 1310.3033 -56.28418
78.240669 1310.3033 -56.28418
83.130836 1310.3033 -56.28418
88.020805 1310.3033 -56.28418
93.67717 1302.8014 -34.482178
98.607468 1302.8014 -34.482178
103.53777 1302.8014 -34.482178
108.46826 1302.8014 -34.482178
113.39855 1302.8014 -34.482178
118.32904 1302.8014 -34.482178
123.25934 1302.8014 -34.482178
128.18964 1302.8014 -34.482178
134.20894 1295.2993 -12.68042
139.17957 1295.2993 -12.68042
144.15038 1295.2993 -12.68042
149.121 1295.2993 -12.68042
154.09164 1295.2993 -12.68042
159.06244 1295.2993 -12.68042
-63.330441 1233.3611 151.1416
-58.052891 1233.3611 151.1416
-52.775333 1233.3611 151.1416
-47.49778 1233.3611 151.1416
-42.22023 1233.3611 151.1416
-36.623669 1241.8837 126.51367
-31.391701 1241.8837 126.51367
-25.931801 1250.406 101.88599
-20.570087 1258.6007 78.205322
-15.296041 1266.7954 54.524658
-10.197426 1266.7954 54.524658
-5.0987129 1266.7954 54.524658
0 1274.9902 30.843994
5.0547829 1274.9902 30.843994
10.109758 1274.9902 30.843994
15.164542 1274.9902 30.843994
20.219517 1274.9902 30.843994
25.0639 1282.8569 8.1108398
29.824125 1290.7239 -14.622559
34.51265 1298.2629 -36.408691
39.442951 1298.2629 -36.408691
44.373436 1298.2629 -36.408691
48.900467 1305.802 -58.194824
53.79044 1305.802 -58.194824
58.680603 1305.802 -58.194824
63.570568 1305.802 -58.194824
68.460732 1305.802 -58.194824
73.3507 1305.802 -58.194824
78.240669 1305.802 -58.194824
83.130836 1305.802 -58.194824
88.020805 1305.802 -58.194824
93.67717 1298.2629 -36.408691
98.607468 1298.2629 -36.408691
103.53777 1298.2629 -36.408691
108.46826 1298.2629 -36.408691
113.39855 1298.2629 -36.408691
118.32904 1298.2629 -36.408691
123.25934 1298.2629 -36.408691
128.18964 1298.2629 -36.408691
133.12013 1298.2629 -36.408691
138.05042 1298.2629 -36.408691
144.15038 1290.7239 -14.622559
149.121 1290.7239 -14.622559
154.09164 1290.7239 -14.622559
159.06244 1290.7239 -14.622559
165.42172 1282.8569 8.1108398
-69.223312 1219.6094 174.63574
-63.330441 1228.5032 149.07935
-58.052891 1228.5032 149.07935
-52.775333 1228.5032 149.07935
-47.49778 1228.5032 149.07935
-41.855534 1237.0676 124.46948
-36.623669 1237.0676 124.46948
-31.391701 1237.0676 124.46948
-25.931801 1245.632 99.859375
-20.394754 1262.1021 52.532471
-15.296041 1262.1021 52.532471
-10.197426 1262.1021 52.532471
-5.0987129 1262.1021 52.532471
0 1270.3372 28.868896
5.0547829 1270.3372 28.868896
10.109758 1270.3372 28.868896
15.164542 1270.3372 28.868896
20.051197 1278.2427 6.1520996
25.0639 1278.2427 6.1520996
29.824125 1286.1483 -16.564697
34.51265 1293.7245 -38.335205
39.442951 1293.7245 -38.335205
44.010494 1301.3008 -60.105469
48.900467 1301.3008 -60.105469
53.79044 1301.3008 -60.105469
58.680603 1301.3008 -60.105469
63.570568 1301.3008 -60.105469
68.460732 1301.3008 -60.105469
73.3507 1301.3008 -60.105469
78.240669 1301.3008 -60.105469
83.130836 1301.3008 -60.105469
88.020805 1301.3008 -60.105469
92.910973 1301.3008 -60.105469
97.800934 1301.3008 -60.105469
103.53777 1293.7245 -38.335205
108.46826 1293.7245 -38.335205
113.39855 1293.7245 -38.335205
118.32904 1293.7245 -38.335205
123.25934 1293.7245 -38.335205
128.18964 1293.7245 -38.335205
133.12013 1293.7245 -38.335205
138.05042 1293.7245 -38.335205
142.98091 1293.7245 -38.335205
147.91121 1293.7245 -38.335205
154.09164 1286.1483 -16.564697
159.06244 1286.1483 -16.564697
165.42172 1278.2427 6.1520996
171.86531 1270.3372 28.868896
-68.607895 1223.645 147.01733
-63.330441 1223.645 147.01733
-58.052891 1223.645 147.01733
-52.775333 1223.645 147.01733
-47.49778 1223.645 147.01733
-41.855534 1232.2515 122.42505
-36.623669 1232.2515 122.42505
-31.391701 1232.2515 122.42505
-25.931801 1240.8579 97.833008
-20.394754 1257.4087 50.540283
-15.296041 1257.4087 50.540283
-10.197426 1257.4087 50.540283
-5.0987129 1257.4087 50.540283
0 1265.6841 26.893799
5.0547829 1265.6841 26.893799
10.109758 1265.6841 26.893799
15.038302 1273.6283 4.1933594
20.051197 1273.6283 4.1933594
24.8535 1281.5726 -18.50708
29.582165 1289.186 -40.261719
34.51265 1289.186 -40.261719
39.442951 1289.186 -40.261719
44.010494 1296.7993 -62.016357
48.900467 1296.7993 -62.016357
53.79044 1296.7993 -62.016357
58.680603 1296.7993 -62.016357
63.570568 1296.7993 -62.016357
68.460732 1296.7993 -62.016357
73.3507 1296.7993 -62.016357
78.240669 1296.7993 -62.016357
83.130836 1296.7993 -62.016357
88.020805 1296.7993 -62.016357
92.910973 1296.7993 -62.016357
97.800934 1296.7993 -62.016357
102.6909 1296.7993 -62.016357
107.58107 1296.7993 -62.016357
113.39855 1289.186 -40.261719
118.32904 1289.186 -40.261719
123.25934 1289.186 -40.261719
128.18964 1289.186 -40.261719
133.12013 1289.186 -40.261719
138.05042 1289.186 -40.261719
142.98091 1289.186 -40.261719
147.91121 1289.186 -40.261719
154.09164 1281.5726 -18.50708
159.06244 1281.5726 -18.50708
165.42172 1273.6283 4.1933594
171.86531 1265.6841 26.893799
-73.885452 1218.7871 144.95508
-68.607895 1218.7871 144.95508
-63.330441 1218.7871 144.95508
-58.052891 1218.7871 144.95508
-52.775333 1218.7871 144.95508
-47.49778 1218.7871 144.95508
-41.855534 1227.4355 120.38086
-36.623669 1227.4355 120.38086
-31.391701 1227.4355 120.38086
-25.931801 1236.0837 95.806396
-20.394754 1252.7153 48.547852
-15.296041 1252.7153 48.547852
-10.197426 1252.7153 48.547852
-5.0987129 1252.7153 48.547852
0 1261.031 24.918701
5.0547829 1261.031 24.918701
10.109758 1261.031 24.918701
15.038302 1269.014 2.2348633
20.051197 1269.014 2.2348633
24.8535 1276.9971 -20.449219
29.582165 1284.6476 -42.187988
34.51265 1284.6476 -42.187988
39.442951 1284.6476 -42.187988
44.010494 1292.2981 -63.927002
48.900467 1292.2981 -63.927002
53.79044 1292.2981 -63.927002
58.680603 1292.2981 -63.927002
63.570568 1292.2981 -63.927002
68.460732 1292.2981 -63.927002
73.3507 1292.2981 -63.927002
78.240669 1292.2981 -63.927002
83.130836 1292.2981 -63.927002
88.020805 1292.2981 -63.927002
92.910973 1292.2981 -63.927002
97.800934 1292.2981 -63.927002
102.6909 1292.2981 -63.927002
107.58107 1292.2981 -63.927002
112.47104 1292.2981 -63.927002
118.32904 1284.6476 -42.187988
123.25934 1284.6476 -42.187988
128.18964 1284.6476 -42.187988
133.12013 1284.6476 -42.187988
138.05042 1284.6476 -42.187988
142.98091 1284.6476 -42.187988
147.91121 1284.6476 -42.187988
154.09164 1276.9971 -20.449219
159.06244 1276.9971 -20.449219
165.42172 1269.014 2.2348633
171.86531 1261.031 24.918701
176.9201 1261.031 24.918701
-73.885452 1213.9291 142.89307
-68.607895 1213.9291 142.89307
-63.330441 1213.9291 142.89307
-58.052891 1213.9291 142.89307
-52.775333 1213.9291 142.89307
-47.49778 1213.9291 142.89307
-41.855534 1222.6194 118.33667
