ply
format ascii 1.0
comment PCL generated
element vertex 1581
property float x
property float y
property float z
element camera 0
property float view_px
property float view_py
property float view_pz
property float x_axisx
property float x_axisy
property float x_axisz
property float y_axisx
property float y_axisy
property float y_axisz
property float z_axisx
property float z_axisy
property float z_axisz
property float focal
property float scalex
property float scaley
property float centerx
property float centery
property int viewportx
property int viewporty
property float k1
property float k2
end_header
151.79655 1176.5405 216.10425
158.64169 1167.0914 242.51123
164.112 1167.0914 242.51123
169.58232 1167.0914 242.51123
176.67995 1157.3047 269.86157
182.2011 1157.3047 269.86157
187.72247 1157.3047 269.86157
193.24364 1157.3047 269.86157
198.7648 1157.3047 269.86157
204.28618 1157.3047 269.86157
209.80733 1157.3047 269.86157
215.3287 1157.3047 269.86157
222.88374 1147.5181 297.21167
228.45575 1147.5181 297.21167
236.23717 1137.3939 325.50513
241.86177 1137.3939 325.50513
247.4866 1137.3939 325.50513
255.47821 1127.2698 353.79858
261.15543 1127.2698 353.79858
266.83286 1127.2698 353.79858
272.51004 1127.2698 353.79858
280.8508 1116.8082 383.03491
286.58234 1116.8082 383.03491
292.3139 1116.8082 383.03491
300.87204 1106.3467 412.27148
306.65799 1106.3467 412.27148
315.56854 1095.2101 443.39429
321.41232 1095.2101 443.39429
330.39804 1084.4111 473.57373
-257.86621 1181.0446 187.5979
-252.49408 1181.0446 187.5979
-247.12184 1181.0446 187.5979
-241.7496 1181.0446 187.5979
-236.37737 1181.0446 187.5979
-231.00513 1181.0446 187.5979
-225.63301 1181.0446 187.5979
-222.27361 1171.5502 213.98584
-216.85228 1171.5502 213.98584
-211.43095 1171.5502 213.98584
-206.00961 1171.5502 213.98584
-200.58839 1171.5502 213.98584
-195.16707 1171.5502 213.98584
-188.02748 1181.0446 187.5979
-182.65524 1181.0446 187.5979
-177.283 1181.0446 187.5979
-173.48186 1171.5502 213.98584
-166.53865 1181.0446 187.5979
-161.16641 1181.0446 187.5979
-155.79417 1181.0446 187.5979
-150.42194 1181.0446 187.5979
-145.04982 1181.0446 187.5979
-139.67758 1181.0446 187.5979
-133.12184 1190.2 162.15234
-127.79694 1190.2 162.15234
-121.38322 1199.3551 136.70679
-116.10578 1199.3551 136.70679
-110.82822 1199.3551 136.70679
-105.55067 1199.3551 136.70679
-100.27312 1199.3551 136.70679
-94.99556 1199.3551 136.70679
-89.718109 1199.3551 136.70679
-84.440552 1199.3551 136.70679
-79.163002 1199.3551 136.70679
-73.885452 1199.3551 136.70679
-68.607895 1199.3551 136.70679
-63.330441 1199.3551 136.70679
-58.052891 1199.3551 136.70679
-52.775333 1199.3551 136.70679
-47.49778 1199.3551 136.70679
-42.22023 1199.3551 136.70679
-36.942772 1199.3551 136.70679
-31.949263 1190.2 162.15234
-26.624367 1190.2 162.15234
-21.299473 1190.2 162.15234
-15.97458 1190.2 162.15234
-10.649788 1190.2 162.15234
-5.324894 1190.2 162.15234
0 1190.2 162.15234
5.3247924 1190.2 162.15234
10.649788 1190.2 162.15234
15.97458 1190.2 162.15234
21.299576 1190.2 162.15234
26.624367 1190.2 162.15234
31.94916 1190.2 162.15234
37.274155 1190.2 162.15234
42.598946 1190.2 162.15234
47.923943 1190.2 162.15234
53.248734 1190.2 162.15234
58.573528 1190.2 162.15234
63.898525 1190.2 162.15234
69.223312 1190.2 162.15234
74.548309 1190.2 162.15234
79.8731 1190.2 162.15234
85.955338 1181.0446 187.5979
91.327667 1181.0446 187.5979
96.699806 1181.0446 187.5979
102.07214 1181.0446 187.5979
108.42614 1171.5502 213.98584
113.84736 1171.5502 213.98584
118.18874 1181.0446 187.5979
123.56087 1181.0446 187.5979
130.11145 1171.5502 213.98584
135.53267 1171.5502 213.98584
140.9539 1171.5502 213.98584
146.37532 1171.5502 213.98584
151.79655 1171.5502 213.98584
158.64169 1162.0559 240.37378
164.112 1162.0559 240.37378
169.58232 1162.0559 240.37378
176.67995 1152.2223 267.70435
182.2011 1152.2223 267.70435
187.72247 1152.2223 267.70435
193.24364 1152.2223 267.70435
198.7648 1152.2223 267.70435
206.16751 1142.3889 295.03467
211.73952 1142.3889 295.03467
217.31174 1142.3889 295.03467
222.88374 1142.3889 295.03467
230.61235 1132.2163 323.30762
236.23717 1132.2163 323.30762
241.86177 1132.2163 323.30762
249.80101 1122.0438 351.58008
255.47821 1122.0438 351.58008
261.15543 1122.0438 351.58008
266.83286 1122.0438 351.58008
272.51004 1122.0438 351.58008
278.18747 1122.0438 351.58008
286.58234 1111.5322 380.79541
292.3139 1111.5322 380.79541
298.04568 1111.5322 380.79541
306.65799 1101.0206 410.01074
312.44412 1101.0206 410.01074
321.41232 1089.8308 441.11084
330.39804 1078.9801 471.26831
336.29816 1078.9801 471.26831
-260.22269 1166.5599 211.86768
-252.49408 1176.0994 185.49878
-247.12184 1176.0994 185.49878
-241.7496 1176.0994 185.49878
-238.53748 1166.5599 211.86768
-231.00513 1176.0994 185.49878
-225.63301 1176.0994 185.49878
-222.27361 1166.5599 211.86768
-216.85228 1166.5599 211.86768
-211.43095 1166.5599 211.86768
-206.00961 1166.5599 211.86768
-200.58839 1166.5599 211.86768
-195.16707 1166.5599 211.86768
-189.74574 1166.5599 211.86768
-184.32442 1166.5599 211.86768
-178.90309 1166.5599 211.86768
-173.48186 1166.5599 211.86768
-168.06053 1166.5599 211.86768
-161.16641 1176.0994 185.49878
-155.79417 1176.0994 185.49878
-150.42194 1176.0994 185.49878
-145.04982 1176.0994 185.49878
-139.67758 1176.0994 185.49878
-134.30534 1176.0994 185.49878
-127.79694 1185.2983 160.07153
-122.47205 1185.2983 160.07153
-116.10578 1194.4971 134.64478
-110.82822 1194.4971 134.64478
-105.55067 1194.4971 134.64478
-100.27312 1194.4971 134.64478
-94.99556 1194.4971 134.64478
-89.718109 1194.4971 134.64478
-84.440552 1194.4971 134.64478
-79.163002 1194.4971 134.64478
-73.885452 1194.4971 134.64478
-68.607895 1194.4971 134.64478
-63.330441 1194.4971 134.64478
-58.052891 1194.4971 134.64478
-52.775333 1194.4971 134.64478
-47.49778 1194.4971 134.64478
-42.22023 1194.4971 134.64478
-36.942772 1194.4971 134.64478
-31.949263 1185.2983 160.07153
-26.624367 1185.2983 160.07153
-21.299473 1185.2983 160.07153
-15.97458 1185.2983 160.07153
-10.649788 1185.2983 160.07153
-5.324894 1185.2983 160.07153
0 1185.2983 160.07153
5.3247924 1185.2983 160.07153
10.649788 1185.2983 160.07153
15.97458 1185.2983 160.07153
21.299576 1185.2983 160.07153
26.624367 1185.2983 160.07153
31.94916 1185.2983 160.07153
37.274155 1185.2983 160.07153
42.598946 1185.2983 160.07153
47.923943 1185.2983 160.07153
53.248734 1185.2983 160.07153
58.573528 1185.2983 160.07153
63.898525 1185.2983 160.07153
69.223312 1185.2983 160.07153
74.548309 1185.2983 160.07153
80.583206 1176.0994 185.49878
85.955338 1176.0994 185.49878
92.162254 1166.5599 211.86768
96.699806 1176.0994 185.49878
102.07214 1176.0994 185.49878
108.42614 1166.5599 211.86768
112.81641 1176.0994 185.49878
118.18874 1176.0994 185.49878
123.56087 1176.0994 185.49878
130.11145 1166.5599 211.86768
135.53267 1166.5599 211.86768
140.9539 1166.5599 211.86768
146.37532 1166.5599 211.86768
151.79655 1166.5599 211.86768
157.21799 1166.5599 211.86768
164.112 1157.0204 238.23633
169.58232 1157.0204 238.23633
176.67995 1147.14 265.54688
182.2011 1147.14 265.54688
189.45126 1137.2598 292.85742
195.02327 1137.2598 292.85742
200.59528 1137.2598 292.85742
206.16751 1137.2598 292.85742
211.73952 1137.2598 292.85742
219.36314 1127.0388 321.10986
224.98775 1127.0388 321.10986
230.61235 1127.0388 321.10986
236.23717 1127.0388 321.10986
241.86177 1127.0388 321.10986
249.80101 1116.8179 349.36182
255.47821 1116.8179 349.36182
261.15543 1116.8179 349.36182
266.83286 1116.8179 349.36182
272.51004 1116.8179 349.36182
278.18747 1116.8179 349.36182
286.58234 1106.2562 378.55591
292.3139 1106.2562 378.55591
298.04568 1106.2562 378.55591
303.77722 1106.2562 378.55591
312.44412 1095.6946 407.75
318.23001 1095.6946 407.75
327.25607 1084.4514 438.82739
336.29816 1073.5492 468.96313
342.19806 1073.5492 468.96313
-268.04959 1151.9849 236.09888
-260.22269 1161.5696 209.74927
-254.80147 1161.5696 209.74927
-249.38014 1161.5696 209.74927
-243.9588 1161.5696 209.74927
-238.53748 1161.5696 209.74927
-233.11615 1161.5696 209.74927
-227.69493 1161.5696 209.74927
-222.27361 1161.5696 209.74927
-216.85228 1161.5696 209.74927
-211.43095 1161.5696 209.74927
-206.00961 1161.5696 209.74927
-200.58839 1161.5696 209.74927
-195.16707 1161.5696 209.74927
-189.74574 1161.5696 209.74927
-184.32442 1161.5696 209.74927
-178.90309 1161.5696 209.74927
-173.48186 1161.5696 209.74927
-168.06053 1161.5696 209.74927
-162.63921 1161.5696 209.74927
-157.21788 1161.5696 209.74927
-151.79655 1161.5696 209.74927
-146.37532 1161.5696 209.74927
-140.95399 1161.5696 209.74927
-134.30534 1171.1543 183.39966
-128.93311 1171.1543 183.39966
-122.47205 1180.3967 157.99097
-117.14725 1180.3967 157.99097
-110.82822 1189.6392 132.58252
-105.55067 1189.6392 132.58252
-100.27312 1189.6392 132.58252
-94.99556 1189.6392 132.58252
-89.718109 1189.6392 132.58252
-84.440552 1189.6392 132.58252
-79.163002 1189.6392 132.58252
-73.885452 1189.6392 132.58252
-68.607895 1189.6392 132.58252
-63.330441 1189.6392 132.58252
-58.052891 1189.6392 132.58252
-52.775333 1189.6392 132.58252
-47.49778 1189.6392 132.58252
-42.22023 1189.6392 132.58252
-36.942772 1189.6392 132.58252
-31.949263 1180.3967 157.99097
-26.624367 1180.3967 157.99097
-21.299473 1180.3967 157.99097
-15.97458 1180.3967 157.99097
-10.649788 1180.3967 157.99097
-5.324894 1180.3967 157.99097
0 1180.3967 157.99097
5.3247924 1180.3967 157.99097
10.649788 1180.3967 157.99097
15.97458 1180.3967 157.99097
21.299576 1180.3967 157.99097
26.624367 1180.3967 157.99097
31.94916 1180.3967 157.99097
37.274155 1180.3967 157.99097
42.598946 1180.3967 157.99097
47.923943 1180.3967 157.99097
53.248734 1180.3967 157.99097
58.573528 1180.3967 157.99097
63.898525 1180.3967 157.99097
69.223312 1180.3967 157.99097
75.211067 1171.1543 183.39966
80.583206 1171.1543 183.39966
85.955338 1171.1543 183.39966
92.162254 1161.5696 209.74927
97.583481 1161.5696 209.74927
103.00491 1161.5696 209.74927
108.42614 1161.5696 209.74927
112.81641 1171.1543 183.39966
118.18874 1171.1543 183.39966
123.56087 1171.1543 183.39966
130.11145 1161.5696 209.74927
135.53267 1161.5696 209.74927
140.9539 1161.5696 209.74927
146.37532 1161.5696 209.74927
151.79655 1161.5696 209.74927
157.21799 1161.5696 209.74927
164.112 1151.9849 236.09888
169.58232 1151.9849 236.09888
176.67995 1142.0576 263.38965
182.2011 1142.0576 263.38965
189.45126 1132.1306 290.68018
196.86427 1121.8613 318.91211
202.48888 1121.8613 318.91211
208.11371 1121.8613 318.91211
213.73831 1121.8613 318.91211
219.36314 1121.8613 318.91211
224.98775 1121.8613 318.91211
230.61235 1121.8613 318.91211
236.23717 1121.8613 318.91211
241.86177 1121.8613 318.91211
249.80101 1111.5919 347.14355
255.47821 1111.5919 347.14355
261.15543 1111.5919 347.14355
266.83286 1111.5919 347.14355
272.51004 1111.5919 347.14355
278.18747 1111.5919 347.14355
286.58234 1100.9802 376.31641
292.3139 1100.9802 376.31641
298.04568 1100.9802 376.31641
303.77722 1100.9802 376.31641
312.44412 1090.3685 405.48901
318.23001 1090.3685 405.48901
327.25607 1079.0721 436.54395
333.1001 1079.0721 436.54395
342.19806 1068.1183 466.65771
348.09814 1068.1183 466.65771
-268.04959 1146.9493 233.96143
-260.22269 1156.5792 207.6311
-254.80147 1156.5792 207.6311
-249.38014 1156.5792 207.6311
-243.9588 1156.5792 207.6311
-238.53748 1156.5792 207.6311
-233.11615 1156.5792 207.6311
-227.69493 1156.5792 207.6311
-222.27361 1156.5792 207.6311
-216.85228 1156.5792 207.6311
-211.43095 1156.5792 207.6311
-206.00961 1156.5792 207.6311
-200.58839 1156.5792 207.6311
-195.16707 1156.5792 207.6311
-189.74574 1156.5792 207.6311
-184.32442 1156.5792 207.6311
-178.90309 1156.5792 207.6311
-173.48186 1156.5792 207.6311
-168.06053 1156.5792 207.6311
-162.63921 1156.5792 207.6311
-157.21788 1156.5792 207.6311
-151.79655 1156.5792 207.6311
-146.37532 1156.5792 207.6311
-140.95399 1156.5792 207.6311
-134.30534 1166.2091 181.30054
-128.93311 1166.2091 181.30054
-122.47205 1175.4952 155.9104
-117.14725 1175.4952 155.9104
-110.82822 1184.7811 130.52051
-105.55067 1184.7811 130.52051
-100.27312 1184.7811 130.52051
-94.99556 1184.7811 130.52051
-89.718109 1184.7811 130.52051
-84.440552 1184.7811 130.52051
-79.163002 1184.7811 130.52051
-73.885452 1184.7811 130.52051
-68.607895 1184.7811 130.52051
-63.330441 1184.7811 130.52051
-58.052891 1184.7811 130.52051
-52.775333 1184.7811 130.52051
-47.49778 1184.7811 130.52051
-42.22023 1184.7811 130.52051
-36.942772 1184.7811 130.52051
-31.949263 1175.4952 155.9104
-26.387667 1184.7811 130.52051
-21.110115 1184.7811 130.52051
-15.83256 1184.7811 130.52051
-10.555108 1184.7811 130.52051
-5.324894 1175.4952 155.9104
0 1175.4952 155.9104
5.3247924 1175.4952 155.9104
10.649788 1175.4952 155.9104
15.97458 1175.4952 155.9104
21.299576 1175.4952 155.9104
26.624367 1175.4952 155.9104
31.94916 1175.4952 155.9104
37.274155 1175.4952 155.9104
42.598946 1175.4952 155.9104
47.923943 1175.4952 155.9104
53.248734 1175.4952 155.9104
58.573528 1175.4952 155.9104
63.898525 1175.4952 155.9104
69.223312 1175.4952 155.9104
74.548309 1175.4952 155.9104
80.583206 1166.2091 181.30054
85.955338 1166.2091 181.30054
92.162254 1156.5792 207.6311
97.583481 1156.5792 207.6311
103.00491 1156.5792 207.6311
108.42614 1156.5792 207.6311
113.84736 1156.5792 207.6311
118.18874 1166.2091 181.30054
123.56087 1166.2091 181.30054
130.11145 1156.5792 207.6311
135.53267 1156.5792 207.6311
140.9539 1156.5792 207.6311
146.37532 1156.5792 207.6311
151.79655 1156.5792 207.6311
158.64169 1146.9493 233.96143
164.112 1146.9493 233.96143
171.15857 1136.9753 261.23218
176.67995 1136.9753 261.23218
182.2011 1136.9753 261.23218
191.23967 1116.6837 316.71436
196.86427 1116.6837 316.71436
202.48888 1116.6837 316.71436
208.11371 1116.6837 316.71436
213.73831 1116.6837 316.71436
219.36314 1116.6837 316.71436
224.98775 1116.6837 316.71436
230.61235 1116.6837 316.71436
236.23717 1116.6837 316.71436
241.86177 1116.6837 316.71436
249.80101 1106.366 344.92529
255.47821 1106.366 344.92529
261.15543 1106.366 344.92529
266.83286 1106.366 344.92529
272.51004 1106.366 344.92529
278.18747 1106.366 344.92529
286.58234 1095.7042 374.0769
292.3139 1095.7042 374.0769
298.04568 1095.7042 374.0769
303.77722 1095.7042 374.0769
312.44412 1085.0425 403.22827
318.23001 1085.0425 403.22827
327.25607 1073.6929 434.26074
333.1001 1073.6929 434.26074
342.19806 1062.6873 464.35254
348.09814 1062.6873 464.35254
-265.64401 1151.5889 205.51294
-260.22269 1151.5889 205.51294
-254.80147 1151.5889 205.51294
-249.38014 1151.5889 205.51294
-243.9588 1151.5889 205.51294
-238.53748 1151.5889 205.51294
-233.11615 1151.5889 205.51294
-227.69493 1151.5889 205.51294
-222.27361 1151.5889 205.51294
-216.85228 1151.5889 205.51294
-209.5163 1161.264 179.20166
-204.14407 1161.264 179.20166
-200.58839 1151.5889 205.51294
-195.16707 1151.5889 205.51294
-189.74574 1151.5889 205.51294
-184.32442 1151.5889 205.51294
-178.90309 1151.5889 205.51294
-173.48186 1151.5889 205.51294
-168.06053 1151.5889 205.51294
-162.63921 1151.5889 205.51294
-157.21788 1151.5889 205.51294
-151.79655 1151.5889 205.51294
-146.37532 1151.5889 205.51294
-140.95399 1151.5889 205.51294
-134.30534 1161.264 179.20166
-128.93311 1161.264 179.20166
-123.56087 1161.264 179.20166
-117.14725 1170.5936 153.82983
-110.82822 1179.9231 128.4585
-105.55067 1179.9231 128.4585
-100.27312 1179.9231 128.4585
-94.99556 1179.9231 128.4585
-89.718109 1179.9231 128.4585
-84.440552 1179.9231 128.4585
-79.163002 1179.9231 128.4585
-73.885452 1179.9231 128.4585
-68.607895 1179.9231 128.4585
-63.330441 1179.9231 128.4585
-58.052891 1179.9231 128.4585
-52.775333 1179.9231 128.4585
-47.087502 1188.9072 104.02661
-41.855534 1188.9072 104.02661
-36.623669 1188.9072 104.02661
-31.949263 1170.5936 153.82983
-26.387667 1179.9231 128.4585
-21.110115 1179.9231 128.4585
-15.83256 1179.9231 128.4585
-10.555108 1179.9231 128.4585
-5.324894 1170.5936 153.82983
0 1170.5936 153.82983
5.3247924 1170.5936 153.82983
10.649788 1170.5936 153.82983
15.97458 1170.5936 153.82983
21.299576 1170.5936 153.82983
26.624367 1170.5936 153.82983
31.94916 1170.5936 153.82983
37.274155 1170.5936 153.82983
42.598946 1170.5936 153.82983
47.923943 1170.5936 153.82983
53.248734 1170.5936 153.82983
58.573528 1170.5936 153.82983
63.898525 1170.5936 153.82983
69.223312 1170.5936 153.82983
74.548309 1170.5936 153.82983
80.583206 1161.264 179.20166
85.955338 1161.264 179.20166
91.327667 1161.264 179.20166
96.699806 1161.264 179.20166
103.00491 1151.5889 205.51294
108.42614 1151.5889 205.51294
113.84736 1151.5889 205.51294
118.18874 1161.264 179.20166
123.56087 1161.264 179.20166
130.11145 1151.5889 205.51294
135.53267 1151.5889 205.51294
140.9539 1151.5889 205.51294
146.37532 1151.5889 205.51294
153.17117 1141.9138 231.82397
158.64169 1141.9138 231.82397
164.112 1141.9138 231.82397
171.15857 1131.8931 259.07495
178.30704 1121.8723 286.32593
185.61484 1111.5061 314.5166
191.23967 1111.5061 314.5166
198.70528 1101.1399 342.70703
204.38248 1101.1399 342.70703
210.05991 1101.1399 342.70703
215.73711 1101.1399 342.70703
221.41454 1101.1399 342.70703
227.09174 1101.1399 342.70703
232.76895 1101.1399 342.70703
238.44638 1101.1399 342.70703
244.12358 1101.1399 342.70703
249.80101 1101.1399 342.70703
255.47821 1101.1399 342.70703
261.15543 1101.1399 342.70703
266.83286 1101.1399 342.70703
275.11899 1090.4282 371.8374
280.8508 1090.4282 371.8374
286.58234 1090.4282 371.8374
292.3139 1090.4282 371.8374
298.04568 1090.4282 371.8374
303.77722 1090.4282 371.8374
312.44412 1079.7164 400.96753
318.23001 1079.7164 400.96753
327.25607 1068.3136 431.97729
333.1001 1068.3136 431.97729
342.19806 1057.2563 462.04712
348.09814 1057.2563 462.04712
-265.64401 1146.5985 203.39453
-260.22269 1146.5985 203.39453
-254.80147 1146.5985 203.39453
-249.38014 1146.5985 203.39453
-243.9588 1146.5985 203.39453
-238.53748 1146.5985 203.39453
-231.00513 1156.3188 177.10254
-225.63301 1156.3188 177.10254
-220.26077 1156.3188 177.10254
-214.88853 1156.3188 177.10254
-209.5163 1156.3188 177.10254
-204.14407 1156.3188 177.10254
-200.58839 1146.5985 203.39453
-195.16707 1146.5985 203.39453
-189.74574 1146.5985 203.39453
-184.32442 1146.5985 203.39453
-178.90309 1146.5985 203.39453
-173.48186 1146.5985 203.39453
-168.06053 1146.5985 203.39453
-162.63921 1146.5985 203.39453
-157.21788 1146.5985 203.39453
-151.79655 1146.5985 203.39453
-146.37532 1146.5985 203.39453
-140.95399 1146.5985 203.39453
-134.30534 1156.3188 177.10254
-128.93311 1156.3188 177.10254
-123.56087 1156.3188 177.10254
-117.14725 1165.692 151.74927
-111.82236 1165.692 151.74927
-105.55067 1175.0652 126.39624
-100.27312 1175.0652 126.39624
-94.99556 1175.0652 126.39624
-89.718109 1175.0652 126.39624
-84.440552 1175.0652 126.39624
-79.163002 1175.0652 126.39624
-73.885452 1175.0652 126.39624
-68.607895 1175.0652 126.39624
-63.330441 1175.0652 126.39624
-58.052891 1175.0652 126.39624
-52.775333 1175.0652 126.39624
-47.087502 1184.0912 101.98242
-41.855534 1184.0912 101.98242
-36.623669 1184.0912 101.98242
-31.66522 1175.0652 126.39624
-26.624367 1165.692 151.74927
-21.299473 1165.692 151.74927
-15.97458 1165.692 151.74927
-10.649788 1165.692 151.74927
-5.324894 1165.692 151.74927
0 1165.692 151.74927
5.3247924 1165.692 151.74927
10.649788 1165.692 151.74927
15.97458 1165.692 151.74927
21.299576 1165.692 151.74927
26.624367 1165.692 151.74927
31.94916 1165.692 151.74927
37.274155 1165.692 151.74927
42.598946 1165.692 151.74927
47.923943 1165.692 151.74927
53.248734 1165.692 151.74927
58.573528 1165.692 151.74927
63.898525 1165.692 151.74927
69.223312 1165.692 151.74927
74.548309 1165.692 151.74927
80.583206 1156.3188 177.10254
85.955338 1156.3188 177.10254
91.327667 1156.3188 177.10254
96.699806 1156.3188 177.10254
103.00491 1146.5985 203.39453
108.42614 1146.5985 203.39453
113.84736 1146.5985 203.39453
119.26879 1146.5985 203.39453
124.69002 1146.5985 203.39453
130.11145 1146.5985 203.39453
135.53267 1146.5985 203.39453
142.23032 1136.8783 229.68652
147.70084 1136.8783 229.68652
153.17117 1136.8783 229.68652
158.64169 1136.8783 229.68652
165.63741 1126.8107 256.91772
171.15857 1126.8107 256.91772
178.30704 1116.7433 284.14868
185.61484 1106.3286 312.31885
191.23967 1106.3286 312.31885
198.70528 1095.9139 340.48877
204.38248 1095.9139 340.48877
210.05991 1095.9139 340.48877
215.73711 1095.9139 340.48877
221.41454 1095.9139 340.48877
227.09174 1095.9139 340.48877
232.76895 1095.9139 340.48877
238.44638 1095.9139 340.48877
244.12358 1095.9139 340.48877
249.80101 1095.9139 340.48877
255.47821 1095.9139 340.48877
261.15543 1095.9139 340.48877
266.83286 1095.9139 340.48877
275.11899 1085.1522 369.59766
280.8508 1085.1522 369.59766
286.58234 1085.1522 369.59766
292.3139 1085.1522 369.59766
298.04568 1085.1522 369.59766
303.77722 1085.1522 369.59766
312.44412 1074.3904 398.70679
318.23001 1074.3904 398.70679
324.0159 1074.3904 398.70679
333.1001 1062.9343 429.69385
338.94382 1062.9343 429.69385
348.09814 1051.8254 459.74194
-271.06534 1141.6082 201.27637
-263.23843 1151.3737 175.00342
-257.86621 1151.3737 175.00342
-252.49408 1151.3737 175.00342
-247.12184 1151.3737 175.00342
-243.9588 1141.6082 201.27637
-236.37737 1151.3737 175.00342
-231.00513 1151.3737 175.00342
-225.63301 1151.3737 175.00342
-220.26077 1151.3737 175.00342
-214.88853 1151.3737 175.00342
-209.5163 1151.3737 175.00342
-204.14407 1151.3737 175.00342
-200.58839 1141.6082 201.27637
-195.16707 1141.6082 201.27637
-189.74574 1141.6082 201.27637
-184.32442 1141.6082 201.27637
-178.90309 1141.6082 201.27637
-173.48186 1141.6082 201.27637
-168.06053 1141.6082 201.27637
-162.63921 1141.6082 201.27637
-157.21788 1141.6082 201.27637
-151.79655 1141.6082 201.27637
-146.37532 1141.6082 201.27637
-140.95399 1141.6082 201.27637
-134.30534 1151.3737 175.00342
-128.93311 1151.3737 175.00342
-123.56087 1151.3737 175.00342
-117.14725 1160.7905 149.6687
-111.82236 1160.7905 149.6687
-105.55067 1170.2072 124.33423
-100.27312 1170.2072 124.33423
-94.99556 1170.2072 124.33423
-89.718109 1170.2072 124.33423
-84.440552 1170.2072 124.33423
-79.163002 1170.2072 124.33423
-73.885452 1170.2072 124.33423
-68.607895 1170.2072 124.33423
-63.330441 1170.2072 124.33423
-58.052891 1170.2072 124.33423
-52.775333 1170.2072 124.33423
-47.087502 1179.2753 99.937988
-41.855534 1179.2753 99.937988
-36.623669 1179.2753 99.937988
-31.66522 1170.2072 124.33423
-26.624367 1160.7905 149.6687
-21.299473 1160.7905 149.6687
-15.97458 1160.7905 149.6687
-10.649788 1160.7905 149.6687
-5.324894 1160.7905 149.6687
0 1160.7905 149.6687
5.3247924 1160.7905 149.6687
10.649788 1160.7905 149.6687
15.97458 1160.7905 149.6687
21.299576 1160.7905 149.6687
26.624367 1160.7905 149.6687
31.94916 1160.7905 149.6687
37.274155 1160.7905 149.6687
42.598946 1160.7905 149.6687
47.923943 1160.7905 149.6687
53.248734 1160.7905 149.6687
58.573528 1160.7905 149.6687
63.898525 1160.7905 149.6687
69.223312 1160.7905 149.6687
74.548309 1160.7905 149.6687
80.583206 1151.3737 175.00342
85.955338 1151.3737 175.00342
91.327667 1151.3737 175.00342
96.699806 1151.3737 175.00342
103.00491 1141.6082 201.27637
108.42614 1141.6082 201.27637
113.84736 1141.6082 201.27637
119.26879 1141.6082 201.27637
124.69002 1141.6082 201.27637
131.28969 1131.8428 227.54883
136.76001 1131.8428 227.54883
142.23032 1131.8428 227.54883
147.70084 1131.8428 227.54883
153.17117 1131.8428 227.54883
158.64169 1131.8428 227.54883
165.63741 1121.7284 254.76025
171.15857 1121.7284 254.76025
178.30704 1111.6141 281.97144
185.61484 1101.1511 310.12109
193.02808 1090.688 338.27051
198.70528 1090.688 338.27051
204.38248 1090.688 338.27051
210.05991 1090.688 338.27051
215.73711 1090.688 338.27051
221.41454 1090.688 338.27051
227.09174 1090.688 338.27051
232.76895 1090.688 338.27051
238.44638 1090.688 338.27051
244.12358 1090.688 338.27051
249.80101 1090.688 338.27051
255.47821 1090.688 338.27051
263.65567 1079.8762 367.35815
269.38745 1079.8762 367.35815
275.11899 1079.8762 367.35815
280.8508 1079.8762 367.35815
286.58234 1079.8762 367.35815
292.3139 1079.8762 367.35815
298.04568 1079.8762 367.35815
303.77722 1079.8762 367.35815
312.44412 1069.0643 396.44604
318.23001 1069.0643 396.44604
324.0159 1069.0643 396.44604
333.1001 1057.5549 427.41064
338.94382 1057.5549 427.41064
348.09814 1046.3945 457.43652
-271.06534 1136.6179 199.15796
-263.23843 1146.4286 172.9043
-257.86621 1146.4286 172.9043
-252.49408 1146.4286 172.9043
-247.12184 1146.4286 172.9043
-241.7496 1146.4286 172.9043
-236.37737 1146.4286 172.9043
-231.00513 1146.4286 172.9043
-225.63301 1146.4286 172.9043
-220.26077 1146.4286 172.9043
-214.88853 1146.4286 172.9043
-209.5163 1146.4286 172.9043
-204.14407 1146.4286 172.9043
-198.77194 1146.4286 172.9043
-195.16707 1136.6179 199.15796
-189.74574 1136.6179 199.15796
-184.32442 1136.6179 199.15796
-178.90309 1136.6179 199.15796
-173.48186 1136.6179 199.15796
-168.06053 1136.6179 199.15796
-162.63921 1136.6179 199.15796
-157.21788 1136.6179 199.15796
-151.79655 1136.6179 199.15796
-146.37532 1136.6179 199.15796
-140.95399 1136.6179 199.15796
-134.30534 1146.4286 172.9043
-128.93311 1146.4286 172.9043
-123.56087 1146.4286 172.9043
-117.14725 1155.8889 147.58813
-111.82236 1155.8889 147.58813
-105.55067 1165.3492 122.27222
-100.27312 1165.3492 122.27222
-94.99556 1165.3492 122.27222
-89.718109 1165.3492 122.27222
-84.440552 1165.3492 122.27222
-79.163002 1165.3492 122.27222
-73.885452 1165.3492 122.27222
-68.607895 1165.3492 122.27222
-63.330441 1165.3492 122.27222
-58.052891 1165.3492 122.27222
-52.775333 1165.3492 122.27222
-47.087502 1174.4592 97.893799
-41.855534 1174.4592 97.893799
-36.623669 1174.4592 97.893799
-31.66522 1165.3492 122.27222
-26.387667 1165.3492 122.27222
-21.110115 1165.3492 122.27222
-15.97458 1155.8889 147.58813
-10.649788 1155.8889 147.58813
-5.324894 1155.8889 147.58813
0 1155.8889 147.58813
5.3247924 1155.8889 147.58813
10.649788 1155.8889 147.58813
15.97458 1155.8889 147.58813
21.299576 1155.8889 147.58813
26.624367 1155.8889 147.58813
31.94916 1155.8889 147.58813
37.274155 1155.8889 147.58813
42.598946 1155.8889 147.58813
47.923943 1155.8889 147.58813
53.248734 1155.8889 147.58813
58.573528 1155.8889 147.58813
63.898525 1155.8889 147.58813
69.223312 1155.8889 147.58813
74.548309 1155.8889 147.58813
80.583206 1146.4286 172.9043
85.197891 1155.8889 147.58813
90.522888 1155.8889 147.58813
96.699806 1146.4286 172.9043
103.00491 1136.6179 199.15796
108.42614 1136.6179 199.15796
113.84736 1136.6179 199.15796
119.26879 1136.6179 199.15796
124.69002 1136.6179 199.15796
131.28969 1126.8073 225.41138
136.76001 1126.8073 225.41138
142.23032 1126.8073 225.41138
147.70084 1126.8073 225.41138
153.17117 1126.8073 225.41138
158.64169 1126.8073 225.41138
165.63741 1116.646 252.60303
171.15857 1116.646 252.60303
178.30704 1106.485 279.79419
183.87904 1106.485 279.79419
191.23967 1095.9735 307.92334
196.86427 1095.9735 307.92334
204.38248 1085.462 336.052
210.05991 1085.462 336.052
215.73711 1085.462 336.052
221.41454 1085.462 336.052
227.09174 1085.462 336.052
232.76895 1085.462 336.052
240.72922 1074.6002 365.11865
246.46077 1074.6002 365.11865
252.19257 1074.6002 365.11865
257.9241 1074.6002 365.11865
263.65567 1074.6002 365.11865
269.38745 1074.6002 365.11865
275.11899 1074.6002 365.11865
280.8508 1074.6002 365.11865
286.58234 1074.6002 365.11865
292.3139 1074.6002 365.11865
298.04568 1074.6002 365.11865
303.77722 1074.6002 365.11865
312.44412 1063.7383 394.1853
318.23001 1063.7383 394.1853
324.0159 1063.7383 394.1853
329.80203 1063.7383 394.1853
338.94382 1052.1757 425.1272
344.78784 1052.1757 425.1272
-276.48666 1131.6276 197.03979
-271.06534 1131.6276 197.03979
-263.23843 1141.4834 170.80518
-257.86621 1141.4834 170.80518
-252.49408 1141.4834 170.80518
-247.12184 1141.4834 170.80518
-241.7496 1141.4834 170.80518
-236.37737 1141.4834 170.80518
-231.00513 1141.4834 170.80518
-225.63301 1141.4834 170.80518
-220.26077 1141.4834 170.80518
-214.88853 1141.4834 170.80518
-209.5163 1141.4834 170.80518
-204.14407 1141.4834 170.80518
-198.77194 1141.4834 170.80518
-195.16707 1131.6276 197.03979
-189.74574 1131.6276 197.03979
-184.32442 1131.6276 197.03979
-178.90309 1131.6276 197.03979
-173.48186 1131.6276 197.03979
-168.06053 1131.6276 197.03979
-162.63921 1131.6276 197.03979
-157.21788 1131.6276 197.03979
-151.79655 1131.6276 197.03979
-146.37532 1131.6276 197.03979
-140.95399 1131.6276 197.03979
-135.53267 1131.6276 197.03979
-128.93311 1141.4834 170.80518
-123.56087 1141.4834 170.80518
-117.14725 1150.9873 145.50757
-111.82236 1150.9873 145.50757
-105.55067 1160.4912 120.20996
-100.27312 1160.4912 120.20996
-94.99556 1160.4912 120.20996
-89.718109 1160.4912 120.20996
-84.440552 1160.4912 120.20996
-79.163002 1160.4912 120.20996
-73.885452 1160.4912 120.20996
-68.607895 1160.4912 120.20996
-63.330441 1160.4912 120.20996
-58.052891 1160.4912 120.20996
-52.775333 1160.4912 120.20996
-47.087502 1169.6432 95.849365
-41.855534 1169.6432 95.849365
-36.623669 1169.6432 95.849365
-31.949263 1150.9873 145.50757
-26.387667 1160.4912 120.20996
-21.110115 1160.4912 120.20996
-15.97458 1150.9873 145.50757
-10.649788 1150.9873 145.50757
-5.324894 1150.9873 145.50757
0 1150.9873 145.50757
5.3247924 1150.9873 145.50757
10.649788 1150.9873 145.50757
15.97458 1150.9873 145.50757
21.299576 1150.9873 145.50757
26.624367 1150.9873 145.50757
31.94916 1150.9873 145.50757
37.274155 1150.9873 145.50757
42.598946 1150.9873 145.50757
47.923943 1150.9873 145.50757
53.248734 1150.9873 145.50757
58.573528 1150.9873 145.50757
63.898525 1150.9873 145.50757
69.223312 1150.9873 145.50757
74.548309 1150.9873 145.50757
80.583206 1141.4834 170.80518
85.197891 1150.9873 145.50757
90.522888 1150.9873 145.50757
96.699806 1141.4834 170.80518
103.00491 1131.6276 197.03979
108.42614 1131.6276 197.03979
113.84736 1131.6276 197.03979
119.26879 1131.6276 197.03979
124.69002 1131.6276 197.03979
131.28969 1121.7717 223.27393
136.76001 1121.7717 223.27393
142.23032 1121.7717 223.27393
147.70084 1121.7717 223.27393
153.17117 1121.7717 223.27393
158.64169 1121.7717 223.27393
165.63741 1111.5637 250.4458
171.15857 1111.5637 250.4458
178.30704 1101.3558 277.61719
183.87904 1101.3558 277.61719
191.23967 1090.7959 305.72559
196.86427 1090.7959 305.72559
204.38248 1080.2361 333.83374
210.05991 1080.2361 333.83374
217.80254 1069.3242 362.87915
223.53432 1069.3242 362.87915
229.26587 1069.3242 362.87915
234.99742 1069.3242 362.87915
240.72922 1069.3242 362.87915
246.46077 1069.3242 362.87915
252.19257 1069.3242 362.87915
257.9241 1069.3242 362.87915
263.65567 1069.3242 362.87915
269.38745 1069.3242 362.87915
275.11899 1069.3242 362.87915
280.8508 1069.3242 362.87915
286.58234 1069.3242 362.87915
292.3139 1069.3242 362.87915
300.87204 1058.4124 391.92456
306.65799 1058.4124 391.92456
312.44412 1058.4124 391.92456
318.23001 1058.4124 391.92456
324.0159 1058.4124 391.92456
329.80203 1058.4124 391.92456
338.94382 1046.7964 422.84375
344.78784 1046.7964 422.84375
-287.32922 1126.6372 194.92139
-279.35516 1136.5382 168.70605
-273.98291 1136.5382 168.70605
-271.06534 1126.6372 194.92139
-263.23843 1136.5382 168.70605
-257.86621 1136.5382 168.70605
-252.49408 1136.5382 168.70605
-247.12184 1136.5382 168.70605
-241.7496 1136.5382 168.70605
-236.37737 1136.5382 168.70605
-231.00513 1136.5382 168.70605
-225.63301 1136.5382 168.70605
-220.26077 1136.5382 168.70605
-214.88853 1136.5382 168.70605
-209.5163 1136.5382 168.70605
-204.14407 1136.5382 168.70605
-198.77194 1136.5382 168.70605
-193.3997 1136.5382 168.70605
-189.74574 1126.6372 194.92139
-184.32442 1126.6372 194.92139
-178.90309 1126.6372 194.92139
-173.48186 1126.6372 194.92139
-168.06053 1126.6372 194.92139
-162.63921 1126.6372 194.92139
-157.21788 1126.6372 194.92139
-151.79655 1126.6372 194.92139
-146.37532 1126.6372 194.92139
-140.95399 1126.6372 194.92139
-135.53267 1126.6372 194.92139
-130.11134 1126.6372 194.92139
-123.56087 1136.5382 168.70605
-118.18874 1136.5382 168.70605
-111.82236 1146.0858 143.427
-105.55067 1155.6332 118.14795
-100.27312 1155.6332 118.14795
-94.99556 1155.6332 118.14795
-89.718109 1155.6332 118.14795
-84.440552 1155.6332 118.14795
-79.163002 1155.6332 118.14795
-73.885452 1155.6332 118.14795
-68.607895 1155.6332 118.14795
-63.330441 1155.6332 118.14795
-58.052891 1155.6332 118.14795
-52.775333 1155.6332 118.14795
-47.49778 1155.6332 118.14795
-41.855534 1164.8271 93.805176
-36.623669 1164.8271 93.805176
-31.949263 1146.0858 143.427
-26.624367 1146.0858 143.427
-21.299473 1146.0858 143.427
-15.97458 1146.0858 143.427
-10.649788 1146.0858 143.427
-5.324894 1146.0858 143.427
0 1146.0858 143.427
5.3247924 1146.0858 143.427
10.649788 1146.0858 143.427
15.97458 1146.0858 143.427
21.488937 1136.5382 168.70605
26.624367 1146.0858 143.427
31.94916 1146.0858 143.427
37.274155 1146.0858 143.427
42.598946 1146.0858 143.427
47.923943 1146.0858 143.427
53.248734 1146.0858 143.427
58.573528 1146.0858 143.427
63.898525 1146.0858 143.427
69.223312 1146.0858 143.427
74.548309 1146.0858 143.427
80.583206 1136.5382 168.70605
85.197891 1146.0858 143.427
90.522888 1146.0858 143.427
96.699806 1136.5382 168.70605
103.00491 1126.6372 194.92139
108.42614 1126.6372 194.92139
113.84736 1126.6372 194.92139
119.26879 1126.6372 194.92139
124.69002 1126.6372 194.92139
131.28969 1116.7362 221.13647
136.76001 1116.7362 221.13647
142.23032 1116.7362 221.13647
147.70084 1116.7362 221.13647
153.17117 1116.7362 221.13647
158.64169 1116.7362 221.13647
165.63741 1106.4813 248.28833
171.15857 1106.4813 248.28833
178.30704 1096.2267 275.43994
185.61484 1085.6184 303.52783
193.02808 1075.0101 331.61548
198.70528 1075.0101 331.61548
204.38248 1075.0101 331.61548
212.07098 1064.0482 360.63965
217.80254 1064.0482 360.63965
223.53432 1064.0482 360.63965
229.26587 1064.0482 360.63965
234.99742 1064.0482 360.63965
240.72922 1064.0482 360.63965
246.46077 1064.0482 360.63965
252.19257 1064.0482 360.63965
257.9241 1064.0482 360.63965
263.65567 1064.0482 360.63965
269.38745 1064.0482 360.63965
275.11899 1064.0482 360.63965
280.8508 1064.0482 360.63965
289.30002 1053.0863 389.66382
295.08591 1053.0863 389.66382
300.87204 1053.0863 389.66382
306.65799 1053.0863 389.66382
312.44412 1053.0863 389.66382
318.23001 1053.0863 389.66382
324.0159 1053.0863 389.66382
329.80203 1053.0863 389.66382
338.94382 1041.4171 420.56055
344.78784 1041.4171 420.56055
350.63162 1041.4171 420.56055
-287.32922 1121.6469 192.80322
-279.35516 1131.593 166.60693
-273.98291 1131.593 166.60693
-271.06534 1121.6469 192.80322
-263.23843 1131.593 166.60693
-257.86621 1131.593 166.60693
-252.49408 1131.593 166.60693
-247.12184 1131.593 166.60693
-241.7496 1131.593 166.60693
-236.37737 1131.593 166.60693
-231.00513 1131.593 166.60693
-225.63301 1131.593 166.60693
-220.26077 1131.593 166.60693
-214.88853 1131.593 166.60693
-209.5163 1131.593 166.60693
-204.14407 1131.593 166.60693
-198.77194 1131.593 166.60693
-193.3997 1131.593 166.60693
-189.74574 1121.6469 192.80322
-184.32442 1121.6469 192.80322
-178.90309 1121.6469 192.80322
-173.48186 1121.6469 192.80322
-168.06053 1121.6469 192.80322
-162.63921 1121.6469 192.80322
-157.21788 1121.6469 192.80322
-151.79655 1121.6469 192.80322
-146.37532 1121.6469 192.80322
-140.95399 1121.6469 192.80322
-135.53267 1121.6469 192.80322
-130.11134 1121.6469 192.80322
-123.56087 1131.593 166.60693
-118.18874 1131.593 166.60693
-111.82236 1141.1842 141.34619
-106.49747 1141.1842 141.34619
-101.17258 1141.1842 141.34619
-94.99556 1150.7751 116.08594
-89.718109 1150.7751 116.08594
-84.440552 1150.7751 116.08594
-79.163002 1150.7751 116.08594
-73.885452 1150.7751 116.08594
-68.607895 1150.7751 116.08594
-62.783401 1160.011 91.760986
-57.551434 1160.011 91.760986
-52.775333 1150.7751 116.08594
-47.49778 1150.7751 116.08594
-42.22023 1150.7751 116.08594
-36.942772 1150.7751 116.08594
-31.949263 1141.1842 141.34619
-26.624367 1141.1842 141.34619
-21.299473 1141.1842 141.34619
-15.97458 1141.1842 141.34619
-10.649788 1141.1842 141.34619
-5.324894 1141.1842 141.34619
0 1141.1842 141.34619
5.3247924 1141.1842 141.34619
10.649788 1141.1842 141.34619
15.97458 1141.1842 141.34619
21.488937 1131.593 166.60693
26.624367 1141.1842 141.34619
31.94916 1141.1842 141.34619
37.274155 1141.1842 141.34619
42.598946 1141.1842 141.34619
47.923943 1141.1842 141.34619
53.248734 1141.1842 141.34619
58.573528 1141.1842 141.34619
63.898525 1141.1842 141.34619
69.223312 1141.1842 141.34619
74.548309 1141.1842 141.34619
80.583206 1131.593 166.60693
85.955338 1131.593 166.60693
91.327667 1131.593 166.60693
96.699806 1131.593 166.60693
103.00491 1121.6469 192.80322
108.42614 1121.6469 192.80322
113.84736 1121.6469 192.80322
119.26879 1121.6469 192.80322
124.69002 1121.6469 192.80322
131.28969 1111.7006 218.99902
136.76001 1111.7006 218.99902
142.23032 1111.7006 218.99902
147.70084 1111.7006 218.99902
153.17117 1111.7006 218.99902
158.64169 1111.7006 218.99902
165.63741 1101.3989 246.1311
171.15857 1101.3989 246.1311
178.30704 1091.0975 273.2627
185.61484 1080.4408 301.33008
193.02808 1069.7841 329.39722
198.70528 1069.7841 329.39722
204.38248 1069.7841 329.39722
212.07098 1058.7721 358.40015
217.80254 1058.7721 358.40015
223.53432 1058.7721 358.40015
229.26587 1058.7721 358.40015
234.99742 1058.7721 358.40015
240.72922 1058.7721 358.40015
246.46077 1058.7721 358.40015
252.19257 1058.7721 358.40015
257.9241 1058.7721 358.40015
263.65567 1058.7721 358.40015
269.38745 1058.7721 358.40015
275.11899 1058.7721 358.40015
280.8508 1058.7721 358.40015
289.30002 1047.7601 387.40283
295.08591 1047.7601 387.40283
300.87204 1047.7601 387.40283
306.65799 1047.7601 387.40283
312.44412 1047.7601 387.40283
318.23001 1047.7601 387.40283
327.25607 1036.0377 418.2771
333.1001 1036.0377 418.2771
338.94382 1036.0377 418.2771
341.37411 1047.7601 387.40283
343.8988 1058.7721 358.40015
349.63037 1058.7721 358.40015
-287.32922 1116.6565 190.68481
-281.90799 1116.6565 190.68481
-276.48666 1116.6565 190.68481
-271.06534 1116.6565 190.68481
-263.23843 1126.6479 164.50781
-257.86621 1126.6479 164.50781
-252.49408 1126.6479 164.50781
-247.12184 1126.6479 164.50781
-241.7496 1126.6479 164.50781
-236.37737 1126.6479 164.50781
-231.00513 1126.6479 164.50781
-225.63301 1126.6479 164.50781
-220.26077 1126.6479 164.50781
-214.88853 1126.6479 164.50781
-209.5163 1126.6479 164.50781
-204.14407 1126.6479 164.50781
-198.77194 1126.6479 164.50781
-195.16707 1116.6565 190.68481
-189.74574 1116.6565 190.68481
-184.32442 1116.6565 190.68481
-178.90309 1116.6565 190.68481
-173.48186 1116.6565 190.68481
-168.06053 1116.6565 190.68481
-162.63921 1116.6565 190.68481
-158.64159 1106.665 216.86157
-153.17117 1106.665 216.86157
-146.37532 1116.6565 190.68481
-140.95399 1116.6565 190.68481
-135.53267 1116.6565 190.68481
-130.11134 1116.6565 190.68481
-124.69002 1116.6565 190.68481
-118.18874 1126.6479 164.50781
-112.81651 1126.6479 164.50781
-106.49747 1136.2826 139.26562
-101.17258 1136.2826 139.26562
-95.847679 1136.2826 139.26562
-89.718109 1145.9171 114.02368
-84.440552 1145.9171 114.02368
-79.163002 1145.9171 114.02368
-73.885452 1145.9171 114.02368
-68.607895 1145.9171 114.02368
-62.783401 1155.1949 89.716553
-57.551434 1155.1949 89.716553
-52.775333 1145.9171 114.02368
-47.49778 1145.9171 114.02368
-42.22023 1145.9171 114.02368
-36.942772 1145.9171 114.02368
-31.949263 1136.2826 139.26562
-26.624367 1136.2826 139.26562
-21.299473 1136.2826 139.26562
-15.97458 1136.2826 139.26562
-10.649788 1136.2826 139.26562
-5.324894 1136.2826 139.26562
0 1136.2826 139.26562
5.3247924 1136.2826 139.26562
10.649788 1136.2826 139.26562
15.97458 1136.2826 139.26562
21.488937 1126.6479 164.50781
26.861067 1126.6479 164.50781
32.233196 1126.6479 164.50781
37.605534 1126.6479 164.50781
42.977669 1126.6479 164.50781
48.350006 1126.6479 164.50781
53.722134 1126.6479 164.50781
58.573528 1136.2826 139.26562
63.898525 1136.2826 139.26562
69.223312 1136.2826 139.26562
75.211067 1126.6479 164.50781
80.583206 1126.6479 164.50781
85.955338 1126.6479 164.50781
91.327667 1126.6479 164.50781
96.699806 1126.6479 164.50781
103.00491 1116.6565 190.68481
108.42614 1116.6565 190.68481
113.84736 1116.6565 190.68481
119.26879 1116.6565 190.68481
124.69002 1116.6565 190.68481
131.28969 1106.665 216.86157
136.76001 1106.665 216.86157
142.23032 1106.665 216.86157
147.70084 1106.665 216.86157
154.59486 1096.3167 243.97363
160.11624 1096.3167 243.97363
165.63741 1096.3167 243.97363
171.15857 1096.3167 243.97363
178.30704 1085.9684 271.08545
185.61484 1075.2632 299.13232
193.02808 1064.5581 327.17896
198.70528 1064.5581 327.17896
204.38248 1064.5581 327.17896
212.07098 1053.4961 356.16064
217.80254 1053.4961 356.16064
223.53432 1053.4961 356.16064
229.26587 1053.4961 356.16064
234.99742 1053.4961 356.16064
240.72922 1053.4961 356.16064
246.46077 1053.4961 356.16064
252.19257 1053.4961 356.16064
257.9241 1053.4961 356.16064
263.65567 1053.4961 356.16064
269.38745 1053.4961 356.16064
275.11899 1053.4961 356.16064
280.8508 1053.4961 356.16064
289.30002 1042.4341 385.14209
295.08591 1042.4341 385.14209
300.87204 1042.4341 385.14209
306.65799 1042.4341 385.14209
312.44412 1042.4341 385.14209
318.23001 1042.4341 385.14209
324.0159 1042.4341 385.14209
329.80203 1042.4341 385.14209
338.94382 1030.6584 415.99365
341.37411 1042.4341 385.14209
343.8988 1053.4961 356.16064
349.63037 1053.4961 356.16064
355.36215 1053.4961 356.16064
-292.75055 1111.6661 188.56665
-287.32922 1111.6661 188.56665
-281.90799 1111.6661 188.56665
-276.48666 1111.6661 188.56665
-271.06534 1111.6661 188.56665
-265.64401 1111.6661 188.56665
-260.22269 1111.6661 188.56665
-252.49408 1121.7028 162.40869
-247.12184 1121.7028 162.40869
-241.7496 1121.7028 162.40869
-236.37737 1121.7028 162.40869
-231.00513 1121.7028 162.40869
-225.63301 1121.7028 162.40869
-220.26077 1121.7028 162.40869
-214.88853 1121.7028 162.40869
-209.5163 1121.7028 162.40869
-206.00961 1111.6661 188.56665
-200.58839 1111.6661 188.56665
-195.16707 1111.6661 188.56665
-189.74574 1111.6661 188.56665
-184.32442 1111.6661 188.56665
-178.90309 1111.6661 188.56665
-173.48186 1111.6661 188.56665
-168.06053 1111.6661 188.56665
-162.63921 1111.6661 188.56665
-158.64159 1101.6295 214.72412
-153.17117 1101.6295 214.72412
-147.70084 1101.6295 214.72412
-142.23042 1101.6295 214.72412
-135.53267 1111.6661 188.56665
-130.11134 1111.6661 188.56665
-124.69002 1111.6661 188.56665
-118.18874 1121.7028 162.40869
-112.81651 1121.7028 162.40869
-106.49747 1131.381 137.18506
-101.17258 1131.381 137.18506
-95.847679 1131.381 137.18506
-89.718109 1141.0592 111.96167
-84.440552 1141.0592 111.96167
-79.163002 1141.0592 111.96167
-73.885452 1141.0592 111.96167
-68.607895 1141.0592 111.96167
-63.330441 1141.0592 111.96167
-58.052891 1141.0592 111.96167
-52.775333 1141.0592 111.96167
-47.49778 1141.0592 111.96167
-42.22023 1141.0592 111.96167
-36.942772 1141.0592 111.96167
-31.949263 1131.381 137.18506
-26.624367 1131.381 137.18506
-21.299473 1131.381 137.18506
-15.97458 1131.381 137.18506
-10.649788 1131.381 137.18506
-5.324894 1131.381 137.18506
0 1131.381 137.18506
5.3247924 1131.381 137.18506
10.649788 1131.381 137.18506
15.97458 1131.381 137.18506
21.299576 1131.381 137.18506
26.861067 1121.7028 162.40869
32.233196 1121.7028 162.40869
37.605534 1121.7028 162.40869
42.977669 1121.7028 162.40869
48.350006 1121.7028 162.40869
53.722134 1121.7028 162.40869
59.094265 1121.7028 162.40869
63.898525 1131.381 137.18506
69.223312 1131.381 137.18506
75.211067 1121.7028 162.40869
80.583206 1121.7028 162.40869
85.955338 1121.7028 162.40869
91.327667 1121.7028 162.40869
96.699806 1121.7028 162.40869
103.00491 1111.6661 188.56665
108.42614 1111.6661 188.56665
113.84736 1111.6661 188.56665
119.26879 1111.6661 188.56665
124.69002 1111.6661 188.56665
131.28969 1101.6295 214.72412
136.76001 1101.6295 214.72412
142.23032 1101.6295 214.72412
149.07372 1091.2343 241.81641
154.59486 1091.2343 241.81641
160.11624 1091.2343 241.81641
167.16281 1080.8392 268.9082
172.73482 1080.8392 268.9082
179.99023 1070.0857 296.93457
185.61484 1070.0857 296.93457
193.02808 1059.3322 324.96069
198.70528 1059.3322 324.96069
206.33919 1048.2201 353.9209
212.07098 1048.2201 353.9209
219.86795 1037.108 382.88135
225.6541 1037.108 382.88135
229.26587 1048.2201 353.9209
234.99742 1048.2201 353.9209
240.72922 1048.2201 353.9209
246.46077 1048.2201 353.9209
252.19257 1048.2201 353.9209
257.9241 1048.2201 353.9209
263.65567 1048.2201 353.9209
269.38745 1048.2201 353.9209
275.11899 1048.2201 353.9209
280.8508 1048.2201 353.9209
289.30002 1037.108 382.88135
295.08591 1037.108 382.88135
303.8808 1025.2792 413.71021
306.65799 1037.108 382.88135
312.44412 1037.108 382.88135
318.23001 1037.108 382.88135
324.0159 1037.108 382.88135
329.80203 1037.108 382.88135
338.94382 1025.2792 413.71021
341.37411 1037.108 382.88135
347.16 1037.108 382.88135
349.63037 1048.2201 353.9209
355.36215 1048.2201 353.9209
-292.75055 1106.6758 186.44824
-287.32922 1106.6758 186.44824
-281.90799 1106.6758 186.44824
-276.48666 1106.6758 186.44824
-271.06534 1106.6758 186.44824
-265.64401 1106.6758 186.44824
-260.22269 1106.6758 186.44824
-254.80147 1106.6758 186.44824
-247.12184 1116.7576 160.30981
-241.7496 1116.7576 160.30981
-236.37737 1116.7576 160.30981
-231.00513 1116.7576 160.30981
-225.63301 1116.7576 160.30981
-220.26077 1116.7576 160.30981
-214.88853 1116.7576 160.30981
-209.5163 1116.7576 160.30981
-206.00961 1106.6758 186.44824
-200.58839 1106.6758 186.44824
-195.16707 1106.6758 186.44824
-189.74574 1106.6758 186.44824
-184.32442 1106.6758 186.44824
-178.90309 1106.6758 186.44824
-173.48186 1106.6758 186.44824
-168.06053 1106.6758 186.44824
-162.63921 1106.6758 186.44824
-157.21788 1106.6758 186.44824
-153.17117 1096.594 212.58667
-147.70084 1096.594 212.58667
-142.23042 1096.594 212.58667
-136.76001 1096.594 212.58667
-131.28958 1096.594 212.58667
-124.69002 1106.6758 186.44824
-119.26879 1106.6758 186.44824
-112.81651 1116.7576 160.30981
-107.44427 1116.7576 160.30981
-101.17258 1126.4795 135.10449
-95.847679 1126.4795 135.10449
-89.718109 1136.2012 109.89966
-84.440552 1136.2012 109.89966
-79.163002 1136.2012 109.89966
-73.885452 1136.2012 109.89966
-68.607895 1136.2012 109.89966
-63.330441 1136.2012 109.89966
-58.052891 1136.2012 109.89966
-52.775333 1136.2012 109.89966
-47.49778 1136.2012 109.89966
-42.22023 1136.2012 109.89966
-36.942772 1136.2012 109.89966
-31.949263 1126.4795 135.10449
-26.624367 1126.4795 135.10449
-21.299473 1126.4795 135.10449
-15.97458 1126.4795 135.10449
-10.649788 1126.4795 135.10449
-5.324894 1126.4795 135.10449
0 1126.4795 135.10449
5.3247924 1126.4795 135.10449
10.649788 1126.4795 135.10449
15.97458 1126.4795 135.10449
21.299576 1126.4795 135.10449
26.861067 1116.7576 160.30981
32.233196 1116.7576 160.30981
37.605534 1116.7576 160.30981
42.977669 1116.7576 160.30981
48.350006 1116.7576 160.30981
53.722134 1116.7576 160.30981
59.094265 1116.7576 160.30981
64.466599 1116.7576 160.30981
69.838737 1116.7576 160.30981
75.211067 1116.7576 160.30981
80.583206 1116.7576 160.30981
85.955338 1116.7576 160.30981
91.327667 1116.7576 160.30981
96.699806 1116.7576 160.30981
103.00491 1106.6758 186.44824
108.42614 1106.6758 186.44824
113.84736 1106.6758 186.44824
119.26879 1106.6758 186.44824
125.81916 1096.594 212.58667
131.28969 1096.594 212.58667
136.76001 1096.594 212.58667
142.23032 1096.594 212.58667
149.07372 1086.152 239.65894
154.59486 1086.152 239.65894
160.11624 1086.152 239.65894
167.16281 1075.7101 266.7312
172.73482 1075.7101 266.7312
179.99023 1064.9081 294.73682
187.35065 1054.1062 322.74243
193.02808 1054.1062 322.74243
200.60764 1042.9441 351.6814
206.33919 1042.9441 351.6814
212.07098 1042.9441 351.6814
219.86795 1031.782 380.62061
223.53432 1042.9441 351.6814
229.26587 1042.9441 351.6814
234.99742 1042.9441 351.6814
240.72922 1042.9441 351.6814
246.46077 1042.9441 351.6814
252.19257 1042.9441 351.6814
257.9241 1042.9441 351.6814
263.65567 1042.9441 351.6814
269.38745 1042.9441 351.6814
277.72797 1031.782 380.62061
283.5141 1031.782 380.62061
289.30002 1031.782 380.62061
298.03677 1019.8998 411.427
303.8808 1019.8998 411.427
309.72452 1019.8998 411.427
312.44412 1031.782 380.62061
318.23001 1031.782 380.62061
