ply
format ascii 1.0
comment PCL generated
element vertex 1584
property float x
property float y
property float z
element camera 0
property float view_px
property float view_py
property float view_pz
property float x_axisx
property float x_axisy
property float x_axisz
property float y_axisx
property float y_axisy
property float y_axisz
property float z_axisx
property float z_axisy
property float z_axisz
property float focal
property float scalex
property float scaley
property float centerx
property float centery
property int viewportx
property int viewporty
property float k1
property float k2
end_header
119.22308 416.53711 52.110352
124.90051 416.53711 52.110352
130.57771 416.53711 52.110352
136.25513 416.53711 52.110352
141.93234 416.53711 52.110352
147.60954 416.53711 52.110352
154.75452 399.271 78.458496
160.48607 399.271 78.458496
166.21785 399.271 78.458496
171.9494 399.271 78.458496
177.68095 399.271 78.458496
183.41275 399.271 78.458496
189.1443 399.271 78.458496
194.87608 399.271 78.458496
200.60764 399.271 78.458496
206.33919 399.271 78.458496
212.07098 399.271 78.458496
217.80254 399.271 78.458496
221.41454 416.53711 52.110352
227.09174 416.53711 52.110352
232.76895 416.53711 52.110352
238.44638 416.53711 52.110352
-96.307121 302.38757 215.49707
-90.287903 302.38757 215.49707
-84.268684 302.38757 215.49707
-79.047241 282.83728 245.22095
-72.966766 282.83728 245.22095
-66.886185 282.83728 245.22095
-60.805603 282.83728 245.22095
-54.172718 302.38757 215.49707
-48.153503 302.38757 215.49707
-42.134399 302.38757 215.49707
-36.115185 302.38757 215.49707
-30.095968 302.38757 215.49707
-24.076752 302.38757 215.49707
-17.878695 321.37939 186.62256
-11.919207 321.37939 186.62256
-5.9596033 321.37939 186.62256
0 302.38757 215.49707
6.0191016 302.38757 215.49707
12.038433 302.38757 215.49707
18.057533 302.38757 215.49707
24.076866 302.38757 215.49707
30.095968 302.38757 215.49707
36.115067 302.38757 215.49707
42.563965 282.83728 245.22095
85.159401 411.31116 49.89209
90.836609 411.31116 49.89209
96.514038 411.31116 49.89209
102.19124 411.31116 49.89209
107.86867 411.31116 49.89209
113.54587 411.31116 49.89209
119.22308 411.31116 49.89209
124.90051 411.31116 49.89209
130.57771 411.31116 49.89209
136.25513 411.31116 49.89209
141.93234 411.31116 49.89209
147.60954 411.31116 49.89209
154.75452 393.99512 76.218994
160.48607 393.99512 76.218994
166.21785 393.99512 76.218994
171.9494 393.99512 76.218994
177.68095 393.99512 76.218994
183.41275 393.99512 76.218994
189.1443 393.99512 76.218994
194.87608 393.99512 76.218994
200.60764 393.99512 76.218994
206.33919 393.99512 76.218994
212.07098 393.99512 76.218994
217.80254 393.99512 76.218994
221.41454 411.31116 49.89209
227.09174 411.31116 49.89209
232.76895 411.31116 49.89209
238.44638 411.31116 49.89209
-96.307121 296.8468 213.14526
-90.287903 296.8468 213.14526
-85.127823 277.23999 242.84497
-79.047241 277.23999 242.84497
-72.966766 277.23999 242.84497
-66.886185 277.23999 242.84497
-60.191936 296.8468 213.14526
-54.172718 296.8468 213.14526
-48.153503 296.8468 213.14526
-42.134399 296.8468 213.14526
-36.115185 296.8468 213.14526
-30.095968 296.8468 213.14526
-24.076752 296.8468 213.14526
-17.878695 315.89355 184.29395
-11.919207 315.89355 184.29395
-5.9596033 315.89355 184.29395
0 296.8468 213.14526
6.0191016 296.8468 213.14526
12.038433 296.8468 213.14526
18.057533 296.8468 213.14526
24.322334 277.23999 242.84497
30.402802 277.23999 242.84497
36.483269 277.23999 242.84497
42.563965 277.23999 242.84497
90.836609 406.08521 47.673828
96.514038 406.08521 47.673828
102.19124 406.08521 47.673828
107.86867 406.08521 47.673828
113.54587 406.08521 47.673828
119.22308 406.08521 47.673828
124.90051 406.08521 47.673828
130.57771 406.08521 47.673828
136.25513 406.08521 47.673828
141.93234 406.08521 47.673828
149.02272 388.71899 73.979492
154.75452 388.71899 73.979492
162.00795 371.35291 100.28516
166.21785 388.71899 73.979492
171.9494 388.71899 73.979492
175.99602 406.08521 47.673828
181.67343 406.08521 47.673828
187.35065 406.08521 47.673828
193.02808 406.08521 47.673828
198.70528 406.08521 47.673828
204.38248 406.08521 47.673828
212.07098 388.71899 73.979492
217.80254 388.71899 73.979492
223.53432 388.71899 73.979492
229.26587 388.71899 73.979492
234.99742 388.71899 73.979492
240.72922 388.71899 73.979492
-97.288986 271.64282 240.46924
-91.208405 271.64282 240.46924
-85.127823 271.64282 240.46924
-79.047241 271.64282 240.46924
-72.23037 291.30615 210.79321
-66.211151 291.30615 210.79321
-60.191936 291.30615 210.79321
-54.172718 291.30615 210.79321
-48.153503 291.30615 210.79321
-42.134399 291.30615 210.79321
-36.115185 291.30615 210.79321
-30.095968 291.30615 210.79321
-24.076752 291.30615 210.79321
-17.878695 310.40771 181.96533
-11.919207 310.40771 181.96533
-5.9596033 310.40771 181.96533
0 291.30615 210.79321
6.0191016 291.30615 210.79321
12.038433 291.30615 210.79321
18.241634 271.64282 240.46924
24.322334 271.64282 240.46924
30.402802 271.64282 240.46924
36.483269 271.64282 240.46924
101.24444 417.71338 20.019043
106.86926 417.71338 20.019043
113.54587 400.85913 45.455322
119.22308 400.85913 45.455322
124.90051 400.85913 45.455322
130.57771 400.85913 45.455322
137.55962 383.44287 71.739746
143.29117 383.44287 71.739746
149.02272 383.44287 71.739746
154.75452 383.44287 71.739746
162.00795 366.02686 98.024414
166.21785 383.44287 71.739746
171.9494 383.44287 71.739746
175.99602 400.85913 45.455322
181.67343 400.85913 45.455322
187.35065 400.85913 45.455322
193.02808 400.85913 45.455322
198.70528 400.85913 45.455322
204.38248 400.85913 45.455322
210.05991 400.85913 45.455322
215.73711 400.85913 45.455322
221.41454 400.85913 45.455322
229.26587 383.44287 71.739746
234.99742 383.44287 71.739746
240.72922 383.44287 71.739746
-91.208405 266.04565 238.09326
-85.127823 266.04565 238.09326
-79.047241 266.04565 238.09326
-72.23037 285.7655 208.44141
-66.211151 285.7655 208.44141
-60.191936 285.7655 208.44141
-54.172718 285.7655 208.44141
-48.153503 285.7655 208.44141
-42.134399 285.7655 208.44141
-36.115185 285.7655 208.44141
-30.095968 285.7655 208.44141
-24.076752 285.7655 208.44141
-18.057533 285.7655 208.44141
-12.038433 285.7655 208.44141
-6.0192165 285.7655 208.44141
0 285.7655 208.44141
6.0804672 266.04565 238.09326
12.161167 266.04565 238.09326
18.241634 266.04565 238.09326
24.322334 266.04565 238.09326
30.402802 266.04565 238.09326
36.851467 246.32593 267.74561
101.24444 412.53589 17.821289
106.86926 412.53589 17.821289
113.54587 395.6333 43.237061
119.22308 395.6333 43.237061
124.90051 395.6333 43.237061
130.57771 395.6333 43.237061
137.55962 378.16699 69.500488
143.29117 378.16699 69.500488
149.02272 378.16699 69.500488
154.75452 378.16699 69.500488
162.00795 360.70093 95.763672
166.21785 378.16699 69.500488
171.9494 378.16699 69.500488
177.68095 378.16699 69.500488
183.41275 378.16699 69.500488
187.35065 395.6333 43.237061
193.02808 395.6333 43.237061
198.70528 395.6333 43.237061
204.38248 395.6333 43.237061
210.05991 395.6333 43.237061
215.73711 395.6333 43.237061
221.41454 395.6333 43.237061
229.26587 378.16699 69.500488
234.99742 378.16699 69.500488
240.72922 378.16699 69.500488
248.79796 360.70093 95.763672
-91.208405 260.44836 235.71753
-85.127823 260.44836 235.71753
-79.047241 260.44836 235.71753
-72.23037 280.22461 206.0896
-66.211151 280.22461 206.0896
-60.191936 280.22461 206.0896
-54.172718 280.22461 206.0896
-48.153503 280.22461 206.0896
-42.134399 280.22461 206.0896
-36.115185 280.22461 206.0896
-30.095968 280.22461 206.0896
-24.076752 280.22461 206.0896
-18.057533 280.22461 206.0896
-12.038433 280.22461 206.0896
-6.0192165 280.22461 206.0896
0 280.22461 206.0896
6.0804672 260.44836 235.71753
12.161167 260.44836 235.71753
18.241634 260.44836 235.71753
24.322334 260.44836 235.71753
30.709635 240.67212 265.3457
36.851467 240.67212 265.3457
107.86867 390.40723 41.018799
113.54587 390.40723 41.018799
119.22308 390.40723 41.018799
124.90051 390.40723 41.018799
130.57771 390.40723 41.018799
137.55962 372.89099 67.260742
143.29117 372.89099 67.260742
149.02272 372.89099 67.260742
154.75452 372.89099 67.260742
160.48607 372.89099 67.260742
164.6416 390.40723 41.018799
170.3188 390.40723 41.018799
177.68095 372.89099 67.260742
183.41275 372.89099 67.260742
187.35065 390.40723 41.018799
193.02808 390.40723 41.018799
198.70528 390.40723 41.018799
204.38248 390.40723 41.018799
210.05991 390.40723 41.018799
215.73711 390.40723 41.018799
221.41454 390.40723 41.018799
229.26587 372.89099 67.260742
234.99742 372.89099 67.260742
240.72922 372.89099 67.260742
248.79796 355.37476 93.502686
254.58409 355.37476 93.502686
-85.127823 254.85132 233.34155
-79.047241 254.85132 233.34155
-72.23037 274.68408 203.73779
-66.211151 274.68408 203.73779
-60.191936 274.68408 203.73779
-53.636196 293.95032 174.97949
-47.676598 293.95032 174.97949
-41.717106 293.95032 174.97949
-35.757504 293.95032 174.97949
-29.797901 293.95032 174.97949
-23.838299 293.95032 174.97949
-17.878695 293.95032 174.97949
-12.038433 274.68408 203.73779
-6.0192165 274.68408 203.73779
0 254.85132 233.34155
6.0804672 254.85132 233.34155
12.161167 254.85132 233.34155
18.241634 254.85132 233.34155
24.567801 235.01855 262.9458
30.709635 235.01855 262.9458
107.86867 385.18115 38.800537
113.54587 385.18115 38.800537
119.22308 385.18115 38.800537
124.90051 385.18115 38.800537
131.82784 367.61499 65.02124
137.55962 367.61499 65.02124
143.29117 367.61499 65.02124
149.02272 367.61499 65.02124
154.75452 367.61499 65.02124
160.48607 367.61499 65.02124
164.6416 385.18115 38.800537
170.3188 385.18115 38.800537
175.99602 385.18115 38.800537
181.67343 385.18115 38.800537
187.35065 385.18115 38.800537
193.02808 385.18115 38.800537
200.60764 367.61499 65.02124
206.33919 367.61499 65.02124
212.07098 367.61499 65.02124
217.80254 367.61499 65.02124
223.53432 367.61499 65.02124
229.26587 367.61499 65.02124
239.59818 331.34924 119.15454
245.44217 331.34924 119.15454
251.28595 331.34924 119.15454
257.12994 331.34924 119.15454
-85.127823 249.25415 230.96582
-79.047241 249.25415 230.96582
-72.23037 269.14331 201.38574
-66.211151 269.14331 201.38574
-60.191936 269.14331 201.38574
-53.636196 288.46436 172.65088
-47.676598 288.46436 172.65088
-41.717106 288.46436 172.65088
-35.757504 288.46436 172.65088
-29.797901 288.46436 172.65088
-23.838299 288.46436 172.65088
-17.878695 288.46436 172.65088
-12.038433 269.14331 201.38574
-6.0192165 269.14331 201.38574
0 249.25415 230.96582
6.0804672 249.25415 230.96582
12.161167 249.25415 230.96582
18.241634 249.25415 230.96582
24.567801 229.36487 260.5459
30.709635 229.36487 260.5459
37.230186 208.90723 290.97119
119.22308 379.9552 36.582275
124.90051 379.9552 36.582275
131.82784 362.33899 62.781738
137.55962 362.33899 62.781738
143.29117 362.33899 62.781738
149.02272 362.33899 62.781738
154.75452 362.33899 62.781738
160.48607 362.33899 62.781738
164.6416 379.9552 36.582275
170.3188 379.9552 36.582275
175.99602 379.9552 36.582275
181.67343 379.9552 36.582275
187.35065 379.9552 36.582275
193.02808 379.9552 36.582275
200.60764 362.33899 62.781738
206.33919 362.33899 62.781738
212.07098 362.33899 62.781738
217.80254 362.33899 62.781738
223.53432 362.33899 62.781738
229.26587 362.33899 62.781738
239.59818 325.96997 116.87109
245.44217 325.96997 116.87109
251.28595 325.96997 116.87109
257.12994 325.96997 116.87109
-92.128906 223.71118 258.146
-85.127823 243.65698 228.58984
-79.047241 243.65698 228.58984
-72.23037 263.60266 199.03394
-66.211151 263.60266 199.03394
-60.191936 263.60266 199.03394
-53.636196 282.97864 170.32227
-47.676598 282.97864 170.32227
-41.717106 282.97864 170.32227
-35.757504 282.97864 170.32227
-29.797901 282.97864 170.32227
-23.838299 282.97864 170.32227
-17.878695 282.97864 170.32227
-12.038433 263.60266 199.03394
-6.0192165 263.60266 199.03394
0 243.65698 228.58984
6.0804672 243.65698 228.58984
12.161167 243.65698 228.58984
18.241634 243.65698 228.58984
24.567801 223.71118 258.146
30.709635 223.71118 258.146
119.22308 374.72925 34.364014
124.90051 374.72925 34.364014
131.82784 357.06299 60.542236
137.55962 357.06299 60.542236
143.29117 357.06299 60.542236
149.02272 357.06299 60.542236
154.75452 357.06299 60.542236
160.48607 357.06299 60.542236
166.21785 357.06299 60.542236
170.3188 374.72925 34.364014
175.99602 374.72925 34.364014
181.67343 374.72925 34.364014
187.35065 374.72925 34.364014
193.02808 374.72925 34.364014
200.60764 357.06299 60.542236
206.33919 357.06299 60.542236
212.07098 357.06299 60.542236
217.80254 357.06299 60.542236
223.53432 357.06299 60.542236
231.44 339.39673 86.720459
239.59818 320.59058 114.58789
245.44217 320.59058 114.58789
251.28595 320.59058 114.58789
257.12994 320.59058 114.58789
-90.287903 258.06189 196.68188
-84.268684 258.06189 196.68188
-79.845009 218.0575 255.74634
-72.966766 238.05969 226.21387
-66.211151 258.06189 196.68188
-60.191936 258.06189 196.68188
-53.636196 277.4928 167.99365
-47.676598 277.4928 167.99365
-41.717106 277.4928 167.99365
-35.757504 277.4928 167.99365
-29.797901 277.4928 167.99365
-23.838299 277.4928 167.99365
-17.878695 277.4928 167.99365
-12.038433 258.06189 196.68188
-6.0192165 258.06189 196.68188
0 238.05969 226.21387
6.0804672 238.05969 226.21387
12.2839 218.0575 255.74634
18.425734 218.0575 255.74634
24.567801 218.0575 255.74634
31.025234 197.48364 286.12207
126.09628 351.78687 58.302734
131.82784 351.78687 58.302734
137.55962 351.78687 58.302734
144.65001 334.07056 84.459717
149.02272 351.78687 58.302734
154.75452 351.78687 58.302734
160.48607 351.78687 58.302734
166.21785 351.78687 58.302734
171.9494 351.78687 58.302734
177.68095 351.78687 58.302734
183.41275 351.78687 58.302734
189.1443 351.78687 58.302734
194.87608 351.78687 58.302734
200.60764 351.78687 58.302734
206.33919 351.78687 58.302734
212.07098 351.78687 58.302734
217.80254 351.78687 58.302734
223.53432 351.78687 58.302734
231.44 334.07056 84.459717
237.22592 334.07056 84.459717
243.01205 334.07056 84.459717
251.28595 315.2113 112.30444
257.12994 315.2113 112.30444
-90.287903 252.52124 194.33008
-84.268684 252.52124 194.33008
-79.047241 232.46265 223.83813
-72.966766 232.46265 223.83813
-66.211151 252.52124 194.33008
-60.191936 252.52124 194.33008
-54.172718 252.52124 194.33008
-48.153503 252.52124 194.33008
-42.134399 252.52124 194.33008
-35.757504 272.00708 165.66504
-29.797901 272.00708 165.66504
-23.838299 272.00708 165.66504
-17.878695 272.00708 165.66504
-12.038433 252.52124 194.33008
-6.0192165 252.52124 194.33008
0 232.46265 223.83813
6.0804672 232.46265 223.83813
12.2839 212.40381 253.34644
18.425734 212.40381 253.34644
24.820282 191.77197 283.69775
31.025234 191.77197 283.69775
126.09628 346.51099 56.063232
131.82784 346.51099 56.063232
137.55962 346.51099 56.063232
144.65001 328.74463 82.198975
149.02272 346.51099 56.063232
154.75452 346.51099 56.063232
160.48607 346.51099 56.063232
166.21785 346.51099 56.063232
171.9494 346.51099 56.063232
177.68095 346.51099 56.063232
183.41275 346.51099 56.063232
189.1443 346.51099 56.063232
194.87608 346.51099 56.063232
202.51001 328.74463 82.198975
208.29593 328.74463 82.198975
214.08206 328.74463 82.198975
219.86795 328.74463 82.198975
225.6541 328.74463 82.198975
231.44 328.74463 82.198975
237.22592 328.74463 82.198975
243.01205 328.74463 82.198975
251.28595 309.83203 110.021
257.12994 309.83203 110.021
-91.208405 226.86536 221.4624
-85.127823 226.86536 221.4624
-79.047241 226.86536 221.4624
-72.966766 226.86536 221.4624
-66.211151 246.98047 191.97827
-60.191936 246.98047 191.97827
-54.172718 246.98047 191.97827
-48.644436 226.86536 221.4624
-42.563965 226.86536 221.4624
-36.115185 246.98047 191.97827
-30.095968 246.98047 191.97827
-24.076752 246.98047 191.97827
-18.057533 246.98047 191.97827
-12.038433 246.98047 191.97827
-6.0192165 246.98047 191.97827
0 226.86536 221.4624
6.0804672 226.86536 221.4624
12.2839 206.75012 250.94653
18.425734 206.75012 250.94653
24.820282 186.06006 281.27319
131.82784 341.23499 53.82373
137.55962 341.23499 53.82373
144.65001 323.41846 79.938232
150.43591 323.41846 79.938232
154.75452 341.23499 53.82373
160.48607 341.23499 53.82373
166.21785 341.23499 53.82373
171.9494 341.23499 53.82373
177.68095 341.23499 53.82373
183.41275 341.23499 53.82373
189.1443 341.23499 53.82373
196.72409 323.41846 79.938232
202.51001 323.41846 79.938232
208.29593 323.41846 79.938232
214.08206 323.41846 79.938232
219.86795 323.41846 79.938232
225.6541 323.41846 79.938232
231.44 323.41846 79.938232
237.22592 323.41846 79.938232
245.44217 304.45264 107.73755
251.28595 304.45264 107.73755
257.12994 304.45264 107.73755
-105.48585 180.34839 278.84863
-98.270851 201.09644 248.54688
-92.128906 201.09644 248.54688
-85.986954 201.09644 248.54688
-79.845009 201.09644 248.54688
-72.966766 221.26831 219.08643
-66.886185 221.26831 219.08643
-60.805603 221.26831 219.08643
-54.725021 221.26831 219.08643
-48.644436 221.26831 219.08643
-42.563965 221.26831 219.08643
-36.115185 241.43994 189.62646
-30.095968 241.43994 189.62646
-24.076752 241.43994 189.62646
-18.057533 241.43994 189.62646
-12.038433 241.43994 189.62646
-6.0192165 241.43994 189.62646
0 221.26831 219.08643
6.0804672 221.26831 219.08643
12.2839 201.09644 248.54688
18.615093 180.34839 278.84863
140.25273 299.07349 105.45435
144.65001 318.09253 77.67749
150.43591 318.09253 77.67749
156.22206 318.09253 77.67749
162.00795 318.09253 77.67749
167.7941 318.09253 77.67749
173.58 318.09253 77.67749
179.36592 318.09253 77.67749
183.41275 335.95898 51.583984
189.1443 335.95898 51.583984
196.72409 318.09253 77.67749
202.51001 318.09253 77.67749
208.29593 318.09253 77.67749
214.08206 318.09253 77.67749
219.86795 318.09253 77.67749
225.6541 318.09253 77.67749
231.44 318.09253 77.67749
237.22592 318.09253 77.67749
245.44217 299.07349 105.45435
251.28595 299.07349 105.45435
257.12994 299.07349 105.45435
-111.6908 174.63647 276.42407
-105.48585 174.63647 276.42407
-98.270851 195.44287 246.14697
-92.128906 195.44287 246.14697
-85.986954 195.44287 246.14697
-79.845009 195.44287 246.14697
-72.966766 215.6709 216.71045
-66.886185 215.6709 216.71045
-60.805603 215.6709 216.71045
-54.725021 215.6709 216.71045
-48.644436 215.6709 216.71045
-42.563965 215.6709 216.71045
-36.483383 215.6709 216.71045
-30.402802 215.6709 216.71045
-24.322218 215.6709 216.71045
-18.241634 215.6709 216.71045
-12.161167 215.6709 216.71045
-6.0805836 215.6709 216.71045
0 195.44287 246.14697
6.1418328 195.44287 246.14697
12.2839 195.44287 246.14697
18.615093 174.63647 276.42407
140.25273 293.69409 103.1709
144.65001 312.76648 75.416748
150.43591 312.76648 75.416748
156.22206 312.76648 75.416748
162.00795 312.76648 75.416748
167.7941 312.76648 75.416748
173.58 312.76648 75.416748
179.36592 312.76648 75.416748
185.15205 312.76648 75.416748
190.93796 312.76648 75.416748
196.72409 312.76648 75.416748
202.51001 312.76648 75.416748
208.29593 312.76648 75.416748
214.08206 312.76648 75.416748
219.86795 312.76648 75.416748
225.6541 312.76648 75.416748
231.44 312.76648 75.416748
237.22592 312.76648 75.416748
245.44217 293.69409 103.1709
251.28595 293.69409 103.1709
257.12994 293.69409 103.1709
-119.12846 147.48096 305.09253
-111.6908 168.9248 273.99976
-105.48585 168.9248 273.99976
-98.270851 189.78918 243.74707
-92.128906 189.78918 243.74707
-85.986954 189.78918 243.74707
-79.845009 189.78918 243.74707
-72.966766 210.07397 214.33472
-66.886185 210.07397 214.33472
-60.805603 210.07397 214.33472
-54.725021 210.07397 214.33472
-48.644436 210.07397 214.33472
-42.563965 210.07397 214.33472
-36.483383 210.07397 214.33472
-30.402802 210.07397 214.33472
-24.322218 210.07397 214.33472
-18.241634 210.07397 214.33472
-12.161167 210.07397 214.33472
-6.0805836 210.07397 214.33472
0 189.78918 243.74707
6.1418328 189.78918 243.74707
12.2839 189.78918 243.74707
18.615093 168.9248 273.99976
140.25273 288.31494 100.88745
144.65001 307.44043 73.156006
150.43591 307.44043 73.156006
156.22206 307.44043 73.156006
162.00795 307.44043 73.156006
167.7941 307.44043 73.156006
173.58 307.44043 73.156006
179.36592 307.44043 73.156006
185.15205 307.44043 73.156006
190.93796 307.44043 73.156006
196.72409 307.44043 73.156006
202.51001 307.44043 73.156006
208.29593 307.44043 73.156006
214.08206 307.44043 73.156006
219.86795 307.44043 73.156006
225.6541 307.44043 73.156006
231.44 307.44043 73.156006
237.22592 307.44043 73.156006
245.44217 288.31494 100.88745
251.28595 288.31494 100.88745
257.12994 288.31494 100.88745
-122.83854 184.1355 241.34717
-116.69659 184.1355 241.34717
-111.6908 163.21289 271.5752
-105.48585 163.21289 271.5752
-98.270851 184.1355 241.34717
-92.128906 184.1355 241.34717
-85.986954 184.1355 241.34717
-79.845009 184.1355 241.34717
-72.966766 204.47656 211.95898
-66.886185 204.47656 211.95898
-60.805603 204.47656 211.95898
-54.725021 204.47656 211.95898
-48.644436 204.47656 211.95898
-42.563965 204.47656 211.95898
-36.483383 204.47656 211.95898
-30.402802 204.47656 211.95898
-24.322218 204.47656 211.95898
-18.241634 204.47656 211.95898
-12.161167 204.47656 211.95898
-6.0805836 204.47656 211.95898
0 184.1355 241.34717
6.1418328 184.1355 241.34717
12.2839 184.1355 241.34717
140.25273 282.93555 98.604004
144.65001 302.1145 70.89502
150.43591 302.1145 70.89502
156.22206 302.1145 70.89502
162.00795 302.1145 70.89502
167.7941 302.1145 70.89502
173.58 302.1145 70.89502
179.36592 302.1145 70.89502
185.15205 302.1145 70.89502
190.93796 302.1145 70.89502
196.72409 302.1145 70.89502
202.51001 302.1145 70.89502
208.29593 302.1145 70.89502
214.08206 302.1145 70.89502
219.86795 302.1145 70.89502
225.6541 302.1145 70.89502
231.44 302.1145 70.89502
237.22592 302.1145 70.89502
245.44217 282.93555 98.604004
251.28595 282.93555 98.604004
257.12994 282.93555 98.604004
-131.66835 135.93799 300.19287
-122.83854 178.48193 238.94751
-116.69659 178.48193 238.94751
-111.6908 157.50122 269.15063
-105.48585 157.50122 269.15063
-99.280777 157.50122 269.15063
-93.075706 157.50122 269.15063
-86.870636 157.50122 269.15063
-80.665558 157.50122 269.15063
-73.703171 178.48193 238.94751
-66.886185 198.87952 209.58301
-60.805603 198.87952 209.58301
-54.725021 198.87952 209.58301
-48.644436 198.87952 209.58301
-42.563965 198.87952 209.58301
-36.483383 198.87952 209.58301
-30.402802 198.87952 209.58301
-24.322218 198.87952 209.58301
-18.241634 198.87952 209.58301
-12.161167 198.87952 209.58301
-6.0805836 198.87952 209.58301
0 178.48193 238.94751
6.2049522 157.50122 269.15063
144.65001 296.78857 68.634277
149.02272 314.85498 42.625977
154.75452 314.85498 42.625977
162.00795 296.78857 68.634277
167.7941 296.78857 68.634277
173.58 296.78857 68.634277
179.36592 296.78857 68.634277
185.15205 296.78857 68.634277
190.93796 296.78857 68.634277
196.72409 296.78857 68.634277
202.51001 296.78857 68.634277
208.29593 296.78857 68.634277
214.08206 296.78857 68.634277
219.86795 296.78857 68.634277
225.6541 296.78857 68.634277
231.44 296.78857 68.634277
239.59818 277.5564 96.320801
245.44217 277.5564 96.320801
253.69853 258.9071 123.16797
262.22162 239.09204 151.6936
268.18112 239.09204 151.6936
-131.66835 130.1665 297.74292
-124.10094 151.78955 266.72607
-117.89587 151.78955 266.72607
-111.6908 151.78955 266.72607
-105.48585 151.78955 266.72607
-99.280777 151.78955 266.72607
-93.075706 151.78955 266.72607
-86.870636 151.78955 266.72607
-80.665558 151.78955 266.72607
-73.703171 172.82812 236.54761
-67.561218 172.82812 236.54761
-60.805603 193.28223 207.20703
-54.725021 193.28223 207.20703
-48.644436 193.28223 207.20703
-42.563965 193.28223 207.20703
-36.483383 193.28223 207.20703
-30.402802 193.28223 207.20703
-24.322218 193.28223 207.20703
-18.241634 193.28223 207.20703
-12.161167 193.28223 207.20703
-6.1419501 172.82812 236.54761
0 151.78955 266.72607
6.2049522 151.78955 266.72607
149.02272 309.57886 40.386475
154.75452 309.57886 40.386475
160.48607 309.57886 40.386475
166.21785 309.57886 40.386475
173.58 291.4624 66.373535
179.36592 291.4624 66.373535
183.41275 309.57886 40.386475
189.1443 309.57886 40.386475
196.72409 291.4624 66.373535
202.51001 291.4624 66.373535
208.29593 291.4624 66.373535
214.08206 291.4624 66.373535
219.86795 291.4624 66.373535
225.6541 291.4624 66.373535
233.75441 272.177 94.037354
239.59818 272.177 94.037354
245.44217 272.177 94.037354
253.69853 253.47607 120.86279
259.59863 253.47607 120.86279
268.18112 233.6062 149.36499
-137.93829 124.39502 295.29321
-131.66835 124.39502 295.29321
-124.10094 146.07764 264.30176
-117.89587 146.07764 264.30176
-111.6908 146.07764 264.30176
-105.48585 146.07764 264.30176
-99.280777 146.07764 264.30176
-93.075706 146.07764 264.30176
-86.870636 146.07764 264.30176
-80.665558 146.07764 264.30176
-73.703171 167.17432 234.14771
-67.561218 167.17432 234.14771
-60.805603 187.68506 204.8313
-54.725021 187.68506 204.8313
-48.153503 208.19556 175.51514
-42.134399 208.19556 175.51514
-36.115185 208.19556 175.51514
-30.402802 187.68506 204.8313
-24.322218 187.68506 204.8313
-18.241634 187.68506 204.8313
-12.161167 187.68506 204.8313
-6.1419501 167.17432 234.14771
0 146.07764 264.30176
149.02272 304.30286 38.146973
154.75452 304.30286 38.146973
160.48607 304.30286 38.146973
166.21785 304.30286 38.146973
173.58 286.13623 64.112793
179.36592 286.13623 64.112793
183.41275 304.30286 38.146973
189.1443 304.30286 38.146973
196.72409 286.13623 64.112793
202.51001 286.13623 64.112793
208.29593 286.13623 64.112793
216.22287 266.79761 91.753906
222.06665 266.79761 91.753906
227.91064 266.79761 91.753906
233.75441 266.79761 91.753906
239.59818 266.79761 91.753906
245.44217 266.79761 91.753906
253.69853 248.04504 118.55737
259.59863 248.04504 118.55737
268.18112 228.12036 147.03638
-137.93829 118.62354 292.84326
-131.66835 118.62354 292.84326
-124.10094 140.36597 261.8772
-117.89587 140.36597 261.8772
-111.6908 140.36597 261.8772
-105.48585 140.36597 261.8772
-99.280777 140.36597 261.8772
-93.075706 140.36597 261.8772
-86.870636 140.36597 261.8772
-80.665558 140.36597 261.8772
-73.703171 161.52075 231.7478
-67.561218 161.52075 231.7478
-60.805603 182.08789 202.45532
-54.725021 182.08789 202.45532
-48.153503 202.65503 173.16309
-42.134399 202.65503 173.16309
-36.115185 202.65503 173.16309
-30.402802 182.08789 202.45532
-24.322218 182.08789 202.45532
-18.241634 182.08789 202.45532
-12.2839 161.52075 231.7478
-6.2050705 140.36597 261.8772
0 140.36597 261.8772
149.02272 299.02686 35.907227
154.75452 299.02686 35.907227
160.48607 299.02686 35.907227
166.21785 299.02686 35.907227
173.58 280.8103 61.852051
179.36592 280.8103 61.852051
185.15205 280.8103 61.852051
190.93796 280.8103 61.852051
196.72409 280.8103 61.852051
202.51001 280.8103 61.852051
208.29593 280.8103 61.852051
216.22287 261.41833 89.470703
222.06665 261.41833 89.470703
227.91064 261.41833 89.470703
233.75441 261.41833 89.470703
239.59818 261.41833 89.470703
245.44217 261.41833 89.470703
253.69853 242.61426 116.2522
259.59863 242.61426 116.2522
268.18112 222.63452 144.70776
-131.66835 112.85181 290.39331
-124.10094 134.65405 259.45264
-117.89587 134.65405 259.45264
-111.6908 134.65405 259.45264
-105.48585 134.65405 259.45264
-99.280777 134.65405 259.45264
-93.075706 134.65405 259.45264
-86.870636 134.65405 259.45264
-80.665558 134.65405 259.45264
-73.703171 155.86694 229.3479
-67.561218 155.86694 229.3479
-60.805603 176.4906 200.07959
-54.725021 176.4906 200.07959
-48.644436 176.4906 200.07959
-42.563965 176.4906 200.07959
-36.483383 176.4906 200.07959
-30.402802 176.4906 200.07959
-24.322218 176.4906 200.07959
-18.425734 155.86694 229.3479
-12.2839 155.86694 229.3479
-6.2050705 134.65405 259.45264
0 134.65405 259.45264
149.02272 293.75073 33.667725
154.75452 293.75073 33.667725
160.48607 293.75073 33.667725
166.21785 293.75073 33.667725
173.58 275.48413 59.591309
179.36592 275.48413 59.591309
185.15205 275.48413 59.591309
190.93796 275.48413 59.591309
196.72409 275.48413 59.591309
202.51001 275.48413 59.591309
208.29593 275.48413 59.591309
216.22287 256.03894 87.187256
222.06665 256.03894 87.187256
227.91064 256.03894 87.187256
233.75441 256.03894 87.187256
239.59818 256.03894 87.187256
245.44217 256.03894 87.187256
253.69853 237.18311 113.94678
259.59863 237.18311 113.94678
268.18112 217.14868 142.37915
274.14059 217.14868 142.37915
-125.39841 107.08057 287.9436
-117.89587 128.94238 257.02808
-111.6908 128.94238 257.02808
-105.48585 128.94238 257.02808
-99.280777 128.94238 257.02808
-93.075706 128.94238 257.02808
-86.870636 128.94238 257.02808
-80.665558 128.94238 257.02808
-73.703171 150.21338 226.94824
-67.561218 150.21338 226.94824
-61.41927 150.21338 226.94824
-54.725021 170.89355 197.70361
-48.644436 170.89355 197.70361
-42.563965 170.89355 197.70361
-36.483383 170.89355 197.70361
-30.402802 170.89355 197.70361
-24.322218 170.89355 197.70361
-18.425734 150.21338 226.94824
-12.2839 150.21338 226.94824
-6.2050705 128.94238 257.02808
149.02272 288.47485 31.428223
154.75452 288.47485 31.428223
160.48607 288.47485 31.428223
167.7941 270.1582 57.330566
173.58 270.1582 57.330566
179.36592 270.1582 57.330566
185.15205 270.1582 57.330566
190.93796 270.1582 57.330566
196.72409 270.1582 57.330566
202.51001 270.1582 57.330566
208.29593 270.1582 57.330566
216.22287 250.65967 84.903809
222.06665 250.65967 84.903809
227.91064 250.65967 84.903809
233.75441 250.65967 84.903809
239.59818 250.65967 84.903809
245.44217 250.65967 84.903809
253.69853 231.75232 111.6416
259.59863 231.75232 111.6416
268.18112 211.66296 140.05054
274.14059 211.66296 140.05054
-125.39841 101.30908 285.49365
-117.89587 123.23047 254.60352
-111.6908 123.23047 254.60352
-105.48585 123.23047 254.60352
-99.280777 123.23047 254.60352
-93.075706 123.23047 254.60352
-86.870636 123.23047 254.60352
-80.665558 123.23047 254.60352
-73.703171 144.55981 224.54834
-67.561218 144.55981 224.54834
-60.805603 165.29639 195.32764
-54.725021 165.29639 195.32764
-48.644436 165.29639 195.32764
-42.563965 165.29639 195.32764
-36.483383 165.29639 195.32764
-30.402802 165.29639 195.32764
-24.322218 165.29639 195.32764
-18.425734 144.55981 224.54834
-12.2839 144.55981 224.54834
150.43591 264.83203 55.069824
156.22206 264.83203 55.069824
162.00795 264.83203 55.069824
167.7941 264.83203 55.069824
173.58 264.83203 55.069824
179.36592 264.83203 55.069824
185.15205 264.83203 55.069824
190.93796 264.83203 55.069824
196.72409 264.83203 55.069824
202.51001 264.83203 55.069824
210.37888 245.2804 82.620361
216.22287 245.2804 82.620361
222.06665 245.2804 82.620361
227.91064 245.2804 82.620361
233.75441 245.2804 82.620361
239.59818 245.2804 82.620361
247.79866 226.32129 109.33618
253.69853 226.32129 109.33618
259.59863 226.32129 109.33618
268.18112 206.177 137.72192
276.88281 186.03284 166.10742
-125.39841 95.537598 283.04395
-117.89587 117.5188 252.1792
-111.6908 117.5188 252.1792
-105.48585 117.5188 252.1792
-99.280777 117.5188 252.1792
-93.075706 117.5188 252.1792
-86.870636 117.5188 252.1792
-80.665558 117.5188 252.1792
-73.703171 138.90601 222.14844
-66.886185 159.69922 192.9519
-60.805603 159.69922 192.9519
-54.725021 159.69922 192.9519
-48.644436 159.69922 192.9519
-42.563965 159.69922 192.9519
-36.483383 159.69922 192.9519
-30.402802 159.69922 192.9519
-24.322218 159.69922 192.9519
-18.425734 138.90601 222.14844
-12.2839 138.90601 222.14844
151.94028 239.90112 80.337158
156.22206 259.5061 52.809082
162.00795 259.5061 52.809082
169.47203 239.90112 80.337158
175.31581 239.90112 80.337158
181.15958 239.90112 80.337158
185.15205 259.5061 52.809082
190.93796 259.5061 52.809082
196.72409 259.5061 52.809082
204.53511 239.90112 80.337158
210.37888 239.90112 80.337158
216.22287 239.90112 80.337158
222.06665 239.90112 80.337158
227.91064 239.90112 80.337158
233.75441 239.90112 80.337158
239.59818 239.90112 80.337158
247.79866 220.89038 107.03101
253.69853 220.89038 107.03101
262.22162 200.69141 135.39331
268.18112 200.69141 135.39331
276.88281 180.49219 163.75562
-125.39841 89.765869 280.59399
-117.89587 111.80713 249.75464
-111.6908 111.80713 249.75464
-105.48585 111.80713 249.75464
-99.280777 111.80713 249.75464
-93.075706 111.80713 249.75464
-86.870636 111.80713 249.75464
-80.665558 111.80713 249.75464
-73.703171 133.25244 219.74854
-66.886185 154.10181 190.57593
-60.805603 154.10181 190.57593
-54.725021 154.10181 190.57593
-48.644436 154.10181 190.57593
-42.563965 154.10181 190.57593
-36.483383 154.10181 190.57593
-30.402802 154.10181 190.57593
-24.322218 154.10181 190.57593
-18.425734 133.25244 219.74854
-12.2839 133.25244 219.74854
153.39905 215.45935 104.72559
157.78427 234.52173 78.053711
163.62804 234.52173 78.053711
169.47203 234.52173 78.053711
175.31581 234.52173 78.053711
181.15958 234.52173 78.053711
185.15205 254.17993 50.548096
190.93796 254.17993 50.548096
196.72409 254.17993 50.548096
204.53511 234.52173 78.053711
210.37888 234.52173 78.053711
216.22287 234.52173 78.053711
222.06665 234.52173 78.053711
227.91064 234.52173 78.053711
233.75441 234.52173 78.053711
239.59818 234.52173 78.053711
247.79866 215.45935 104.72559
253.69853 215.45935 104.72559
259.59863 215.45935 104.72559
270.86371 174.95142 161.40381
279.70569 154.10181 190.57593
-131.66835 83.994629 278.14429
-125.39841 83.994629 278.14429
-117.89587 106.09521 247.33008
-111.6908 106.09521 247.33008
-105.48585 106.09521 247.33008
-99.280777 106.09521 247.33008
-93.075706 106.09521 247.33008
-86.870636 106.09521 247.33008
-80.665558 106.09521 247.33008
-73.703171 127.59863 217.34888
-67.561218 127.59863 217.34888
-61.41927 127.59863 217.34888
-54.725021 148.50488 188.2002
-48.644436 148.50488 188.2002
-42.563965 148.50488 188.2002
-36.483383 148.50488 188.2002
-30.402802 148.50488 188.2002
-24.567682 127.59863 217.34888
-18.425734 127.59863 217.34888
-12.410141 106.09521 247.33008
154.94899 189.71973 130.73608
159.29916 210.02856 102.42041
163.62804 229.14258 75.770264
169.47203 229.14258 75.770264
175.31581 229.14258 75.770264
181.15958 229.14258 75.770264
187.00357 229.14258 75.770264
192.84734 229.14258 75.770264
198.69133 229.14258 75.770264
204.53511 229.14258 75.770264
208.29593 248.854 48.287354
214.08206 248.854 48.287354
222.06665 229.14258 75.770264
227.91064 229.14258 75.770264
233.75441 229.14258 75.770264
239.59818 229.14258 75.770264
247.79866 210.02856 102.42041
253.69853 210.02856 102.42041
259.59863 210.02856 102.42041
270.86371 169.41089 159.05176
279.70569 148.50488 188.2002
-131.66835 78.223145 275.69434
-124.10094 100.3833 244.90552
-117.89587 100.3833 244.90552
-111.6908 100.3833 244.90552
-105.48585 100.3833 244.90552
-99.280777 100.3833 244.90552
-93.075706 100.3833 244.90552
-86.870636 100.3833 244.90552
-80.665558 100.3833 244.90552
-73.703171 121.94507 214.94897
-67.561218 121.94507 214.94897
-61.41927 121.94507 214.94897
-54.725021 142.90747 185.82422
-48.644436 142.90747 185.82422
-42.563965 142.90747 185.82422
-36.483383 142.90747 185.82422
-30.402802 142.90747 185.82422
-24.567682 121.94507 214.94897
-18.425734 121.94507 214.94897
-12.410141 100.3833 244.90552
160.90871 184.23389 128.40771
165.19902 204.59741 100.11499
171.09912 204.59741 100.11499
175.31581 223.76318 73.486816
181.15958 223.76318 73.486816
187.00357 223.76318 73.486816
192.84734 223.76318 73.486816
198.69133 223.76318 73.486816
204.53511 223.76318 73.486816
208.29593 243.52795 46.026611
214.08206 243.52795 46.026611
222.06665 223.76318 73.486816
227.91064 223.76318 73.486816
233.75441 223.76318 73.486816
239.59818 223.76318 73.486816
247.79866 204.59741 100.11499
253.69853 204.59741 100.11499
262.22162 184.23389 128.40771
270.86371 163.87012 156.69995
279.70569 142.90747 185.82422
-139.40408 49.630859 304.83936
-133.0675 49.630859 304.83936
-124.10094 94.671875 242.4812
-117.89587 94.671875 242.4812
-111.6908 94.671875 242.4812
-105.48585 94.671875 242.4812
-99.280777 94.671875 242.4812
-93.075706 94.671875 242.4812
-86.870636 94.671875 242.4812
-80.665558 94.671875 242.4812
-73.703171 116.2915 212.54907
-67.561218 116.2915 212.54907
-61.41927 116.2915 212.54907
-55.277321 116.2915 212.54907
-48.644436 137.31055 183.44849
-42.563965 137.31055 183.44849
-36.483383 137.31055 183.44849
-30.402802 137.31055 183.44849
-24.567682 116.2915 212.54907
-18.425734 116.2915 212.54907
-12.410141 94.671875 242.4812
-6.2699442 72.45166 273.24438
165.19902 199.16663 97.809814
171.09912 199.16663 97.809814
176.99901 199.16663 97.809814
182.8989 199.16663 97.809814
187.00357 218.38403 71.203613
192.84734 218.38403 71.203613
198.69133 218.38403 71.203613
204.53511 218.38403 71.203613
210.37888 218.38403 71.203613
216.22287 218.38403 71.203613
222.06665 218.38403 71.203613
227.91064 218.38403 71.203613
233.75441 218.38403 71.203613
239.59818 218.38403 71.203613
247.79866 199.16663 97.809814
253.69853 199.16663 97.809814
262.22162 178.74805 126.0791
270.86371 158.32959 154.34814
279.70569 137.31055 183.44849
-145.74052 43.797852 302.36353
-137.93829 66.679932 270.79468
-131.66835 66.679932 270.79468
-124.10094 88.959961 240.05664
-117.89587 88.959961 240.05664
-111.6908 88.959961 240.05664
-105.48585 88.959961 240.05664
-99.280777 88.959961 240.05664
-93.075706 88.959961 240.05664
-86.870636 88.959961 240.05664
-80.665558 88.959961 240.05664
-73.703171 110.6377 210.14917
-67.561218 110.6377 210.14917
-61.41927 110.6377 210.14917
-55.277321 110.6377 210.14917
-48.644436 131.71313 181.07251
-42.563965 131.71313 181.07251
-36.483383 131.71313 181.07251
-30.402802 131.71313 181.07251
-24.567682 110.6377 210.14917
-18.425734 110.6377 210.14917
-12.410141 88.959961 240.05664
-6.2699442 66.679932 270.79468
166.86819 173.26221 123.75049
171.09912 193.7356 95.504395
176.99901 193.7356 95.504395
182.8989 193.7356 95.504395
188.799 193.7356 95.504395
192.84734 213.00464 68.920166
198.69133 213.00464 68.920166
204.53511 213.00464 68.920166
210.37888 213.00464 68.920166
216.22287 213.00464 68.920166
222.06665 213.00464 68.920166
227.91064 213.00464 68.920166
233.75441 213.00464 68.920166
239.59818 213.00464 68.920166
247.79866 193.7356 95.504395
253.69853 193.7356 95.504395
262.22162 173.26221 123.75049
270.86371 152.78857 151.99609
279.70569 131.71313 181.07251
288.67062 110.6377 210.14917
-145.74052 37.965332 299.8877
-137.93829 60.908691 268.34473
-131.66835 60.908691 268.34473
-124.10094 83.248047 237.63208
-117.89587 83.248047 237.63208
-111.6908 83.248047 237.63208
-105.48585 83.248047 237.63208
-99.280777 83.248047 237.63208
-93.075706 83.248047 237.63208
-86.870636 83.248047 237.63208
-80.665558 83.248047 237.63208
-73.703171 104.98413 207.74951
-67.561218 104.98413 207.74951
-61.41927 104.98413 207.74951
-55.277321 104.98413 207.74951
-49.135365 104.98413 207.74951
-42.993538 104.98413 207.74951
-36.851585 104.98413 207.74951
-30.709635 104.98413 207.74951
-24.567682 104.98413 207.74951
-18.615093 83.248047 237.63208
-12.410141 83.248047 237.63208
-6.2699442 60.908691 268.34473
166.86819 167.77637 121.42188
171.09912 188.30469 93.199219
176.99901 188.30469 93.199219
182.8989 188.30469 93.199219
188.799 188.30469 93.199219
194.69885 188.30469 93.199219
198.69133 207.62549 66.636963
204.53511 207.62549 66.636963
210.37888 207.62549 66.636963
216.22287 207.62549 66.636963
222.06665 207.62549 66.636963
227.91064 207.62549 66.636963
233.75441 207.62549 66.636963
239.59818 207.62549 66.636963
247.79866 188.30469 93.199219
253.69853 188.30469 93.199219
262.22162 167.77637 121.42188
270.86371 147.24805 149.64429
279.70569 126.11621 178.69678
288.67062 104.98413 207.74951
-158.41367 32.132324 297.41162
-152.0771 32.132324 297.41162
-144.20811 55.136963 265.89502
-137.93829 55.136963 265.89502
-131.66835 55.136963 265.89502
-124.10094 77.536377 235.20752
-117.89587 77.536377 235.20752
-111.6908 77.536377 235.20752
-105.48585 77.536377 235.20752
-99.280777 77.536377 235.20752
-93.075706 77.536377 235.20752
-86.870636 77.536377 235.20752
-80.665558 77.536377 235.20752
-73.703171 99.330322 205.34961
-67.561218 99.330322 205.34961
-61.41927 99.330322 205.34961
-55.277321 99.330322 205.34961
-49.135365 99.330322 205.34961
-42.993538 99.330322 205.34961
-36.851585 99.330322 205.34961
-30.709635 99.330322 205.34961
-24.567682 99.330322 205.34961
-18.615093 77.536377 235.20752
-12.410141 77.536377 235.20752
-6.2699442 55.136963 265.89502
166.86819 162.29053 119.09326
172.82793 162.29053 119.09326
176.99901 182.87378 90.893799
182.8989 182.87378 90.893799
188.799 182.87378 90.893799
194.69885 182.87378 90.893799
198.69133 202.24597 64.353516
204.53511 202.24597 64.353516
210.37888 202.24597 64.353516
214.08206 222.22375 36.983643
219.86795 222.22375 36.983643
227.91064 202.24597 64.353516
233.75441 202.24597 64.353516
241.89856 182.87378 90.893799
247.79866 182.87378 90.893799
253.69853 182.87378 90.893799
262.22162 162.29053 119.09326
270.86371 141.70728 147.29248
279.70569 120.5188 176.3208
288.67062 99.330322 205.34961
-164.75024 26.299561 294.93579
-158.41367 26.299561 294.93579
-152.0771 26.299561 294.93579
-144.20811 49.365723 263.44507
-136.51108 71.824707 232.7832
-130.30602 71.824707 232.7832
-124.10094 71.824707 232.7832
-117.89587 71.824707 232.7832
-111.6908 71.824707 232.7832
-105.48585 71.824707 232.7832
-99.280777 71.824707 232.7832
-93.075706 71.824707 232.7832
-86.870636 71.824707 232.7832
-80.665558 71.824707 232.7832
-73.703171 93.676758 202.94971
-67.561218 93.676758 202.94971
-61.41927 93.676758 202.94971
-55.277321 93.676758 202.94971
-49.135365 93.676758 202.94971
-42.993538 93.676758 202.94971
-36.851585 93.676758 202.94971
-30.709635 93.676758 202.94971
-24.820164 71.824707 232.7832
-18.615093 71.824707 232.7832
-12.410141 71.824707 232.7832
-6.2699442 49.365723 263.44507
166.86819 156.80469 116.76465
172.82793 156.80469 116.76465
176.99901 177.44287 88.588623
182.8989 177.44287 88.588623
188.799 177.44287 88.588623
194.69885 177.44287 88.588623
200.59895 177.44287 88.588623
204.53511 196.8667 62.070068
210.37888 196.8667 62.070068
214.08206 216.89783 34.7229
219.86795 216.89783 34.7229
227.91064 196.8667 62.070068
233.75441 196.8667 62.070068
241.89856 177.44287 88.588623
247.79866 177.44287 88.588623
256.2619 156.80469 116.76465
262.22162 156.80469 116.76465
270.86371 136.16675 144.94043
279.70569 114.92163 173.94507
288.67062 93.676758 202.94971
300.95612 49.365723 263.44507
-164.75024 20.466797 292.45996
-158.41367 20.466797 292.45996
-152.0771 20.466797 292.45996
-142.71603 66.112793 230.35864
-136.51108 66.112793 230.35864
-130.30602 66.112793 230.35864
-124.10094 66.112793 230.35864
-117.89587 66.112793 230.35864
-112.85852 43.593994 260.99512
-105.48585 66.112793 230.35864
-99.280777 66.112793 230.35864
-93.075706 66.112793 230.35864
-86.870636 66.112793 230.35864
-80.665558 66.112793 230.35864
-73.703171 88.022949 200.5498
-67.561218 88.022949 200.5498
-61.41927 88.022949 200.5498
-55.277321 88.022949 200.5498
-49.135365 88.022949 200.5498
-42.993538 88.022949 200.5498
-36.851585 88.022949 200.5498
-30.709635 88.022949 200.5498
-24.820164 66.112793 230.35864
-18.615093 66.112793 230.35864
-12.410141 66.112793 230.35864
-6.2699442 43.593994 260.99512
166.86819 151.31885 114.43604
172.82793 151.31885 114.43604
176.99901 172.01184 86.283203
182.8989 172.01184 86.283203
188.799 172.01184 86.283203
194.69885 172.01184 86.283203
200.59895 172.01184 86.283203
204.53511 191.48743 59.786621
210.37888 191.48743 59.786621
216.22287 191.48743 59.786621
222.06665 191.48743 59.786621
227.91064 191.48743 59.786621
233.75441 191.48743 59.786621
241.89856 172.01184 86.283203
247.79866 172.01184 86.283203
256.2619 151.31885 114.43604
262.22162 151.31885 114.43604
270.86371 130.62598 142.58862
279.70569 109.32446 171.56909
288.67062 88.022949 200.5498
300.95612 43.593994 260.99512
-164.75024 14.633789 289.98413
-158.41367 14.633789 289.98413
-150.47806 37.82251 258.54541
-142.71603 60.400879 227.93408
-136.51108 60.400879 227.93408
-130.30602 60.400879 227.93408
-125.39841 37.82251 258.54541
-119.12846 37.82251 258.54541
-112.85852 37.82251 258.54541
-105.48585 60.400879 227.93408
-99.280777 60.400879 227.93408
-93.075706 60.400879 227.93408
-86.870636 60.400879 227.93408
-80.665558 60.400879 227.93408
-73.703171 82.369141 198.1499
-67.561218 82.369141 198.1499
-61.41927 82.369141 198.1499
-55.277321 82.369141 198.1499
-49.135365 82.369141 198.1499
-42.993538 82.369141 198.1499
-36.851585 82.369141 198.1499
-30.709635 82.369141 198.1499
-24.567682 82.369141 198.1499
-18.425734 82.369141 198.1499
-12.410141 60.400879 227.93408
-6.2699442 37.82251 258.54541
162.51826 125.08521 140.23682
166.86819 145.83301 112.10742
171.09912 166.58081 83.977783
176.99901 166.58081 83.977783
182.8989 166.58081 83.977783
188.799 166.58081 83.977783
194.69885 166.58081 83.977783
200.59895 166.58081 83.977783
204.53511 186.10803 57.503418
210.37888 186.10803 57.503418
216.22287 186.10803 57.503418
222.06665 186.10803 57.503418
227.91064 186.10803 57.503418
233.75441 186.10803 57.503418
241.89856 166.58081 83.977783
247.79866 166.58081 83.977783
256.2619 145.83301 112.10742
262.22162 145.83301 112.10742
270.86371 125.08521 140.23682
279.70569 103.72729 169.19336
288.67062 82.369141 198.1499
297.84219 60.400879 227.93408
-164.75024 8.8010254 287.5083
-158.41367 8.8010254 287.5083
-150.47806 32.05127 256.09546
-144.20811 32.05127 256.09546
-136.51108 54.689209 225.50952
-130.30602 54.689209 225.50952
-125.39841 32.05127 256.09546
-119.12846 32.05127 256.09546
-112.85852 32.05127 256.09546
-106.58869 32.05127 256.09546
-99.280777 54.689209 225.50952
-93.075706 54.689209 225.50952
-86.870636 54.689209 225.50952
-80.665558 54.689209 225.50952
-73.703171 76.715576 195.75024
-67.561218 76.715576 195.75024
-61.41927 76.715576 195.75024
-55.277321 76.715576 195.75024
-49.135365 76.715576 195.75024
-42.993538 76.715576 195.75024
-36.851585 76.715576 195.75024
-30.709635 76.715576 195.75024
-24.567682 76.715576 195.75024
-18.425734 76.715576 195.75024
-12.410141 54.689209 225.50952
-6.2699442 32.05127 256.09546
162.51826 119.54443 137.88477
166.86819 140.34717 109.77881
171.09912 161.1499 81.672607
176.99901 161.1499 81.672607
182.8989 161.1499 81.672607
188.799 161.1499 81.672607
194.69885 161.1499 81.672607
200.59895 161.1499 81.672607
204.53511 180.72876 55.219971
210.37888 180.72876 55.219971
216.22287 180.72876 55.219971
222.06665 180.72876 55.219971
227.91064 180.72876 55.219971
235.99867 161.1499 81.672607
241.89856 161.1499 81.672607
247.79866 161.1499 81.672607
256.2619 140.34717 109.77881
262.22162 140.34717 109.77881
270.86371 119.54443 137.88477
279.70569 98.130127 166.81738
288.67062 76.715576 195.75024
297.84219 54.689209 225.50952
307.2262 32.05127 256.09546
-164.75024 2.9682617 285.03223
-158.41367 2.9682617 285.03223
-152.0771 2.9682617 285.03223
-144.20811 26.279541 253.64551
-137.93829 26.279541 253.64551
-131.66835 26.279541 253.64551
-125.39841 26.279541 253.64551
-119.12846 26.279541 253.64551
-112.85852 26.279541 253.64551
-106.58869 26.279541 253.64551
-99.280777 48.977539 223.08496
-93.075706 48.977539 223.08496
-87.778854 26.279541 253.64551
-81.508919 26.279541 253.64551
-73.703171 71.062012 193.35034
-67.561218 71.062012 193.35034
-61.41927 71.062012 193.35034
-55.277321 71.062012 193.35034
-49.135365 71.062012 193.35034
-42.993538 71.062012 193.35034
-36.851585 71.062012 193.35034
-31.025234 48.977539 223.08496
-24.820164 48.977539 223.08496
-18.615093 48.977539 223.08496
-12.410141 48.977539 223.08496
-6.2699442 26.279541 253.64551
161.33112 48.977539 223.08496
164.17517 92.532715 164.44141
166.86819 134.86133 107.4502
172.82793 134.86133 107.4502
176.99901 155.71899 79.367188
182.8989 155.71899 79.367188
188.799 155.71899 79.367188
194.69885 155.71899 79.367188
200.59895 155.71899 79.367188
204.53511 175.34937 52.936523
210.37888 175.34937 52.936523
216.22287 175.34937 52.936523
224.19868 155.71899 79.367188
230.0988 155.71899 79.367188
235.99867 155.71899 79.367188
241.89856 155.71899 79.367188
250.30241 134.86133 107.4502
256.2619 134.86133 107.4502
264.8446 114.00366 135.53296
270.86371 114.00366 135.53296
279.70569 92.532715 164.44141
288.67062 71.062012 193.35034
297.84219 48.977539 223.08496
307.2262 26.279541 253.64551
313.496 26.279541 253.64551
-144.20811 20.508301 251.1958
-137.93829 20.508301 251.1958
-131.66835 20.508301 251.1958
-125.39841 20.508301 251.1958
