ply
format ascii 1.0
comment PCL generated
element vertex 1582
property float x
property float y
property float z
element camera 0
property float view_px
property float view_py
property float view_pz
property float x_axisx
property float x_axisy
property float x_axisz
property float y_axisx
property float y_axisy
property float y_axisz
property float z_axisx
property float z_axisy
property float z_axisz
property float focal
property float scalex
property float scaley
property float centerx
property float centery
property int viewportx
property int viewporty
property float k1
property float k2
end_header
0 1215.6606 202.2915
5.3721313 1215.6606 202.2915
10.744469 1215.6606 202.2915
16.116598 1215.6606 202.2915
21.488937 1215.6606 202.2915
26.861067 1215.6606 202.2915
32.52776 1206.4827 228.81372
37.949188 1206.4827 228.81372
43.370415 1206.4827 228.81372
48.791843 1206.4827 228.81372
54.21307 1206.4827 228.81372
59.634293 1206.4827 228.81372
65.055725 1206.4827 228.81372
69.838737 1215.6606 202.2915
75.211067 1215.6606 202.2915
81.319603 1206.4827 228.81372
86.740829 1206.4827 228.81372
92.162254 1206.4827 228.81372
97.583481 1206.4827 228.81372
103.00491 1206.4827 228.81372
108.42614 1206.4827 228.81372
113.84736 1206.4827 228.81372
119.26879 1206.4827 228.81372
124.69002 1206.4827 228.81372
130.11145 1206.4827 228.81372
135.53267 1206.4827 228.81372
140.9539 1206.4827 228.81372
146.37532 1206.4827 228.81372
151.79655 1206.4827 228.81372
158.64169 1197.3047 255.33594
162.63921 1206.4827 228.81372
168.06042 1206.4827 228.81372
175.05284 1197.3047 255.33594
180.52318 1197.3047 255.33594
185.9937 1197.3047 255.33594
191.464 1197.3047 255.33594
196.93433 1197.3047 255.33594
202.40485 1197.3047 255.33594
207.87517 1197.3047 255.33594
213.34569 1197.3047 255.33594
220.84987 1187.7987 282.80542
228.45575 1178.293 310.2749
234.02797 1178.293 310.2749
239.59998 1178.293 310.2749
-211.43095 1201.4923 226.69556
-206.00961 1201.4923 226.69556
-200.58839 1201.4923 226.69556
-196.93442 1192.2692 253.19849
-191.464 1192.2692 253.19849
-185.99359 1192.2692 253.19849
-180.52318 1192.2692 253.19849
-175.05284 1192.2692 253.19849
-169.58243 1192.2692 253.19849
-164.112 1192.2692 253.19849
-158.64159 1192.2692 253.19849
-153.17117 1192.2692 253.19849
-147.70084 1192.2692 253.19849
-142.23042 1192.2692 253.19849
-135.53267 1201.4923 226.69556
-130.11134 1201.4923 226.69556
-124.69002 1201.4923 226.69556
-119.26879 1201.4923 226.69556
-113.84747 1201.4923 226.69556
-109.408 1192.2692 253.19849
-103.93758 1192.2692 253.19849
-98.467163 1192.2692 253.19849
-92.162254 1201.4923 226.69556
-86.740929 1201.4923 226.69556
-81.319603 1201.4923 226.69556
-75.898277 1201.4923 226.69556
-70.476952 1201.4923 226.69556
-65.055725 1201.4923 226.69556
-59.634396 1201.4923 226.69556
-54.21307 1201.4923 226.69556
-48.79174 1201.4923 226.69556
-43.370415 1201.4923 226.69556
-37.949188 1201.4923 226.69556
-32.527863 1201.4923 226.69556
-26.624367 1219.6094 174.63574
-21.299473 1219.6094 174.63574
-16.116598 1210.7155 200.19238
-10.744469 1210.7155 200.19238
-5.3722343 1210.7155 200.19238
0 1210.7155 200.19238
5.3721313 1210.7155 200.19238
10.744469 1210.7155 200.19238
16.116598 1210.7155 200.19238
21.488937 1210.7155 200.19238
26.861067 1210.7155 200.19238
32.52776 1201.4923 226.69556
37.949188 1201.4923 226.69556
43.370415 1201.4923 226.69556
48.791843 1201.4923 226.69556
54.21307 1201.4923 226.69556
59.634293 1201.4923 226.69556
65.055725 1201.4923 226.69556
69.838737 1210.7155 200.19238
75.211067 1210.7155 200.19238
81.319603 1201.4923 226.69556
86.740829 1201.4923 226.69556
92.162254 1201.4923 226.69556
97.583481 1201.4923 226.69556
103.00491 1201.4923 226.69556
108.42614 1201.4923 226.69556
113.84736 1201.4923 226.69556
119.26879 1201.4923 226.69556
124.69002 1201.4923 226.69556
130.11145 1201.4923 226.69556
135.53267 1201.4923 226.69556
140.9539 1201.4923 226.69556
146.37532 1201.4923 226.69556
151.79655 1201.4923 226.69556
157.21799 1201.4923 226.69556
162.63921 1201.4923 226.69556
168.06042 1201.4923 226.69556
175.05284 1192.2692 253.19849
180.52318 1192.2692 253.19849
185.9937 1192.2692 253.19849
191.464 1192.2692 253.19849
196.93433 1192.2692 253.19849
202.40485 1192.2692 253.19849
207.87517 1192.2692 253.19849
213.34569 1192.2692 253.19849
220.84987 1182.7164 280.64819
228.45575 1173.1638 308.09766
234.02797 1173.1638 308.09766
239.59998 1173.1638 308.09766
-211.43095 1196.502 224.57715
-206.00961 1196.502 224.57715
-202.40485 1187.2335 251.06104
-196.93442 1187.2335 251.06104
-191.464 1187.2335 251.06104
-185.99359 1187.2335 251.06104
-180.52318 1187.2335 251.06104
-175.05284 1187.2335 251.06104
-169.58243 1187.2335 251.06104
-164.112 1187.2335 251.06104
-158.64159 1187.2335 251.06104
-153.17117 1187.2335 251.06104
-146.37532 1196.502 224.57715
-140.95399 1196.502 224.57715
-135.53267 1196.502 224.57715
-130.11134 1196.502 224.57715
-124.69002 1196.502 224.57715
-119.26879 1196.502 224.57715
-113.84747 1196.502 224.57715
-109.408 1187.2335 251.06104
-103.93758 1187.2335 251.06104
-98.467163 1187.2335 251.06104
-92.162254 1196.502 224.57715
-86.740929 1196.502 224.57715
-81.319603 1196.502 224.57715
-75.898277 1196.502 224.57715
-70.476952 1196.502 224.57715
-65.055725 1196.502 224.57715
-59.634396 1196.502 224.57715
-54.21307 1196.502 224.57715
-48.79174 1196.502 224.57715
-43.370415 1196.502 224.57715
-37.949188 1196.502 224.57715
-32.527863 1196.502 224.57715
-27.106535 1196.502 224.57715
-21.488834 1205.7703 198.09326
-16.116598 1205.7703 198.09326
-10.744469 1205.7703 198.09326
-5.3722343 1205.7703 198.09326
0 1205.7703 198.09326
5.3721313 1205.7703 198.09326
10.744469 1205.7703 198.09326
16.116598 1205.7703 198.09326
21.488937 1205.7703 198.09326
26.861067 1205.7703 198.09326
32.233196 1205.7703 198.09326
37.605534 1205.7703 198.09326
42.977669 1205.7703 198.09326
48.350006 1205.7703 198.09326
54.21307 1196.502 224.57715
59.634293 1196.502 224.57715
65.055725 1196.502 224.57715
70.476952 1196.502 224.57715
75.898376 1196.502 224.57715
81.319603 1196.502 224.57715
86.740829 1196.502 224.57715
92.162254 1196.502 224.57715
97.583481 1196.502 224.57715
103.00491 1196.502 224.57715
108.42614 1196.502 224.57715
113.84736 1196.502 224.57715
119.26879 1196.502 224.57715
124.69002 1196.502 224.57715
130.11145 1196.502 224.57715
135.53267 1196.502 224.57715
140.9539 1196.502 224.57715
146.37532 1196.502 224.57715
151.79655 1196.502 224.57715
157.21799 1196.502 224.57715
162.63921 1196.502 224.57715
168.06042 1196.502 224.57715
175.05284 1187.2335 251.06104
180.52318 1187.2335 251.06104
185.9937 1187.2335 251.06104
191.464 1187.2335 251.06104
196.93433 1187.2335 251.06104
202.40485 1187.2335 251.06104
209.80733 1177.634 278.49097
215.3287 1177.634 278.49097
220.84987 1177.634 278.49097
226.37105 1177.634 278.49097
234.02797 1168.0345 305.92041
241.86177 1158.1041 334.29614
-211.43095 1191.5116 222.45898
-206.00961 1191.5116 222.45898
-202.40485 1182.198 248.92358
-196.93442 1182.198 248.92358
-191.464 1182.198 248.92358
-185.99359 1182.198 248.92358
-180.52318 1182.198 248.92358
-175.05284 1182.198 248.92358
-169.58243 1182.198 248.92358
-164.112 1182.198 248.92358
-158.64159 1182.198 248.92358
-153.17117 1182.198 248.92358
-146.37532 1191.5116 222.45898
-140.95399 1191.5116 222.45898
-135.53267 1191.5116 222.45898
-130.11134 1191.5116 222.45898
-124.69002 1191.5116 222.45898
-119.26879 1191.5116 222.45898
-113.84747 1191.5116 222.45898
-108.42614 1191.5116 222.45898
-103.00481 1191.5116 222.45898
-98.467163 1182.198 248.92358
-92.162254 1191.5116 222.45898
-86.740929 1191.5116 222.45898
-81.319603 1191.5116 222.45898
-75.898277 1191.5116 222.45898
-70.476952 1191.5116 222.45898
-65.055725 1191.5116 222.45898
-59.634396 1191.5116 222.45898
-54.21307 1191.5116 222.45898
-48.79174 1191.5116 222.45898
-43.370415 1191.5116 222.45898
-37.949188 1191.5116 222.45898
-32.527863 1191.5116 222.45898
-27.106535 1191.5116 222.45898
-21.488834 1200.8252 195.99414
-16.116598 1200.8252 195.99414
-10.744469 1200.8252 195.99414
-5.3722343 1200.8252 195.99414
0 1200.8252 195.99414
5.3721313 1200.8252 195.99414
10.744469 1200.8252 195.99414
16.116598 1200.8252 195.99414
21.488937 1200.8252 195.99414
26.861067 1200.8252 195.99414
32.233196 1200.8252 195.99414
37.605534 1200.8252 195.99414
42.977669 1200.8252 195.99414
48.350006 1200.8252 195.99414
53.722134 1200.8252 195.99414
59.094265 1200.8252 195.99414
64.466599 1200.8252 195.99414
70.476952 1191.5116 222.45898
75.211067 1200.8252 195.99414
80.583206 1200.8252 195.99414
86.740829 1191.5116 222.45898
92.162254 1191.5116 222.45898
97.583481 1191.5116 222.45898
103.00491 1191.5116 222.45898
108.42614 1191.5116 222.45898
113.84736 1191.5116 222.45898
119.26879 1191.5116 222.45898
124.69002 1191.5116 222.45898
130.11145 1191.5116 222.45898
135.53267 1191.5116 222.45898
140.9539 1191.5116 222.45898
146.37532 1191.5116 222.45898
151.79655 1191.5116 222.45898
157.21799 1191.5116 222.45898
162.63921 1191.5116 222.45898
168.06042 1191.5116 222.45898
175.05284 1182.198 248.92358
180.52318 1182.198 248.92358
185.9937 1182.198 248.92358
191.464 1182.198 248.92358
196.93433 1182.198 248.92358
202.40485 1182.198 248.92358
209.80733 1172.5516 276.3335
215.3287 1172.5516 276.3335
220.84987 1172.5516 276.3335
226.37105 1172.5516 276.3335
234.02797 1162.9054 303.74341
239.59998 1162.9054 303.74341
-218.81601 1177.1625 246.78613
-213.3456 1177.1625 246.78613
-207.87517 1177.1625 246.78613
-202.40485 1177.1625 246.78613
-196.93442 1177.1625 246.78613
-191.464 1177.1625 246.78613
-185.99359 1177.1625 246.78613
-180.52318 1177.1625 246.78613
-175.05284 1177.1625 246.78613
-169.58243 1177.1625 246.78613
-164.112 1177.1625 246.78613
-158.64159 1177.1625 246.78613
-153.17117 1177.1625 246.78613
-147.70084 1177.1625 246.78613
-142.23042 1177.1625 246.78613
-135.53267 1186.5212 220.34082
-130.11134 1186.5212 220.34082
-124.69002 1186.5212 220.34082
-119.26879 1186.5212 220.34082
-113.84747 1186.5212 220.34082
-108.42614 1186.5212 220.34082
-103.00481 1186.5212 220.34082
-97.583481 1186.5212 220.34082
-92.162254 1186.5212 220.34082
-86.740929 1186.5212 220.34082
-81.319603 1186.5212 220.34082
-75.898277 1186.5212 220.34082
-70.476952 1186.5212 220.34082
-65.055725 1186.5212 220.34082
-59.634396 1186.5212 220.34082
-54.21307 1186.5212 220.34082
-48.79174 1186.5212 220.34082
-43.370415 1186.5212 220.34082
-37.949188 1186.5212 220.34082
-32.527863 1186.5212 220.34082
-27.106535 1186.5212 220.34082
-21.488834 1195.88 193.89526
-16.116598 1195.88 193.89526
-10.744469 1195.88 193.89526
-5.3722343 1195.88 193.89526
0 1195.88 193.89526
5.3721313 1195.88 193.89526
10.744469 1195.88 193.89526
16.116598 1195.88 193.89526
21.488937 1195.88 193.89526
26.861067 1195.88 193.89526
32.233196 1195.88 193.89526
37.605534 1195.88 193.89526
42.977669 1195.88 193.89526
48.350006 1195.88 193.89526
53.722134 1195.88 193.89526
59.094265 1195.88 193.89526
64.466599 1195.88 193.89526
69.838737 1195.88 193.89526
75.211067 1195.88 193.89526
80.583206 1195.88 193.89526
86.740829 1186.5212 220.34082
92.162254 1186.5212 220.34082
97.583481 1186.5212 220.34082
103.00491 1186.5212 220.34082
108.42614 1186.5212 220.34082
113.84736 1186.5212 220.34082
119.26879 1186.5212 220.34082
124.69002 1186.5212 220.34082
130.11145 1186.5212 220.34082
135.53267 1186.5212 220.34082
140.9539 1186.5212 220.34082
146.37532 1186.5212 220.34082
151.79655 1186.5212 220.34082
157.21799 1186.5212 220.34082
162.63921 1186.5212 220.34082
168.06042 1186.5212 220.34082
175.05284 1177.1625 246.78613
180.52318 1177.1625 246.78613
185.9937 1177.1625 246.78613
191.464 1177.1625 246.78613
196.93433 1177.1625 246.78613
204.28618 1167.4694 274.17627
209.80733 1167.4694 274.17627
215.3287 1167.4694 274.17627
220.84987 1167.4694 274.17627
226.37105 1167.4694 274.17627
231.89241 1167.4694 274.17627
239.59998 1157.7764 301.56616
-226.37114 1162.387 272.0188
-218.81601 1172.127 244.64868
-213.3456 1172.127 244.64868
-207.87517 1172.127 244.64868
-202.40485 1172.127 244.64868
-196.93442 1172.127 244.64868
-191.464 1172.127 244.64868
-185.99359 1172.127 244.64868
-180.52318 1172.127 244.64868
-175.05284 1172.127 244.64868
-169.58243 1172.127 244.64868
-164.112 1172.127 244.64868
-158.64159 1172.127 244.64868
-153.17117 1172.127 244.64868
-147.70084 1172.127 244.64868
-142.23042 1172.127 244.64868
-135.53267 1181.5309 218.22241
-130.11134 1181.5309 218.22241
-124.69002 1181.5309 218.22241
-119.26879 1181.5309 218.22241
-113.84747 1181.5309 218.22241
-108.42614 1181.5309 218.22241
-103.00481 1181.5309 218.22241
-97.583481 1181.5309 218.22241
-92.162254 1181.5309 218.22241
-86.740929 1181.5309 218.22241
-81.319603 1181.5309 218.22241
-75.898277 1181.5309 218.22241
-70.476952 1181.5309 218.22241
-65.055725 1181.5309 218.22241
-59.634396 1181.5309 218.22241
-54.21307 1181.5309 218.22241
-48.79174 1181.5309 218.22241
-43.370415 1181.5309 218.22241
-37.949188 1181.5309 218.22241
-32.527863 1181.5309 218.22241
-27.106535 1181.5309 218.22241
-21.488834 1190.9348 191.79614
-16.116598 1190.9348 191.79614
-10.744469 1190.9348 191.79614
-5.3722343 1190.9348 191.79614
0 1190.9348 191.79614
5.3721313 1190.9348 191.79614
10.744469 1190.9348 191.79614
16.116598 1190.9348 191.79614
21.488937 1190.9348 191.79614
26.861067 1190.9348 191.79614
32.233196 1190.9348 191.79614
37.605534 1190.9348 191.79614
42.977669 1190.9348 191.79614
48.350006 1190.9348 191.79614
53.722134 1190.9348 191.79614
59.094265 1190.9348 191.79614
64.466599 1190.9348 191.79614
69.838737 1190.9348 191.79614
75.211067 1190.9348 191.79614
80.583206 1190.9348 191.79614
86.740829 1181.5309 218.22241
92.162254 1181.5309 218.22241
97.583481 1181.5309 218.22241
103.00491 1181.5309 218.22241
108.42614 1181.5309 218.22241
113.84736 1181.5309 218.22241
119.26879 1181.5309 218.22241
124.69002 1181.5309 218.22241
130.11145 1181.5309 218.22241
135.53267 1181.5309 218.22241
140.9539 1181.5309 218.22241
146.37532 1181.5309 218.22241
151.79655 1181.5309 218.22241
157.21799 1181.5309 218.22241
162.63921 1181.5309 218.22241
168.06042 1181.5309 218.22241
175.05284 1172.127 244.64868
180.52318 1172.127 244.64868
185.9937 1172.127 244.64868
193.24364 1162.387 272.0188
198.7648 1162.387 272.0188
204.28618 1162.387 272.0188
209.80733 1162.387 272.0188
215.3287 1162.387 272.0188
220.84987 1162.387 272.0188
226.37105 1162.387 272.0188
231.89241 1162.387 272.0188
239.59998 1152.6472 299.38892
247.4866 1142.5715 327.70288
-226.37114 1157.3047 269.86157
-220.84987 1157.3047 269.86157
-215.3286 1157.3047 269.86157
-209.80733 1157.3047 269.86157
-204.28618 1157.3047 269.86157
-198.76491 1157.3047 269.86157
-191.464 1167.0914 242.51123
-185.99359 1167.0914 242.51123
-180.52318 1167.0914 242.51123
-175.05284 1167.0914 242.51123
-169.58243 1167.0914 242.51123
-164.112 1167.0914 242.51123
-158.64159 1167.0914 242.51123
-153.17117 1167.0914 242.51123
-147.70084 1167.0914 242.51123
-142.23042 1167.0914 242.51123
-135.53267 1176.5405 216.10425
-130.11134 1176.5405 216.10425
-124.69002 1176.5405 216.10425
-118.18874 1185.9897 189.69702
-112.81651 1185.9897 189.69702
-108.42614 1176.5405 216.10425
-103.00481 1176.5405 216.10425
-97.583481 1176.5405 216.10425
-92.162254 1176.5405 216.10425
-86.740929 1176.5405 216.10425
-81.319603 1176.5405 216.10425
-75.898277 1176.5405 216.10425
-70.476952 1176.5405 216.10425
-65.055725 1176.5405 216.10425
-59.634396 1176.5405 216.10425
-54.21307 1176.5405 216.10425
-48.79174 1176.5405 216.10425
-43.370415 1176.5405 216.10425
-37.949188 1176.5405 216.10425
-32.527863 1176.5405 216.10425
-27.106535 1176.5405 216.10425
-21.488834 1185.9897 189.69702
-16.116598 1185.9897 189.69702
-10.744469 1185.9897 189.69702
-5.3722343 1185.9897 189.69702
0 1185.9897 189.69702
5.3721313 1185.9897 189.69702
10.744469 1185.9897 189.69702
16.116598 1185.9897 189.69702
21.488937 1185.9897 189.69702
26.861067 1185.9897 189.69702
32.233196 1185.9897 189.69702
37.605534 1185.9897 189.69702
42.977669 1185.9897 189.69702
48.350006 1185.9897 189.69702
53.722134 1185.9897 189.69702
59.094265 1185.9897 189.69702
64.466599 1185.9897 189.69702
69.838737 1185.9897 189.69702
75.211067 1185.9897 189.69702
80.583206 1185.9897 189.69702
86.740829 1176.5405 216.10425
92.162254 1176.5405 216.10425
97.583481 1176.5405 216.10425
103.00491 1176.5405 216.10425
108.42614 1176.5405 216.10425
113.84736 1176.5405 216.10425
119.26879 1176.5405 216.10425
124.69002 1176.5405 216.10425
130.11145 1176.5405 216.10425
135.53267 1176.5405 216.10425
140.9539 1176.5405 216.10425
146.37532 1176.5405 216.10425
151.79655 1176.5405 216.10425
157.21799 1176.5405 216.10425
162.63921 1176.5405 216.10425
168.06042 1176.5405 216.10425
175.05284 1167.0914 242.51123
180.52318 1167.0914 242.51123
185.9937 1167.0914 242.51123
193.24364 1157.3047 269.86157
198.7648 1157.3047 269.86157
204.28618 1157.3047 269.86157
209.80733 1157.3047 269.86157
215.3287 1157.3047 269.86157
220.84987 1157.3047 269.86157
226.37105 1157.3047 269.86157
234.02797 1147.5181 297.21167
239.59998 1147.5181 297.21167
247.4866 1137.3939 325.50513
253.11121 1137.3939 325.50513
-234.02797 1142.3889 295.03467
-226.37114 1152.2223 267.70435
-220.84987 1152.2223 267.70435
-215.3286 1152.2223 267.70435
-209.80733 1152.2223 267.70435
-204.28618 1152.2223 267.70435
-198.76491 1152.2223 267.70435
-191.464 1162.0559 240.37378
-185.99359 1162.0559 240.37378
-180.52318 1162.0559 240.37378
-175.05284 1162.0559 240.37378
-169.58243 1162.0559 240.37378
-164.112 1162.0559 240.37378
-158.64159 1162.0559 240.37378
-153.17117 1162.0559 240.37378
-147.70084 1162.0559 240.37378
-142.23042 1162.0559 240.37378
-135.53267 1171.5502 213.98584
-130.11134 1171.5502 213.98584
-124.69002 1171.5502 213.98584
-118.18874 1181.0446 187.5979
-112.81651 1181.0446 187.5979
-108.42614 1171.5502 213.98584
-103.00481 1171.5502 213.98584
-97.583481 1171.5502 213.98584
-92.162254 1171.5502 213.98584
-86.740929 1171.5502 213.98584
-81.319603 1171.5502 213.98584
-75.898277 1171.5502 213.98584
-70.476952 1171.5502 213.98584
-65.055725 1171.5502 213.98584
-59.634396 1171.5502 213.98584
-54.21307 1171.5502 213.98584
-48.79174 1171.5502 213.98584
-43.370415 1171.5502 213.98584
-37.949188 1171.5502 213.98584
-32.527863 1171.5502 213.98584
-27.106535 1171.5502 213.98584
-21.488834 1181.0446 187.5979
-16.116598 1181.0446 187.5979
-10.744469 1181.0446 187.5979
-5.3722343 1181.0446 187.5979
0 1181.0446 187.5979
5.3721313 1181.0446 187.5979
10.744469 1181.0446 187.5979
16.116598 1181.0446 187.5979
21.488937 1181.0446 187.5979
26.861067 1181.0446 187.5979
32.233196 1181.0446 187.5979
37.605534 1181.0446 187.5979
42.977669 1181.0446 187.5979
48.350006 1181.0446 187.5979
53.722134 1181.0446 187.5979
59.094265 1181.0446 187.5979
64.466599 1181.0446 187.5979
69.838737 1181.0446 187.5979
75.211067 1181.0446 187.5979
80.583206 1181.0446 187.5979
86.740829 1171.5502 213.98584
92.162254 1171.5502 213.98584
97.583481 1171.5502 213.98584
103.00491 1171.5502 213.98584
107.44427 1181.0446 187.5979
112.81641 1181.0446 187.5979
119.26879 1171.5502 213.98584
124.69002 1171.5502 213.98584
130.11145 1171.5502 213.98584
135.53267 1171.5502 213.98584
140.9539 1171.5502 213.98584
146.37532 1171.5502 213.98584
151.79655 1171.5502 213.98584
157.21799 1171.5502 213.98584
162.63921 1171.5502 213.98584
168.06042 1171.5502 213.98584
175.05284 1162.0559 240.37378
180.52318 1162.0559 240.37378
187.72247 1152.2223 267.70435
193.24364 1152.2223 267.70435
198.7648 1152.2223 267.70435
204.28618 1152.2223 267.70435
209.80733 1152.2223 267.70435
215.3287 1152.2223 267.70435
220.84987 1152.2223 267.70435
228.45575 1142.3889 295.03467
234.02797 1142.3889 295.03467
239.59998 1142.3889 295.03467
247.4866 1132.2163 323.30762
253.11121 1132.2163 323.30762
-234.02797 1137.2598 292.85742
-228.45584 1137.2598 292.85742
-220.84987 1147.14 265.54688
-215.3286 1147.14 265.54688
-209.80733 1147.14 265.54688
-204.28618 1147.14 265.54688
-198.76491 1147.14 265.54688
-193.24364 1147.14 265.54688
-185.99359 1157.0204 238.23633
-180.52318 1157.0204 238.23633
-175.05284 1157.0204 238.23633
-169.58243 1157.0204 238.23633
-164.112 1157.0204 238.23633
-158.64159 1157.0204 238.23633
-153.17117 1157.0204 238.23633
-147.70084 1157.0204 238.23633
-142.23042 1157.0204 238.23633
-135.53267 1166.5599 211.86768
-130.11134 1166.5599 211.86768
-124.69002 1166.5599 211.86768
-119.26879 1166.5599 211.86768
-113.84747 1166.5599 211.86768
-108.42614 1166.5599 211.86768
-103.00481 1166.5599 211.86768
-97.583481 1166.5599 211.86768
-92.162254 1166.5599 211.86768
-86.740929 1166.5599 211.86768
-81.319603 1166.5599 211.86768
-75.898277 1166.5599 211.86768
-70.476952 1166.5599 211.86768
-65.055725 1166.5599 211.86768
-59.634396 1166.5599 211.86768
-54.21307 1166.5599 211.86768
-48.79174 1166.5599 211.86768
-43.370415 1166.5599 211.86768
-37.949188 1166.5599 211.86768
-32.527863 1166.5599 211.86768
-27.106535 1166.5599 211.86768
-21.488834 1176.0994 185.49878
-16.116598 1176.0994 185.49878
-10.744469 1176.0994 185.49878
-5.3722343 1176.0994 185.49878
0 1176.0994 185.49878
5.3721313 1176.0994 185.49878
10.744469 1176.0994 185.49878
16.116598 1176.0994 185.49878
21.488937 1176.0994 185.49878
26.861067 1176.0994 185.49878
32.233196 1176.0994 185.49878
37.605534 1176.0994 185.49878
42.977669 1176.0994 185.49878
48.350006 1176.0994 185.49878
53.722134 1176.0994 185.49878
59.094265 1176.0994 185.49878
64.466599 1176.0994 185.49878
69.838737 1176.0994 185.49878
75.211067 1176.0994 185.49878
80.583206 1176.0994 185.49878
86.740829 1166.5599 211.86768
92.162254 1166.5599 211.86768
97.583481 1166.5599 211.86768
103.00491 1166.5599 211.86768
107.44427 1176.0994 185.49878
112.81641 1176.0994 185.49878
118.18874 1176.0994 185.49878
123.56087 1176.0994 185.49878
130.11145 1166.5599 211.86768
134.30534 1176.0994 185.49878
139.67747 1176.0994 185.49878
146.37532 1166.5599 211.86768
151.79655 1166.5599 211.86768
157.21799 1166.5599 211.86768
162.63921 1166.5599 211.86768
168.06042 1166.5599 211.86768
175.05284 1157.0204 238.23633
180.52318 1157.0204 238.23633
187.72247 1147.14 265.54688
193.24364 1147.14 265.54688
198.7648 1147.14 265.54688
204.28618 1147.14 265.54688
209.80733 1147.14 265.54688
215.3287 1147.14 265.54688
222.88374 1137.2598 292.85742
228.45575 1137.2598 292.85742
234.02797 1137.2598 292.85742
239.59998 1137.2598 292.85742
245.17221 1137.2598 292.85742
253.11121 1127.0388 321.10986
-234.02797 1132.1306 290.68018
-228.45584 1132.1306 290.68018
-220.84987 1142.0576 263.38965
-215.3286 1142.0576 263.38965
-209.80733 1142.0576 263.38965
-204.28618 1142.0576 263.38965
-198.76491 1142.0576 263.38965
-193.24364 1142.0576 263.38965
-185.99359 1151.9849 236.09888
-180.52318 1151.9849 236.09888
-175.05284 1151.9849 236.09888
-169.58243 1151.9849 236.09888
-164.112 1151.9849 236.09888
-158.64159 1151.9849 236.09888
-153.17117 1151.9849 236.09888
-147.70084 1151.9849 236.09888
-142.23042 1151.9849 236.09888
-136.76001 1151.9849 236.09888
-130.11134 1161.5696 209.74927
-124.69002 1161.5696 209.74927
-119.26879 1161.5696 209.74927
-112.81651 1171.1543 183.39966
-107.44427 1171.1543 183.39966
-103.00481 1161.5696 209.74927
-97.583481 1161.5696 209.74927
-92.162254 1161.5696 209.74927
-86.740929 1161.5696 209.74927
-81.319603 1161.5696 209.74927
-75.898277 1161.5696 209.74927
-70.476952 1161.5696 209.74927
-65.055725 1161.5696 209.74927
-59.634396 1161.5696 209.74927
-54.21307 1161.5696 209.74927
-48.79174 1161.5696 209.74927
-43.370415 1161.5696 209.74927
-37.949188 1161.5696 209.74927
-32.527863 1161.5696 209.74927
-27.106535 1161.5696 209.74927
-21.488834 1171.1543 183.39966
-16.116598 1171.1543 183.39966
-10.744469 1171.1543 183.39966
-5.3722343 1171.1543 183.39966
0 1171.1543 183.39966
5.3721313 1171.1543 183.39966
10.744469 1171.1543 183.39966
16.116598 1171.1543 183.39966
21.488937 1171.1543 183.39966
26.861067 1171.1543 183.39966
32.233196 1171.1543 183.39966
37.605534 1171.1543 183.39966
42.977669 1171.1543 183.39966
48.350006 1171.1543 183.39966
53.722134 1171.1543 183.39966
59.094265 1171.1543 183.39966
64.466599 1171.1543 183.39966
70.476952 1161.5696 209.74927
75.211067 1171.1543 183.39966
80.583206 1171.1543 183.39966
86.740829 1161.5696 209.74927
92.162254 1161.5696 209.74927
97.583481 1161.5696 209.74927
103.00491 1161.5696 209.74927
107.44427 1171.1543 183.39966
112.81641 1171.1543 183.39966
118.18874 1171.1543 183.39966
123.56087 1171.1543 183.39966
128.9332 1171.1543 183.39966
134.30534 1171.1543 183.39966
139.67747 1171.1543 183.39966
145.04982 1171.1543 183.39966
151.79655 1161.5696 209.74927
157.21799 1161.5696 209.74927
162.63921 1161.5696 209.74927
169.58232 1151.9849 236.09888
175.05284 1151.9849 236.09888
180.52318 1151.9849 236.09888
187.72247 1142.0576 263.38965
193.24364 1142.0576 263.38965
198.7648 1142.0576 263.38965
204.28618 1142.0576 263.38965
209.80733 1142.0576 263.38965
215.3287 1142.0576 263.38965
220.84987 1142.0576 263.38965
228.45575 1132.1306 290.68018
234.02797 1132.1306 290.68018
239.59998 1132.1306 290.68018
245.17221 1132.1306 290.68018
250.7442 1132.1306 290.68018
258.73581 1121.8613 318.91211
-234.02797 1127.0015 288.50293
-228.45584 1127.0015 288.50293
-220.84987 1136.9753 261.23218
-215.3286 1136.9753 261.23218
-209.80733 1136.9753 261.23218
-204.28618 1136.9753 261.23218
-198.76491 1136.9753 261.23218
-191.464 1146.9493 233.96143
-185.99359 1146.9493 233.96143
-180.52318 1146.9493 233.96143
-175.05284 1146.9493 233.96143
-169.58243 1146.9493 233.96143
-164.112 1146.9493 233.96143
-158.64159 1146.9493 233.96143
-153.17117 1146.9493 233.96143
-147.70084 1146.9493 233.96143
-142.23042 1146.9493 233.96143
-136.76001 1146.9493 233.96143
-130.11134 1156.5792 207.6311
-124.69002 1156.5792 207.6311
-119.26879 1156.5792 207.6311
-112.81651 1166.2091 181.30054
-107.44427 1166.2091 181.30054
-103.00481 1156.5792 207.6311
-97.583481 1156.5792 207.6311
-92.162254 1156.5792 207.6311
-86.740929 1156.5792 207.6311
-81.319603 1156.5792 207.6311
-75.898277 1156.5792 207.6311
-70.476952 1156.5792 207.6311
-65.055725 1156.5792 207.6311
-59.634396 1156.5792 207.6311
-54.21307 1156.5792 207.6311
-48.349903 1166.2091 181.30054
-42.977669 1166.2091 181.30054
-37.605534 1166.2091 181.30054
-32.233299 1166.2091 181.30054
-27.106535 1156.5792 207.6311
-21.488834 1166.2091 181.30054
-16.116598 1166.2091 181.30054
-10.744469 1166.2091 181.30054
-5.3722343 1166.2091 181.30054
0 1166.2091 181.30054
5.3721313 1166.2091 181.30054
10.744469 1166.2091 181.30054
16.116598 1166.2091 181.30054
21.488937 1166.2091 181.30054
26.861067 1166.2091 181.30054
32.233196 1166.2091 181.30054
37.605534 1166.2091 181.30054
42.977669 1166.2091 181.30054
47.923943 1175.4952 155.9104
53.248734 1175.4952 155.9104
59.094265 1166.2091 181.30054
64.466599 1166.2091 181.30054
69.838737 1166.2091 181.30054
75.211067 1166.2091 181.30054
80.583206 1166.2091 181.30054
85.955338 1166.2091 181.30054
91.327667 1166.2091 181.30054
96.699806 1166.2091 181.30054
102.07214 1166.2091 181.30054
107.44427 1166.2091 181.30054
112.81641 1166.2091 181.30054
118.18874 1166.2091 181.30054
123.56087 1166.2091 181.30054
128.9332 1166.2091 181.30054
134.30534 1166.2091 181.30054
139.67747 1166.2091 181.30054
145.04982 1166.2091 181.30054
151.79655 1156.5792 207.6311
157.21799 1156.5792 207.6311
162.63921 1156.5792 207.6311
169.58232 1146.9493 233.96143
175.05284 1146.9493 233.96143
180.52318 1146.9493 233.96143
187.72247 1136.9753 261.23218
193.24364 1136.9753 261.23218
198.7648 1136.9753 261.23218
204.28618 1136.9753 261.23218
209.80733 1136.9753 261.23218
215.3287 1136.9753 261.23218
220.84987 1136.9753 261.23218
226.37105 1136.9753 261.23218
234.02797 1127.0015 288.50293
237.41357 1136.9753 261.23218
242.93494 1136.9753 261.23218
250.7442 1127.0015 288.50293
258.73581 1116.6837 316.71436
-239.59998 1121.8723 286.32593
-234.02797 1121.8723 286.32593
-228.45584 1121.8723 286.32593
-220.84987 1131.8931 259.07495
-215.3286 1131.8931 259.07495
-209.80733 1131.8931 259.07495
-204.28618 1131.8931 259.07495
-198.76491 1131.8931 259.07495
-191.464 1141.9138 231.82397
-185.99359 1141.9138 231.82397
-180.52318 1141.9138 231.82397
-175.05284 1141.9138 231.82397
-169.58243 1141.9138 231.82397
-164.112 1141.9138 231.82397
-158.64159 1141.9138 231.82397
-153.17117 1141.9138 231.82397
-147.70084 1141.9138 231.82397
-142.23042 1141.9138 231.82397
-135.53267 1151.5889 205.51294
-130.11134 1151.5889 205.51294
-124.69002 1151.5889 205.51294
-119.26879 1151.5889 205.51294
-113.84747 1151.5889 205.51294
-108.42614 1151.5889 205.51294
-103.00481 1151.5889 205.51294
-97.583481 1151.5889 205.51294
-92.162254 1151.5889 205.51294
-86.740929 1151.5889 205.51294
-81.319603 1151.5889 205.51294
-75.898277 1151.5889 205.51294
-70.476952 1151.5889 205.51294
-65.055725 1151.5889 205.51294
-59.634396 1151.5889 205.51294
-53.722134 1161.264 179.20166
-48.349903 1161.264 179.20166
-42.977669 1161.264 179.20166
-37.605534 1161.264 179.20166
-32.233299 1161.264 179.20166
-26.861067 1161.264 179.20166
-21.299473 1170.5936 153.82983
-15.97458 1170.5936 153.82983
-10.649788 1170.5936 153.82983
-5.3722343 1161.264 179.20166
0 1161.264 179.20166
5.3721313 1161.264 179.20166
10.744469 1161.264 179.20166
16.116598 1161.264 179.20166
21.488937 1161.264 179.20166
26.861067 1161.264 179.20166
31.94916 1170.5936 153.82983
37.274155 1170.5936 153.82983
42.977669 1161.264 179.20166
47.923943 1170.5936 153.82983
53.248734 1170.5936 153.82983
59.094265 1161.264 179.20166
64.466599 1161.264 179.20166
69.838737 1161.264 179.20166
75.211067 1161.264 179.20166
80.583206 1161.264 179.20166
85.955338 1161.264 179.20166
91.327667 1161.264 179.20166
96.699806 1161.264 179.20166
102.07214 1161.264 179.20166
107.44427 1161.264 179.20166
112.81641 1161.264 179.20166
118.18874 1161.264 179.20166
123.56087 1161.264 179.20166
130.11145 1151.5889 205.51294
135.53267 1151.5889 205.51294
140.9539 1151.5889 205.51294
146.37532 1151.5889 205.51294
151.79655 1151.5889 205.51294
157.21799 1151.5889 205.51294
162.63921 1151.5889 205.51294
169.58232 1141.9138 231.82397
175.05284 1141.9138 231.82397
180.52318 1141.9138 231.82397
187.72247 1131.8931 259.07495
193.24364 1131.8931 259.07495
198.7648 1131.8931 259.07495
204.28618 1131.8931 259.07495
209.80733 1131.8931 259.07495
215.3287 1131.8931 259.07495
220.84987 1131.8931 259.07495
226.37105 1131.8931 259.07495
231.89241 1131.8931 259.07495
237.41357 1131.8931 259.07495
242.93494 1131.8931 259.07495
250.7442 1121.8723 286.32593
256.31622 1121.8723 286.32593
-239.59998 1116.7433 284.14868
-234.02797 1116.7433 284.14868
-228.45584 1116.7433 284.14868
-220.84987 1126.8107 256.91772
-215.3286 1126.8107 256.91772
-209.80733 1126.8107 256.91772
-204.28618 1126.8107 256.91772
-198.76491 1126.8107 256.91772
-191.464 1136.8783 229.68652
-185.99359 1136.8783 229.68652
-180.52318 1136.8783 229.68652
-175.05284 1136.8783 229.68652
-169.58243 1136.8783 229.68652
-164.112 1136.8783 229.68652
-158.64159 1136.8783 229.68652
-153.17117 1136.8783 229.68652
-147.70084 1136.8783 229.68652
-142.23042 1136.8783 229.68652
-135.53267 1146.5985 203.39453
-130.11134 1146.5985 203.39453
-124.69002 1146.5985 203.39453
-119.26879 1146.5985 203.39453
-112.81651 1156.3188 177.10254
-107.44427 1156.3188 177.10254
-103.00481 1146.5985 203.39453
-97.583481 1146.5985 203.39453
-92.162254 1146.5985 203.39453
-86.740929 1146.5985 203.39453
-81.319603 1146.5985 203.39453
-75.898277 1146.5985 203.39453
-70.476952 1146.5985 203.39453
-65.055725 1146.5985 203.39453
-59.634396 1146.5985 203.39453
-53.722134 1156.3188 177.10254
-48.349903 1156.3188 177.10254
-42.977669 1156.3188 177.10254
-37.274155 1165.692 151.74927
-31.949263 1165.692 151.74927
-26.624367 1165.692 151.74927
-21.299473 1165.692 151.74927
-15.97458 1165.692 151.74927
-10.649788 1165.692 151.74927
-5.3722343 1156.3188 177.10254
0 1156.3188 177.10254
5.3721313 1156.3188 177.10254
10.744469 1156.3188 177.10254
16.116598 1156.3188 177.10254
21.488937 1156.3188 177.10254
26.861067 1156.3188 177.10254
31.94916 1165.692 151.74927
37.274155 1165.692 151.74927
42.977669 1156.3188 177.10254
47.923943 1165.692 151.74927
53.248734 1165.692 151.74927
59.094265 1156.3188 177.10254
64.466599 1156.3188 177.10254
69.838737 1156.3188 177.10254
75.211067 1156.3188 177.10254
80.583206 1156.3188 177.10254
85.955338 1156.3188 177.10254
91.327667 1156.3188 177.10254
96.699806 1156.3188 177.10254
102.07214 1156.3188 177.10254
107.44427 1156.3188 177.10254
112.81641 1156.3188 177.10254
118.18874 1156.3188 177.10254
123.56087 1156.3188 177.10254
130.11145 1146.5985 203.39453
135.53267 1146.5985 203.39453
140.9539 1146.5985 203.39453
146.37532 1146.5985 203.39453
151.79655 1146.5985 203.39453
157.21799 1146.5985 203.39453
164.112 1136.8783 229.68652
169.58232 1136.8783 229.68652
175.05284 1136.8783 229.68652
180.52318 1136.8783 229.68652
187.72247 1126.8107 256.91772
193.24364 1126.8107 256.91772
198.7648 1126.8107 256.91772
204.28618 1126.8107 256.91772
209.80733 1126.8107 256.91772
215.3287 1126.8107 256.91772
220.84987 1126.8107 256.91772
226.37105 1126.8107 256.91772
231.89241 1126.8107 256.91772
237.41357 1126.8107 256.91772
242.93494 1126.8107 256.91772
250.7442 1116.7433 284.14868
256.31622 1116.7433 284.14868
261.88843 1116.7433 284.14868
-234.02797 1111.6141 281.97144
-226.37114 1121.7284 254.76025
-220.84987 1121.7284 254.76025
-215.3286 1121.7284 254.76025
-209.80733 1121.7284 254.76025
-204.28618 1121.7284 254.76025
-196.93442 1131.8428 227.54883
-191.464 1131.8428 227.54883
-185.99359 1131.8428 227.54883
-180.52318 1131.8428 227.54883
-175.05284 1131.8428 227.54883
-169.58243 1131.8428 227.54883
-164.112 1131.8428 227.54883
-158.64159 1131.8428 227.54883
-153.17117 1131.8428 227.54883
-146.37532 1141.6082 201.27637
-140.95399 1141.6082 201.27637
-135.53267 1141.6082 201.27637
-130.11134 1141.6082 201.27637
-124.69002 1141.6082 201.27637
-119.26879 1141.6082 201.27637
-112.81651 1151.3737 175.00342
-107.44427 1151.3737 175.00342
-102.07204 1151.3737 175.00342
-96.699806 1151.3737 175.00342
-91.327667 1151.3737 175.00342
-85.955437 1151.3737 175.00342
-80.583206 1151.3737 175.00342
-75.898277 1141.6082 201.27637
-69.838737 1151.3737 175.00342
-64.466599 1151.3737 175.00342
-59.094368 1151.3737 175.00342
-53.722134 1151.3737 175.00342
-48.349903 1151.3737 175.00342
-42.598946 1160.7905 149.6687
-37.274155 1160.7905 149.6687
-31.949263 1160.7905 149.6687
-26.624367 1160.7905 149.6687
-21.299473 1160.7905 149.6687
-15.97458 1160.7905 149.6687
-10.649788 1160.7905 149.6687
-5.3722343 1151.3737 175.00342
0 1151.3737 175.00342
5.3721313 1151.3737 175.00342
10.744469 1151.3737 175.00342
16.116598 1151.3737 175.00342
21.488937 1151.3737 175.00342
26.861067 1151.3737 175.00342
31.94916 1160.7905 149.6687
37.274155 1160.7905 149.6687
42.598946 1160.7905 149.6687
47.923943 1160.7905 149.6687
53.248734 1160.7905 149.6687
58.573528 1160.7905 149.6687
63.898525 1160.7905 149.6687
69.223312 1160.7905 149.6687
75.211067 1151.3737 175.00342
80.583206 1151.3737 175.00342
85.955338 1151.3737 175.00342
91.327667 1151.3737 175.00342
96.699806 1151.3737 175.00342
102.07214 1151.3737 175.00342
107.44427 1151.3737 175.00342
112.81641 1151.3737 175.00342
118.18874 1151.3737 175.00342
123.56087 1151.3737 175.00342
130.11145 1141.6082 201.27637
135.53267 1141.6082 201.27637
140.9539 1141.6082 201.27637
146.37532 1141.6082 201.27637
151.79655 1141.6082 201.27637
157.21799 1141.6082 201.27637
164.112 1131.8428 227.54883
169.58232 1131.8428 227.54883
175.05284 1131.8428 227.54883
182.2011 1121.7284 254.76025
187.72247 1121.7284 254.76025
193.24364 1121.7284 254.76025
198.7648 1121.7284 254.76025
204.28618 1121.7284 254.76025
209.80733 1121.7284 254.76025
215.3287 1121.7284 254.76025
220.84987 1121.7284 254.76025
226.37105 1121.7284 254.76025
231.89241 1121.7284 254.76025
237.41357 1121.7284 254.76025
242.93494 1121.7284 254.76025
248.45612 1121.7284 254.76025
256.31622 1111.6141 281.97144
261.88843 1111.6141 281.97144
-231.89241 1116.646 252.60303
-226.37114 1116.646 252.60303
-220.84987 1116.646 252.60303
-215.3286 1116.646 252.60303
-209.80733 1116.646 252.60303
-204.28618 1116.646 252.60303
-196.93442 1126.8073 225.41138
-191.464 1126.8073 225.41138
-185.99359 1126.8073 225.41138
-180.52318 1126.8073 225.41138
-175.05284 1126.8073 225.41138
-169.58243 1126.8073 225.41138
-164.112 1126.8073 225.41138
-158.64159 1126.8073 225.41138
-153.17117 1126.8073 225.41138
-146.37532 1136.6179 199.15796
-140.95399 1136.6179 199.15796
-135.53267 1136.6179 199.15796
-130.11134 1136.6179 199.15796
-124.69002 1136.6179 199.15796
-118.18874 1146.4286 172.9043
-112.81651 1146.4286 172.9043
-107.44427 1146.4286 172.9043
-102.07204 1146.4286 172.9043
-96.699806 1146.4286 172.9043
-91.327667 1146.4286 172.9043
-85.955437 1146.4286 172.9043
-80.583206 1146.4286 172.9043
-75.210968 1146.4286 172.9043
-69.838737 1146.4286 172.9043
-64.466599 1146.4286 172.9043
-59.094368 1146.4286 172.9043
-53.722134 1146.4286 172.9043
-48.349903 1146.4286 172.9043
-42.598946 1155.8889 147.58813
-37.274155 1155.8889 147.58813
-31.949263 1155.8889 147.58813
-26.624367 1155.8889 147.58813
-21.299473 1155.8889 147.58813
-15.97458 1155.8889 147.58813
-10.649788 1155.8889 147.58813
-5.324894 1155.8889 147.58813
0 1155.8889 147.58813
5.3247924 1155.8889 147.58813
10.744469 1146.4286 172.9043
16.116598 1146.4286 172.9043
21.488937 1146.4286 172.9043
26.624367 1155.8889 147.58813
31.94916 1155.8889 147.58813
37.274155 1155.8889 147.58813
42.598946 1155.8889 147.58813
47.923943 1155.8889 147.58813
53.248734 1155.8889 147.58813
58.573528 1155.8889 147.58813
63.898525 1155.8889 147.58813
69.223312 1155.8889 147.58813
74.548309 1155.8889 147.58813
80.583206 1146.4286 172.9043
85.955338 1146.4286 172.9043
91.327667 1146.4286 172.9043
96.699806 1146.4286 172.9043
102.07214 1146.4286 172.9043
107.44427 1146.4286 172.9043
112.81641 1146.4286 172.9043
118.18874 1146.4286 172.9043
123.56087 1146.4286 172.9043
128.9332 1146.4286 172.9043
135.53267 1136.6179 199.15796
140.9539 1136.6179 199.15796
146.37532 1136.6179 199.15796
151.79655 1136.6179 199.15796
157.21799 1136.6179 199.15796
164.112 1126.8073 225.41138
169.58232 1126.8073 225.41138
175.05284 1126.8073 225.41138
180.52318 1126.8073 225.41138
187.72247 1116.646 252.60303
193.24364 1116.646 252.60303
198.7648 1116.646 252.60303
204.28618 1116.646 252.60303
209.80733 1116.646 252.60303
215.3287 1116.646 252.60303
220.84987 1116.646 252.60303
226.37105 1116.646 252.60303
231.89241 1116.646 252.60303
237.41357 1116.646 252.60303
242.93494 1116.646 252.60303
248.45612 1116.646 252.60303
256.31622 1106.485 279.79419
261.88843 1106.485 279.79419
269.98526 1095.9735 307.92334
-231.89241 1111.5637 250.4458
-224.28642 1121.7717 223.27393
-218.81601 1121.7717 223.27393
-213.3456 1121.7717 223.27393
-207.87517 1121.7717 223.27393
-202.40485 1121.7717 223.27393
-196.93442 1121.7717 223.27393
-191.464 1121.7717 223.27393
-185.99359 1121.7717 223.27393
-180.52318 1121.7717 223.27393
-175.05284 1121.7717 223.27393
-169.58243 1121.7717 223.27393
-162.63921 1131.6276 197.03979
-157.21788 1131.6276 197.03979
-151.79655 1131.6276 197.03979
-146.37532 1131.6276 197.03979
-140.95399 1131.6276 197.03979
-135.53267 1131.6276 197.03979
-130.11134 1131.6276 197.03979
-123.56087 1141.4834 170.80518
-118.18874 1141.4834 170.80518
-112.81651 1141.4834 170.80518
-106.49747 1150.9873 145.50757
-101.17258 1150.9873 145.50757
-95.847679 1150.9873 145.50757
-90.522888 1150.9873 145.50757
-85.197998 1150.9873 145.50757
-79.8731 1150.9873 145.50757
-75.210968 1141.4834 170.80518
-69.838737 1141.4834 170.80518
-64.466599 1141.4834 170.80518
-59.094368 1141.4834 170.80518
-53.722134 1141.4834 170.80518
-48.349903 1141.4834 170.80518
-42.598946 1150.9873 145.50757
-37.274155 1150.9873 145.50757
-31.949263 1150.9873 145.50757
-26.624367 1150.9873 145.50757
-21.110115 1160.4912 120.20996
-15.83256 1160.4912 120.20996
-10.555108 1160.4912 120.20996
-5.277554 1160.4912 120.20996
0 1150.9873 145.50757
5.3247924 1150.9873 145.50757
10.649788 1150.9873 145.50757
16.116598 1141.4834 170.80518
21.488937 1141.4834 170.80518
26.624367 1150.9873 145.50757
31.94916 1150.9873 145.50757
37.274155 1150.9873 145.50757
42.598946 1150.9873 145.50757
47.923943 1150.9873 145.50757
53.248734 1150.9873 145.50757
58.573528 1150.9873 145.50757
63.898525 1150.9873 145.50757
69.223312 1150.9873 145.50757
74.548309 1150.9873 145.50757
80.583206 1141.4834 170.80518
85.955338 1141.4834 170.80518
90.522888 1150.9873 145.50757
95.847679 1150.9873 145.50757
102.07214 1141.4834 170.80518
107.44427 1141.4834 170.80518
112.81641 1141.4834 170.80518
118.18874 1141.4834 170.80518
123.56087 1141.4834 170.80518
128.9332 1141.4834 170.80518
135.53267 1131.6276 197.03979
140.9539 1131.6276 197.03979
146.37532 1131.6276 197.03979
151.79655 1131.6276 197.03979
157.21799 1131.6276 197.03979
164.112 1121.7717 223.27393
169.58232 1121.7717 223.27393
175.05284 1121.7717 223.27393
180.52318 1121.7717 223.27393
187.72247 1111.5637 250.4458
193.24364 1111.5637 250.4458
198.7648 1111.5637 250.4458
204.28618 1111.5637 250.4458
209.80733 1111.5637 250.4458
215.3287 1111.5637 250.4458
220.84987 1111.5637 250.4458
226.37105 1111.5637 250.4458
231.89241 1111.5637 250.4458
237.41357 1111.5637 250.4458
242.93494 1111.5637 250.4458
250.7442 1101.3558 277.61719
256.31622 1101.3558 277.61719
261.88843 1101.3558 277.61719
269.98526 1090.7959 305.72559
-229.75684 1116.7362 221.13647
-224.28642 1116.7362 221.13647
-218.81601 1116.7362 221.13647
-213.3456 1116.7362 221.13647
-207.87517 1116.7362 221.13647
-202.40485 1116.7362 221.13647
-196.93442 1116.7362 221.13647
-191.464 1116.7362 221.13647
-185.99359 1116.7362 221.13647
-180.52318 1116.7362 221.13647
-175.05284 1116.7362 221.13647
-169.58243 1116.7362 221.13647
-162.63921 1126.6372 194.92139
-157.21788 1126.6372 194.92139
-151.79655 1126.6372 194.92139
-146.37532 1126.6372 194.92139
-140.95399 1126.6372 194.92139
-134.30534 1136.5382 168.70605
-128.93311 1136.5382 168.70605
-123.56087 1136.5382 168.70605
-117.14725 1146.0858 143.427
-111.82236 1146.0858 143.427
-106.49747 1146.0858 143.427
-101.17258 1146.0858 143.427
-95.847679 1146.0858 143.427
-90.522888 1146.0858 143.427
-85.197998 1146.0858 143.427
-79.8731 1146.0858 143.427
-74.54821 1146.0858 143.427
-69.223312 1146.0858 143.427
-63.898525 1146.0858 143.427
-58.573627 1146.0858 143.427
-53.248734 1146.0858 143.427
-47.92384 1146.0858 143.427
-42.598946 1146.0858 143.427
-37.274155 1146.0858 143.427
-31.949263 1146.0858 143.427
-26.624367 1146.0858 143.427
-21.110115 1155.6332 118.14795
-15.83256 1155.6332 118.14795
-10.555108 1155.6332 118.14795
-5.277554 1155.6332 118.14795
0 1155.6332 118.14795
5.3247924 1146.0858 143.427
10.649788 1146.0858 143.427
15.97458 1146.0858 143.427
21.299576 1146.0858 143.427
26.624367 1146.0858 143.427
31.94916 1146.0858 143.427
37.274155 1146.0858 143.427
42.598946 1146.0858 143.427
47.923943 1146.0858 143.427
53.248734 1146.0858 143.427
58.573528 1146.0858 143.427
63.898525 1146.0858 143.427
69.223312 1146.0858 143.427
74.548309 1146.0858 143.427
79.8731 1146.0858 143.427
85.955338 1136.5382 168.70605
90.522888 1146.0858 143.427
95.847679 1146.0858 143.427
102.07214 1136.5382 168.70605
107.44427 1136.5382 168.70605
111.82227 1146.0858 143.427
117.14725 1146.0858 143.427
123.56087 1136.5382 168.70605
128.9332 1136.5382 168.70605
134.30534 1136.5382 168.70605
140.9539 1126.6372 194.92139
146.37532 1126.6372 194.92139
151.79655 1126.6372 194.92139
157.21799 1126.6372 194.92139
164.112 1116.7362 221.13647
169.58232 1116.7362 221.13647
175.05284 1116.7362 221.13647
180.52318 1116.7362 221.13647
185.9937 1116.7362 221.13647
191.464 1116.7362 221.13647
198.7648 1106.4813 248.28833
204.28618 1106.4813 248.28833
209.80733 1106.4813 248.28833
215.3287 1106.4813 248.28833
220.84987 1106.4813 248.28833
226.37105 1106.4813 248.28833
231.89241 1106.4813 248.28833
239.59998 1096.2267 275.43994
245.17221 1096.2267 275.43994
250.7442 1096.2267 275.43994
256.31622 1096.2267 275.43994
264.36063 1085.6184 303.52783
269.98526 1085.6184 303.52783
-229.75684 1111.7006 218.99902
-224.28642 1111.7006 218.99902
-218.81601 1111.7006 218.99902
-213.3456 1111.7006 218.99902
-207.87517 1111.7006 218.99902
-202.40485 1111.7006 218.99902
-196.93442 1111.7006 218.99902
-191.464 1111.7006 218.99902
-185.99359 1111.7006 218.99902
-180.52318 1111.7006 218.99902
-175.05284 1111.7006 218.99902
-169.58243 1111.7006 218.99902
-162.63921 1121.6469 192.80322
-157.21788 1121.6469 192.80322
-151.79655 1121.6469 192.80322
-146.37532 1121.6469 192.80322
-140.95399 1121.6469 192.80322
-134.30534 1131.593 166.60693
-128.93311 1131.593 166.60693
-123.56087 1131.593 166.60693
-117.14725 1141.1842 141.34619
-111.82236 1141.1842 141.34619
-106.49747 1141.1842 141.34619
-101.17258 1141.1842 141.34619
-95.847679 1141.1842 141.34619
-90.522888 1141.1842 141.34619
-85.197998 1141.1842 141.34619
-79.8731 1141.1842 141.34619
-74.54821 1141.1842 141.34619
-69.223312 1141.1842 141.34619
-63.898525 1141.1842 141.34619
-58.573627 1141.1842 141.34619
-53.248734 1141.1842 141.34619
-47.92384 1141.1842 141.34619
-42.598946 1141.1842 141.34619
-37.274155 1141.1842 141.34619
-31.949263 1141.1842 141.34619
-26.624367 1141.1842 141.34619
-21.110115 1150.7751 116.08594
-15.83256 1150.7751 116.08594
-10.555108 1150.7751 116.08594
-5.277554 1150.7751 116.08594
0 1150.7751 116.08594
5.3247924 1141.1842 141.34619
10.649788 1141.1842 141.34619
15.97458 1141.1842 141.34619
21.299576 1141.1842 141.34619
26.624367 1141.1842 141.34619
31.94916 1141.1842 141.34619
37.274155 1141.1842 141.34619
42.598946 1141.1842 141.34619
47.923943 1141.1842 141.34619
53.248734 1141.1842 141.34619
58.573528 1141.1842 141.34619
63.898525 1141.1842 141.34619
69.223312 1141.1842 141.34619
74.548309 1141.1842 141.34619
79.8731 1141.1842 141.34619
85.197891 1141.1842 141.34619
90.522888 1141.1842 141.34619
95.847679 1141.1842 141.34619
101.17268 1141.1842 141.34619
107.44427 1131.593 166.60693
111.82227 1141.1842 141.34619
117.14725 1141.1842 141.34619
123.56087 1131.593 166.60693
128.9332 1131.593 166.60693
134.30534 1131.593 166.60693
140.9539 1121.6469 192.80322
146.37532 1121.6469 192.80322
151.79655 1121.6469 192.80322
157.21799 1121.6469 192.80322
162.63921 1121.6469 192.80322
169.58232 1111.7006 218.99902
175.05284 1111.7006 218.99902
180.52318 1111.7006 218.99902
185.9937 1111.7006 218.99902
191.464 1111.7006 218.99902
198.7648 1101.3989 246.1311
204.28618 1101.3989 246.1311
209.80733 1101.3989 246.1311
215.3287 1101.3989 246.1311
220.84987 1101.3989 246.1311
226.37105 1101.3989 246.1311
231.89241 1101.3989 246.1311
239.59998 1091.0975 273.2627
245.17221 1091.0975 273.2627
250.7442 1091.0975 273.2627
256.31622 1091.0975 273.2627
264.36063 1080.4408 301.33008
272.51004 1069.7841 329.39722
-229.75684 1106.665 216.86157
-224.28642 1106.665 216.86157
-218.81601 1106.665 216.86157
-213.3456 1106.665 216.86157
-207.87517 1106.665 216.86157
-202.40485 1106.665 216.86157
-196.93442 1106.665 216.86157
-191.464 1106.665 216.86157
-185.99359 1106.665 216.86157
-180.52318 1106.665 216.86157
-175.05284 1106.665 216.86157
-169.58243 1106.665 216.86157
-162.63921 1116.6565 190.68481
-157.21788 1116.6565 190.68481
-151.79655 1116.6565 190.68481
-146.37532 1116.6565 190.68481
-140.95399 1116.6565 190.68481
-134.30534 1126.6479 164.50781
-128.93311 1126.6479 164.50781
-123.56087 1126.6479 164.50781
-117.14725 1136.2826 139.26562
-111.82236 1136.2826 139.26562
-106.49747 1136.2826 139.26562
-101.17258 1136.2826 139.26562
-95.847679 1136.2826 139.26562
-90.522888 1136.2826 139.26562
-85.197998 1136.2826 139.26562
-79.8731 1136.2826 139.26562
-74.54821 1136.2826 139.26562
-69.223312 1136.2826 139.26562
-63.898525 1136.2826 139.26562
-58.573627 1136.2826 139.26562
-53.248734 1136.2826 139.26562
-47.92384 1136.2826 139.26562
-42.598946 1136.2826 139.26562
-37.274155 1136.2826 139.26562
-31.949263 1136.2826 139.26562
-26.624367 1136.2826 139.26562
-21.110115 1145.9171 114.02368
-15.83256 1145.9171 114.02368
-10.555108 1145.9171 114.02368
-5.277554 1145.9171 114.02368
0 1145.9171 114.02368
