ply
format ascii 1.0
comment PCL generated
element vertex 1579
property float x
property float y
property float z
element camera 0
property float view_px
property float view_py
property float view_pz
property float x_axisx
property float x_axisy
property float x_axisz
property float y_axisx
property float y_axisy
property float y_axisz
property float z_axisx
property float z_axisy
property float z_axisz
property float focal
property float scalex
property float scaley
property float centerx
property float centery
property int viewportx
property int viewporty
property float k1
property float k2
end_header
-100.27312 1243.0771 155.26562
-94.99556 1243.0771 155.26562
-89.718109 1243.0771 155.26562
-84.440552 1243.0771 155.26562
-79.163002 1243.0771 155.26562
-73.885452 1243.0771 155.26562
-68.607895 1243.0771 155.26562
-63.330441 1243.0771 155.26562
-58.052891 1243.0771 155.26562
-52.775333 1243.0771 155.26562
-47.49778 1243.0771 155.26562
-42.22023 1243.0771 155.26562
-36.942772 1243.0771 155.26562
-31.66522 1243.0771 155.26562
-26.159735 1251.5156 130.60229
-20.927767 1251.5156 130.60229
-15.83256 1243.0771 155.26562
-10.555108 1243.0771 155.26562
-5.2319665 1251.5156 130.60229
0 1251.5156 130.60229
5.2318668 1251.5156 130.60229
10.555108 1243.0771 155.26562
15.83256 1243.0771 155.26562
21.110216 1243.0771 155.26562
26.387667 1243.0771 155.26562
31.665119 1243.0771 155.26562
36.942772 1243.0771 155.26562
42.22023 1243.0771 155.26562
47.497883 1243.0771 155.26562
52.775333 1243.0771 155.26562
58.052788 1243.0771 155.26562
63.330441 1243.0771 155.26562
68.607895 1243.0771 155.26562
73.885544 1243.0771 155.26562
79.163002 1243.0771 155.26562
84.44046 1243.0771 155.26562
90.522888 1234.3141 180.87769
95.847679 1234.3141 180.87769
102.07214 1225.5509 206.48975
107.44427 1225.5509 206.48975
112.81641 1225.5509 206.48975
118.18874 1225.5509 206.48975
123.56087 1225.5509 206.48975
128.9332 1225.5509 206.48975
134.30534 1225.5509 206.48975
139.67747 1225.5509 206.48975
145.04982 1225.5509 206.48975
150.42194 1225.5509 206.48975
155.79427 1225.5509 206.48975
161.16641 1225.5509 206.48975
166.53854 1225.5509 206.48975
171.91087 1225.5509 206.48975
177.283 1225.5509 206.48975
182.65533 1225.5509 206.48975
189.74574 1216.4634 233.05029
195.16696 1216.4634 233.05029
200.58839 1216.4634 233.05029
206.00961 1216.4634 233.05029
211.43105 1216.4634 233.05029
218.81601 1207.3757 259.61084
224.28632 1207.3757 259.61084
231.89241 1197.9634 287.12012
237.41357 1197.9634 287.12012
242.93494 1197.9634 287.12012
250.7442 1188.5511 314.62939
-284.72726 1220.6057 204.39062
-279.35516 1220.6057 204.39062
-273.98291 1220.6057 204.39062
-271.06534 1211.4729 230.93213
-265.64401 1211.4729 230.93213
-260.22269 1211.4729 230.93213
-252.49408 1220.6057 204.39062
-247.12184 1220.6057 204.39062
-241.7496 1220.6057 204.39062
-234.29442 1229.4125 178.79688
-228.96953 1229.4125 178.79688
-223.64473 1229.4125 178.79688
-218.31984 1229.4125 178.79688
-212.99493 1229.4125 178.79688
-207.67004 1229.4125 178.79688
-202.34515 1229.4125 178.79688
-197.02036 1229.4125 178.79688
-191.69547 1229.4125 178.79688
-184.71367 1238.2191 153.20361
-179.43613 1238.2191 153.20361
-174.15857 1238.2191 153.20361
-168.8811 1238.2191 153.20361
-165.07111 1229.4125 178.79688
-159.7462 1229.4125 178.79688
-154.42131 1229.4125 178.79688
-149.09642 1229.4125 178.79688
-143.77162 1229.4125 178.79688
-138.44673 1229.4125 178.79688
-133.12184 1229.4125 178.79688
-126.66079 1238.2191 153.20361
-121.38322 1238.2191 153.20361
-116.10578 1238.2191 153.20361
-110.82822 1238.2191 153.20361
-105.55067 1238.2191 153.20361
-100.27312 1238.2191 153.20361
-94.99556 1238.2191 153.20361
-89.718109 1238.2191 153.20361
-84.440552 1238.2191 153.20361
-79.163002 1238.2191 153.20361
-73.885452 1238.2191 153.20361
-68.607895 1238.2191 153.20361
-63.330441 1238.2191 153.20361
-58.052891 1238.2191 153.20361
-52.775333 1238.2191 153.20361
-47.49778 1238.2191 153.20361
-42.22023 1238.2191 153.20361
-36.942772 1238.2191 153.20361
-31.66522 1238.2191 153.20361
-26.159735 1246.6997 128.55811
-20.927767 1246.6997 128.55811
-15.83256 1238.2191 153.20361
-10.555108 1238.2191 153.20361
-5.2319665 1246.6997 128.55811
0 1246.6997 128.55811
5.2318668 1246.6997 128.55811
10.555108 1238.2191 153.20361
15.83256 1238.2191 153.20361
21.110216 1238.2191 153.20361
26.387667 1238.2191 153.20361
31.665119 1238.2191 153.20361
36.942772 1238.2191 153.20361
42.22023 1238.2191 153.20361
47.497883 1238.2191 153.20361
52.775333 1238.2191 153.20361
58.052788 1238.2191 153.20361
63.330441 1238.2191 153.20361
68.607895 1238.2191 153.20361
73.885544 1238.2191 153.20361
79.163002 1238.2191 153.20361
84.44046 1238.2191 153.20361
89.718109 1238.2191 153.20361
94.99556 1238.2191 153.20361
101.17268 1229.4125 178.79688
106.49747 1229.4125 178.79688
111.82227 1229.4125 178.79688
118.18874 1220.6057 204.39062
123.56087 1220.6057 204.39062
128.9332 1220.6057 204.39062
134.30534 1220.6057 204.39062
139.67747 1220.6057 204.39062
145.04982 1220.6057 204.39062
150.42194 1220.6057 204.39062
155.79427 1220.6057 204.39062
161.16641 1220.6057 204.39062
166.53854 1220.6057 204.39062
171.91087 1220.6057 204.39062
177.283 1220.6057 204.39062
182.65533 1220.6057 204.39062
189.74574 1211.4729 230.93213
195.16696 1211.4729 230.93213
200.58839 1211.4729 230.93213
206.00961 1211.4729 230.93213
211.43105 1211.4729 230.93213
218.81601 1202.3401 257.47339
224.28632 1202.3401 257.47339
231.89241 1192.8811 284.96289
237.41357 1192.8811 284.96289
245.17221 1183.4221 312.45215
250.7442 1183.4221 312.45215
-284.72726 1215.6606 202.2915
-279.35516 1215.6606 202.2915
-273.98291 1215.6606 202.2915
-271.06534 1206.4827 228.81372
-265.64401 1206.4827 228.81372
-260.22269 1206.4827 228.81372
-252.49408 1215.6606 202.2915
-247.12184 1215.6606 202.2915
-241.7496 1215.6606 202.2915
-234.29442 1224.511 176.71631
-228.96953 1224.511 176.71631
-223.64473 1224.511 176.71631
-218.31984 1224.511 176.71631
-212.99493 1224.511 176.71631
-207.67004 1224.511 176.71631
-202.34515 1224.511 176.71631
-197.02036 1224.511 176.71631
-191.69547 1224.511 176.71631
-184.71367 1233.3611 151.1416
-179.43613 1233.3611 151.1416
-174.15857 1233.3611 151.1416
-168.8811 1233.3611 151.1416
-165.07111 1224.511 176.71631
-159.7462 1224.511 176.71631
-154.42131 1224.511 176.71631
-149.09642 1224.511 176.71631
-143.77162 1224.511 176.71631
-138.44673 1224.511 176.71631
-133.12184 1224.511 176.71631
-126.66079 1233.3611 151.1416
-121.38322 1233.3611 151.1416
-116.10578 1233.3611 151.1416
-110.82822 1233.3611 151.1416
-105.55067 1233.3611 151.1416
-100.27312 1233.3611 151.1416
-94.99556 1233.3611 151.1416
-89.718109 1233.3611 151.1416
-84.440552 1233.3611 151.1416
-79.163002 1233.3611 151.1416
-73.885452 1233.3611 151.1416
-68.607895 1233.3611 151.1416
-63.330441 1233.3611 151.1416
-58.052891 1233.3611 151.1416
-52.775333 1233.3611 151.1416
-47.92384 1224.511 176.71631
-42.22023 1233.3611 151.1416
-36.942772 1233.3611 151.1416
-31.66522 1233.3611 151.1416
-26.159735 1241.8837 126.51367
-20.927767 1241.8837 126.51367
-15.83256 1233.3611 151.1416
-10.555108 1233.3611 151.1416
-5.2319665 1241.8837 126.51367
0 1241.8837 126.51367
5.2318668 1241.8837 126.51367
10.555108 1233.3611 151.1416
15.83256 1233.3611 151.1416
21.110216 1233.3611 151.1416
26.387667 1233.3611 151.1416
31.665119 1233.3611 151.1416
36.942772 1233.3611 151.1416
42.22023 1233.3611 151.1416
47.497883 1233.3611 151.1416
52.775333 1233.3611 151.1416
58.052788 1233.3611 151.1416
63.330441 1233.3611 151.1416
68.607895 1233.3611 151.1416
73.885544 1233.3611 151.1416
79.163002 1233.3611 151.1416
84.44046 1233.3611 151.1416
89.718109 1233.3611 151.1416
94.99556 1233.3611 151.1416
101.17268 1224.511 176.71631
106.49747 1224.511 176.71631
111.82227 1224.511 176.71631
118.18874 1215.6606 202.2915
123.56087 1215.6606 202.2915
128.9332 1215.6606 202.2915
134.30534 1215.6606 202.2915
139.67747 1215.6606 202.2915
145.04982 1215.6606 202.2915
150.42194 1215.6606 202.2915
155.79427 1215.6606 202.2915
161.16641 1215.6606 202.2915
166.53854 1215.6606 202.2915
171.91087 1215.6606 202.2915
178.90309 1206.4827 228.81372
184.32451 1206.4827 228.81372
189.74574 1206.4827 228.81372
195.16696 1206.4827 228.81372
200.58839 1206.4827 228.81372
206.00961 1206.4827 228.81372
211.43105 1206.4827 228.81372
218.81601 1197.3047 255.33594
224.28632 1197.3047 255.33594
231.89241 1187.7987 282.80542
237.41357 1187.7987 282.80542
245.17221 1178.293 310.2749
250.7442 1178.293 310.2749
-284.72726 1210.7155 200.19238
-279.35516 1210.7155 200.19238
-273.98291 1210.7155 200.19238
-271.06534 1201.4923 226.69556
-265.64401 1201.4923 226.69556
-260.22269 1201.4923 226.69556
-252.49408 1210.7155 200.19238
-247.12184 1210.7155 200.19238
-241.7496 1210.7155 200.19238
-234.29442 1219.6094 174.63574
-228.96953 1219.6094 174.63574
-223.64473 1219.6094 174.63574
-218.31984 1219.6094 174.63574
-212.99493 1219.6094 174.63574
-207.67004 1219.6094 174.63574
-202.34515 1219.6094 174.63574
-197.02036 1219.6094 174.63574
-191.69547 1219.6094 174.63574
-184.71367 1228.5032 149.07935
-179.43613 1228.5032 149.07935
-174.15857 1228.5032 149.07935
-168.8811 1228.5032 149.07935
-165.07111 1219.6094 174.63574
-159.7462 1219.6094 174.63574
-153.04846 1228.5032 149.07935
-147.7709 1228.5032 149.07935
-142.49345 1228.5032 149.07935
-137.21588 1228.5032 149.07935
-131.93834 1228.5032 149.07935
-126.66079 1228.5032 149.07935
-121.38322 1228.5032 149.07935
-116.10578 1228.5032 149.07935
-110.82822 1228.5032 149.07935
-105.55067 1228.5032 149.07935
-100.27312 1228.5032 149.07935
-94.99556 1228.5032 149.07935
-89.718109 1228.5032 149.07935
-84.440552 1228.5032 149.07935
-79.163002 1228.5032 149.07935
-73.885452 1228.5032 149.07935
-68.607895 1228.5032 149.07935
-63.898525 1219.6094 174.63574
-58.052891 1228.5032 149.07935
-52.775333 1228.5032 149.07935
-47.49778 1228.5032 149.07935
-42.22023 1228.5032 149.07935
-36.942772 1228.5032 149.07935
-31.66522 1228.5032 149.07935
-26.387667 1228.5032 149.07935
-21.110115 1228.5032 149.07935
-15.83256 1228.5032 149.07935
-10.555108 1228.5032 149.07935
-5.277554 1228.5032 149.07935
0 1228.5032 149.07935
5.2774534 1228.5032 149.07935
10.555108 1228.5032 149.07935
15.83256 1228.5032 149.07935
21.110216 1228.5032 149.07935
26.387667 1228.5032 149.07935
31.665119 1228.5032 149.07935
36.942772 1228.5032 149.07935
42.22023 1228.5032 149.07935
47.497883 1228.5032 149.07935
52.775333 1228.5032 149.07935
58.052788 1228.5032 149.07935
63.330441 1228.5032 149.07935
68.607895 1228.5032 149.07935
73.885544 1228.5032 149.07935
79.163002 1228.5032 149.07935
84.44046 1228.5032 149.07935
89.718109 1228.5032 149.07935
94.99556 1228.5032 149.07935
101.17268 1219.6094 174.63574
106.49747 1219.6094 174.63574
111.82227 1219.6094 174.63574
118.18874 1210.7155 200.19238
123.56087 1210.7155 200.19238
128.9332 1210.7155 200.19238
134.30534 1210.7155 200.19238
139.67747 1210.7155 200.19238
145.04982 1210.7155 200.19238
150.42194 1210.7155 200.19238
155.79427 1210.7155 200.19238
161.16641 1210.7155 200.19238
166.53854 1210.7155 200.19238
173.48186 1201.4923 226.69556
178.90309 1201.4923 226.69556
184.32451 1201.4923 226.69556
189.74574 1201.4923 226.69556
195.16696 1201.4923 226.69556
200.58839 1201.4923 226.69556
206.00961 1201.4923 226.69556
211.43105 1201.4923 226.69556
218.81601 1192.2692 253.19849
224.28632 1192.2692 253.19849
231.89241 1182.7164 280.64819
237.41357 1182.7164 280.64819
245.17221 1173.1638 308.09766
250.7442 1173.1638 308.09766
256.31622 1173.1638 308.09766
-284.72726 1205.7703 198.09326
-279.35516 1205.7703 198.09326
-273.98291 1205.7703 198.09326
-271.06534 1196.502 224.57715
-265.64401 1196.502 224.57715
-260.22269 1196.502 224.57715
-252.49408 1205.7703 198.09326
-247.12184 1205.7703 198.09326
-241.7496 1205.7703 198.09326
-234.29442 1214.7078 172.55518
-228.96953 1214.7078 172.55518
-223.64473 1214.7078 172.55518
-218.31984 1214.7078 172.55518
-212.99493 1214.7078 172.55518
-207.67004 1214.7078 172.55518
-202.34515 1214.7078 172.55518
-197.02036 1214.7078 172.55518
-191.69547 1214.7078 172.55518
-184.71367 1223.645 147.01733
-179.43613 1223.645 147.01733
-174.15857 1223.645 147.01733
-168.8811 1223.645 147.01733
-163.60356 1223.645 147.01733
-158.326 1223.645 147.01733
-153.04846 1223.645 147.01733
-147.7709 1223.645 147.01733
-142.49345 1223.645 147.01733
-137.21588 1223.645 147.01733
-131.93834 1223.645 147.01733
-126.66079 1223.645 147.01733
-121.38322 1223.645 147.01733
-116.10578 1223.645 147.01733
-110.82822 1223.645 147.01733
-105.55067 1223.645 147.01733
-100.27312 1223.645 147.01733
-94.99556 1223.645 147.01733
-89.718109 1223.645 147.01733
-84.440552 1223.645 147.01733
-79.163002 1223.645 147.01733
-73.885452 1223.645 147.01733
-68.607895 1223.645 147.01733
-63.898525 1214.7078 172.55518
-58.052891 1223.645 147.01733
-52.775333 1223.645 147.01733
-47.49778 1223.645 147.01733
-42.22023 1223.645 147.01733
-36.942772 1223.645 147.01733
-31.949263 1214.7078 172.55518
-26.387667 1223.645 147.01733
-21.110115 1223.645 147.01733
-15.83256 1223.645 147.01733
-10.555108 1223.645 147.01733
-5.277554 1223.645 147.01733
0 1223.645 147.01733
5.2774534 1223.645 147.01733
10.555108 1223.645 147.01733
15.83256 1223.645 147.01733
21.110216 1223.645 147.01733
26.387667 1223.645 147.01733
31.665119 1223.645 147.01733
36.942772 1223.645 147.01733
42.22023 1223.645 147.01733
47.497883 1223.645 147.01733
52.775333 1223.645 147.01733
58.052788 1223.645 147.01733
63.330441 1223.645 147.01733
68.607895 1223.645 147.01733
73.885544 1223.645 147.01733
79.163002 1223.645 147.01733
84.44046 1223.645 147.01733
89.718109 1223.645 147.01733
94.99556 1223.645 147.01733
101.17268 1214.7078 172.55518
106.49747 1214.7078 172.55518
111.82227 1214.7078 172.55518
118.18874 1205.7703 198.09326
123.56087 1205.7703 198.09326
128.9332 1205.7703 198.09326
134.30534 1205.7703 198.09326
139.67747 1205.7703 198.09326
145.04982 1205.7703 198.09326
150.42194 1205.7703 198.09326
155.79427 1205.7703 198.09326
161.16641 1205.7703 198.09326
166.53854 1205.7703 198.09326
173.48186 1196.502 224.57715
178.90309 1196.502 224.57715
184.32451 1196.502 224.57715
189.74574 1196.502 224.57715
195.16696 1196.502 224.57715
200.58839 1196.502 224.57715
206.00961 1196.502 224.57715
211.43105 1196.502 224.57715
218.81601 1187.2335 251.06104
224.28632 1187.2335 251.06104
231.89241 1177.634 278.49097
237.41357 1177.634 278.49097
242.93494 1177.634 278.49097
250.7442 1168.0345 305.92041
256.31622 1168.0345 305.92041
266.83286 1148.1737 362.67163
-284.72726 1200.8252 195.99414
-279.35516 1200.8252 195.99414
-273.98291 1200.8252 195.99414
-271.06534 1191.5116 222.45898
-265.64401 1191.5116 222.45898
-260.22269 1191.5116 222.45898
-252.49408 1200.8252 195.99414
-247.12184 1200.8252 195.99414
-241.7496 1200.8252 195.99414
-234.29442 1209.8062 170.47461
-228.96953 1209.8062 170.47461
-223.64473 1209.8062 170.47461
-218.31984 1209.8062 170.47461
-212.99493 1209.8062 170.47461
-207.67004 1209.8062 170.47461
-202.34515 1209.8062 170.47461
-197.02036 1209.8062 170.47461
-191.69547 1209.8062 170.47461
-184.71367 1218.7871 144.95508
-179.43613 1218.7871 144.95508
-174.15857 1218.7871 144.95508
-168.8811 1218.7871 144.95508
-163.60356 1218.7871 144.95508
-158.326 1218.7871 144.95508
-153.04846 1218.7871 144.95508
-147.7709 1218.7871 144.95508
-142.49345 1218.7871 144.95508
-137.21588 1218.7871 144.95508
-131.93834 1218.7871 144.95508
-126.66079 1218.7871 144.95508
-121.38322 1218.7871 144.95508
-116.10578 1218.7871 144.95508
-110.82822 1218.7871 144.95508
-105.55067 1218.7871 144.95508
-100.27312 1218.7871 144.95508
-94.99556 1218.7871 144.95508
-89.718109 1218.7871 144.95508
-85.197998 1209.8062 170.47461
-79.8731 1209.8062 170.47461
-73.885452 1218.7871 144.95508
-68.607895 1218.7871 144.95508
-63.898525 1209.8062 170.47461
-58.052891 1218.7871 144.95508
-52.775333 1218.7871 144.95508
-47.92384 1209.8062 170.47461
-42.22023 1218.7871 144.95508
-36.942772 1218.7871 144.95508
-31.949263 1209.8062 170.47461
-26.624367 1209.8062 170.47461
-21.110115 1218.7871 144.95508
-15.83256 1218.7871 144.95508
-10.555108 1218.7871 144.95508
-5.277554 1218.7871 144.95508
0 1218.7871 144.95508
5.2774534 1218.7871 144.95508
10.555108 1218.7871 144.95508
15.83256 1218.7871 144.95508
21.110216 1218.7871 144.95508
26.387667 1218.7871 144.95508
31.665119 1218.7871 144.95508
36.942772 1218.7871 144.95508
42.22023 1218.7871 144.95508
47.497883 1218.7871 144.95508
52.775333 1218.7871 144.95508
58.052788 1218.7871 144.95508
63.330441 1218.7871 144.95508
68.607895 1218.7871 144.95508
73.885544 1218.7871 144.95508
79.163002 1218.7871 144.95508
84.44046 1218.7871 144.95508
89.718109 1218.7871 144.95508
94.99556 1218.7871 144.95508
101.17268 1209.8062 170.47461
107.44427 1200.8252 195.99414
112.81641 1200.8252 195.99414
118.18874 1200.8252 195.99414
123.56087 1200.8252 195.99414
128.9332 1200.8252 195.99414
134.30534 1200.8252 195.99414
139.67747 1200.8252 195.99414
145.04982 1200.8252 195.99414
151.79655 1191.5116 222.45898
157.21799 1191.5116 222.45898
162.63921 1191.5116 222.45898
168.06042 1191.5116 222.45898
173.48186 1191.5116 222.45898
178.90309 1191.5116 222.45898
184.32451 1191.5116 222.45898
189.74574 1191.5116 222.45898
195.16696 1191.5116 222.45898
202.40485 1182.198 248.92358
206.00961 1191.5116 222.45898
211.43105 1191.5116 222.45898
218.81601 1182.198 248.92358
224.28632 1182.198 248.92358
231.89241 1172.5516 276.3335
237.41357 1172.5516 276.3335
242.93494 1172.5516 276.3335
250.7442 1162.9054 303.74341
256.31622 1162.9054 303.74341
264.36063 1152.9266 332.09839
272.51004 1142.9478 360.45337
-292.75055 1186.5212 220.34082
-284.72726 1195.88 193.89526
-279.35516 1195.88 193.89526
-276.48666 1186.5212 220.34082
-271.06534 1186.5212 220.34082
-265.64401 1186.5212 220.34082
-260.22269 1186.5212 220.34082
-252.49408 1195.88 193.89526
-247.12184 1195.88 193.89526
-241.7496 1195.88 193.89526
-234.29442 1204.9045 168.39404
-228.96953 1204.9045 168.39404
-223.64473 1204.9045 168.39404
-218.31984 1204.9045 168.39404
-212.99493 1204.9045 168.39404
-207.67004 1204.9045 168.39404
-202.34515 1204.9045 168.39404
-197.02036 1204.9045 168.39404
-191.69547 1204.9045 168.39404
-184.71367 1213.9291 142.89307
-179.43613 1213.9291 142.89307
-174.15857 1213.9291 142.89307
-168.8811 1213.9291 142.89307
-163.60356 1213.9291 142.89307
-158.326 1213.9291 142.89307
-153.04846 1213.9291 142.89307
-147.7709 1213.9291 142.89307
-142.49345 1213.9291 142.89307
-137.21588 1213.9291 142.89307
-131.93834 1213.9291 142.89307
-126.66079 1213.9291 142.89307
-121.38322 1213.9291 142.89307
-116.10578 1213.9291 142.89307
-110.82822 1213.9291 142.89307
-105.55067 1213.9291 142.89307
-100.27312 1213.9291 142.89307
-94.99556 1213.9291 142.89307
-89.718109 1213.9291 142.89307
-85.197998 1204.9045 168.39404
-79.8731 1204.9045 168.39404
-73.885452 1213.9291 142.89307
-68.607895 1213.9291 142.89307
-63.898525 1204.9045 168.39404
-58.573627 1204.9045 168.39404
-53.248734 1204.9045 168.39404
-47.92384 1204.9045 168.39404
-42.598946 1204.9045 168.39404
-37.274155 1204.9045 168.39404
-31.949263 1204.9045 168.39404
-26.624367 1204.9045 168.39404
-21.110115 1213.9291 142.89307
-15.83256 1213.9291 142.89307
-10.555108 1213.9291 142.89307
-5.277554 1213.9291 142.89307
0 1213.9291 142.89307
5.2774534 1213.9291 142.89307
10.555108 1213.9291 142.89307
15.83256 1213.9291 142.89307
21.110216 1213.9291 142.89307
26.387667 1213.9291 142.89307
31.665119 1213.9291 142.89307
36.942772 1213.9291 142.89307
42.22023 1213.9291 142.89307
47.497883 1213.9291 142.89307
52.775333 1213.9291 142.89307
58.052788 1213.9291 142.89307
63.330441 1213.9291 142.89307
68.607895 1213.9291 142.89307
73.885544 1213.9291 142.89307
79.163002 1213.9291 142.89307
84.44046 1213.9291 142.89307
89.718109 1213.9291 142.89307
94.99556 1213.9291 142.89307
101.17268 1204.9045 168.39404
107.44427 1195.88 193.89526
112.81641 1195.88 193.89526
118.18874 1195.88 193.89526
123.56087 1195.88 193.89526
128.9332 1195.88 193.89526
134.30534 1195.88 193.89526
139.67747 1195.88 193.89526
146.37532 1186.5212 220.34082
151.79655 1186.5212 220.34082
157.21799 1186.5212 220.34082
162.63921 1186.5212 220.34082
168.06042 1186.5212 220.34082
173.48186 1186.5212 220.34082
178.90309 1186.5212 220.34082
184.32451 1186.5212 220.34082
189.74574 1186.5212 220.34082
195.16696 1186.5212 220.34082
202.40485 1177.1625 246.78613
207.87517 1177.1625 246.78613
213.34569 1177.1625 246.78613
218.81601 1177.1625 246.78613
224.28632 1177.1625 246.78613
231.89241 1167.4694 274.17627
237.41357 1167.4694 274.17627
242.93494 1167.4694 274.17627
250.7442 1157.7764 301.56616
256.31622 1157.7764 301.56616
264.36063 1147.749 329.90063
272.51004 1137.7218 358.23511
-292.75055 1181.5309 218.22241
-287.32922 1181.5309 218.22241
-281.90799 1181.5309 218.22241
-276.48666 1181.5309 218.22241
-271.06534 1181.5309 218.22241
-265.64401 1181.5309 218.22241
-260.22269 1181.5309 218.22241
-254.80147 1181.5309 218.22241
-247.12184 1190.9348 191.79614
-241.7496 1190.9348 191.79614
-234.29442 1200.0031 166.31348
-228.96953 1200.0031 166.31348
-223.64473 1200.0031 166.31348
-218.31984 1200.0031 166.31348
-212.99493 1200.0031 166.31348
-207.67004 1200.0031 166.31348
-202.34515 1200.0031 166.31348
-197.02036 1200.0031 166.31348
-191.69547 1200.0031 166.31348
-184.71367 1209.071 140.83105
-179.43613 1209.071 140.83105
-174.15857 1209.071 140.83105
-168.8811 1209.071 140.83105
-163.60356 1209.071 140.83105
-158.326 1209.071 140.83105
-153.04846 1209.071 140.83105
-147.7709 1209.071 140.83105
-142.49345 1209.071 140.83105
-137.21588 1209.071 140.83105
-131.93834 1209.071 140.83105
-126.66079 1209.071 140.83105
-121.38322 1209.071 140.83105
-116.10578 1209.071 140.83105
-110.82822 1209.071 140.83105
-105.55067 1209.071 140.83105
-100.27312 1209.071 140.83105
-94.99556 1209.071 140.83105
-89.718109 1209.071 140.83105
-85.197998 1200.0031 166.31348
-79.8731 1200.0031 166.31348
-73.885452 1209.071 140.83105
-68.607895 1209.071 140.83105
-63.898525 1200.0031 166.31348
-58.573627 1200.0031 166.31348
-53.248734 1200.0031 166.31348
-47.92384 1200.0031 166.31348
-42.598946 1200.0031 166.31348
-37.274155 1200.0031 166.31348
-31.949263 1200.0031 166.31348
-26.624367 1200.0031 166.31348
-21.110115 1209.071 140.83105
-15.83256 1209.071 140.83105
-10.555108 1209.071 140.83105
-5.277554 1209.071 140.83105
0 1209.071 140.83105
5.2774534 1209.071 140.83105
10.555108 1209.071 140.83105
15.83256 1209.071 140.83105
21.110216 1209.071 140.83105
26.387667 1209.071 140.83105
31.665119 1209.071 140.83105
36.942772 1209.071 140.83105
42.22023 1209.071 140.83105
47.497883 1209.071 140.83105
52.775333 1209.071 140.83105
58.052788 1209.071 140.83105
63.330441 1209.071 140.83105
68.607895 1209.071 140.83105
73.885544 1209.071 140.83105
79.163002 1209.071 140.83105
84.44046 1209.071 140.83105
89.718109 1209.071 140.83105
94.99556 1209.071 140.83105
101.17268 1200.0031 166.31348
107.44427 1190.9348 191.79614
112.81641 1190.9348 191.79614
118.18874 1190.9348 191.79614
123.56087 1190.9348 191.79614
128.9332 1190.9348 191.79614
135.53267 1181.5309 218.22241
140.9539 1181.5309 218.22241
146.37532 1181.5309 218.22241
151.79655 1181.5309 218.22241
157.21799 1181.5309 218.22241
162.63921 1181.5309 218.22241
168.06042 1181.5309 218.22241
173.48186 1181.5309 218.22241
178.90309 1181.5309 218.22241
184.32451 1181.5309 218.22241
189.74574 1181.5309 218.22241
195.16696 1181.5309 218.22241
202.40485 1172.127 244.64868
207.87517 1172.127 244.64868
213.34569 1172.127 244.64868
218.81601 1172.127 244.64868
224.28632 1172.127 244.64868
231.89241 1162.387 272.0188
237.41357 1162.387 272.0188
242.93494 1162.387 272.0188
248.45612 1162.387 272.0188
256.31622 1152.6472 299.38892
264.36063 1142.5715 327.70288
269.98526 1142.5715 327.70288
278.18747 1132.4958 356.01685
-298.17188 1176.5405 216.10425
-292.75055 1176.5405 216.10425
-287.32922 1176.5405 216.10425
-281.90799 1176.5405 216.10425
-276.48666 1176.5405 216.10425
-271.06534 1176.5405 216.10425
-265.64401 1176.5405 216.10425
-260.22269 1176.5405 216.10425
-254.80147 1176.5405 216.10425
-247.12184 1185.9897 189.69702
-241.7496 1185.9897 189.69702
-236.37737 1185.9897 189.69702
-231.00513 1185.9897 189.69702
-225.63301 1185.9897 189.69702
-220.26077 1185.9897 189.69702
-212.99493 1195.1014 164.23291
-207.67004 1195.1014 164.23291
-202.34515 1195.1014 164.23291
-197.02036 1195.1014 164.23291
-191.69547 1195.1014 164.23291
-184.71367 1204.2131 138.7688
-179.43613 1204.2131 138.7688
-174.15857 1204.2131 138.7688
-168.8811 1204.2131 138.7688
-163.60356 1204.2131 138.7688
-158.326 1204.2131 138.7688
-153.04846 1204.2131 138.7688
-147.7709 1204.2131 138.7688
-142.49345 1204.2131 138.7688
-137.21588 1204.2131 138.7688
-131.93834 1204.2131 138.7688
-126.66079 1204.2131 138.7688
-121.38322 1204.2131 138.7688
-116.10578 1204.2131 138.7688
-110.82822 1204.2131 138.7688
-105.55067 1204.2131 138.7688
-100.27312 1204.2131 138.7688
-94.99556 1204.2131 138.7688
-89.718109 1204.2131 138.7688
-85.197998 1195.1014 164.23291
-79.163002 1204.2131 138.7688
-73.885452 1204.2131 138.7688
-68.607895 1204.2131 138.7688
-63.330441 1204.2131 138.7688
-58.052891 1204.2131 138.7688
-52.775333 1204.2131 138.7688
-47.92384 1195.1014 164.23291
-42.598946 1195.1014 164.23291
-37.274155 1195.1014 164.23291
-31.949263 1195.1014 164.23291
-26.624367 1195.1014 164.23291
-21.110115 1204.2131 138.7688
-15.83256 1204.2131 138.7688
-10.555108 1204.2131 138.7688
-5.277554 1204.2131 138.7688
0 1204.2131 138.7688
5.2774534 1204.2131 138.7688
10.555108 1204.2131 138.7688
15.83256 1204.2131 138.7688
21.110216 1204.2131 138.7688
26.387667 1204.2131 138.7688
31.665119 1204.2131 138.7688
36.942772 1204.2131 138.7688
42.22023 1204.2131 138.7688
47.497883 1204.2131 138.7688
52.775333 1204.2131 138.7688
58.052788 1204.2131 138.7688
63.330441 1204.2131 138.7688
68.607895 1204.2131 138.7688
73.885544 1204.2131 138.7688
79.163002 1204.2131 138.7688
84.44046 1204.2131 138.7688
89.718109 1204.2131 138.7688
95.847679 1195.1014 164.23291
101.17268 1195.1014 164.23291
107.44427 1185.9897 189.69702
112.81641 1185.9897 189.69702
118.18874 1185.9897 189.69702
123.56087 1185.9897 189.69702
128.9332 1185.9897 189.69702
135.53267 1176.5405 216.10425
140.9539 1176.5405 216.10425
146.37532 1176.5405 216.10425
151.79655 1176.5405 216.10425
157.21799 1176.5405 216.10425
162.63921 1176.5405 216.10425
168.06042 1176.5405 216.10425
173.48186 1176.5405 216.10425
178.90309 1176.5405 216.10425
184.32451 1176.5405 216.10425
189.74574 1176.5405 216.10425
196.93433 1167.0914 242.51123
202.40485 1167.0914 242.51123
207.87517 1167.0914 242.51123
213.34569 1167.0914 242.51123
218.81601 1167.0914 242.51123
224.28632 1167.0914 242.51123
229.75684 1167.0914 242.51123
235.22717 1167.0914 242.51123
242.93494 1157.3047 269.86157
248.45612 1157.3047 269.86157
256.31622 1147.5181 297.21167
264.36063 1137.3939 325.50513
269.98526 1137.3939 325.50513
278.18747 1127.2698 353.79858
-306.34244 1162.0559 240.37378
-298.17188 1171.5502 213.98584
-292.75055 1171.5502 213.98584
-287.32922 1171.5502 213.98584
-281.90799 1171.5502 213.98584
-276.48666 1171.5502 213.98584
-271.06534 1171.5502 213.98584
-265.64401 1171.5502 213.98584
-260.22269 1171.5502 213.98584
-254.80147 1171.5502 213.98584
-249.38014 1171.5502 213.98584
-243.9588 1171.5502 213.98584
-236.37737 1181.0446 187.5979
-231.00513 1181.0446 187.5979
-225.63301 1181.0446 187.5979
-220.26077 1181.0446 187.5979
-214.88853 1181.0446 187.5979
-207.67004 1190.2 162.15234
-202.34515 1190.2 162.15234
-197.02036 1190.2 162.15234
-191.69547 1190.2 162.15234
-184.71367 1199.3551 136.70679
-179.43613 1199.3551 136.70679
-174.15857 1199.3551 136.70679
-168.8811 1199.3551 136.70679
-163.60356 1199.3551 136.70679
-158.326 1199.3551 136.70679
-153.04846 1199.3551 136.70679
-147.7709 1199.3551 136.70679
-142.49345 1199.3551 136.70679
-137.21588 1199.3551 136.70679
-131.93834 1199.3551 136.70679
-126.66079 1199.3551 136.70679
-121.38322 1199.3551 136.70679
-116.10578 1199.3551 136.70679
-110.82822 1199.3551 136.70679
-105.55067 1199.3551 136.70679
-100.27312 1199.3551 136.70679
-94.99556 1199.3551 136.70679
-89.718109 1199.3551 136.70679
-85.197998 1190.2 162.15234
-79.163002 1199.3551 136.70679
-73.885452 1199.3551 136.70679
-68.607895 1199.3551 136.70679
-63.330441 1199.3551 136.70679
-58.052891 1199.3551 136.70679
-52.775333 1199.3551 136.70679
-47.92384 1190.2 162.15234
-42.598946 1190.2 162.15234
-37.274155 1190.2 162.15234
-31.949263 1190.2 162.15234
-26.624367 1190.2 162.15234
-21.110115 1199.3551 136.70679
-15.83256 1199.3551 136.70679
-10.555108 1199.3551 136.70679
-5.277554 1199.3551 136.70679
0 1199.3551 136.70679
5.2774534 1199.3551 136.70679
10.555108 1199.3551 136.70679
15.83256 1199.3551 136.70679
21.110216 1199.3551 136.70679
26.387667 1199.3551 136.70679
31.665119 1199.3551 136.70679
36.942772 1199.3551 136.70679
42.22023 1199.3551 136.70679
47.497883 1199.3551 136.70679
52.775333 1199.3551 136.70679
58.052788 1199.3551 136.70679
63.330441 1199.3551 136.70679
68.607895 1199.3551 136.70679
73.885544 1199.3551 136.70679
79.163002 1199.3551 136.70679
84.44046 1199.3551 136.70679
90.522888 1190.2 162.15234
95.847679 1190.2 162.15234
101.17268 1190.2 162.15234
107.44427 1181.0446 187.5979
112.81641 1181.0446 187.5979
118.18874 1181.0446 187.5979
123.56087 1181.0446 187.5979
128.9332 1181.0446 187.5979
135.53267 1171.5502 213.98584
140.9539 1171.5502 213.98584
146.37532 1171.5502 213.98584
151.79655 1171.5502 213.98584
157.21799 1171.5502 213.98584
162.63921 1171.5502 213.98584
168.06042 1171.5502 213.98584
173.48186 1171.5502 213.98584
178.90309 1171.5502 213.98584
184.32451 1171.5502 213.98584
189.74574 1171.5502 213.98584
196.93433 1162.0559 240.37378
202.40485 1162.0559 240.37378
207.87517 1162.0559 240.37378
213.34569 1162.0559 240.37378
218.81601 1162.0559 240.37378
224.28632 1162.0559 240.37378
229.75684 1162.0559 240.37378
235.22717 1162.0559 240.37378
242.93494 1152.2223 267.70435
248.45612 1152.2223 267.70435
256.31622 1142.3889 295.03467
261.88843 1142.3889 295.03467
269.98526 1132.2163 323.30762
275.61008 1132.2163 323.30762
283.86469 1122.0438 351.58008
289.54187 1122.0438 351.58008
-317.28317 1157.0204 238.23633
-309.01453 1166.5599 211.86768
-303.5932 1166.5599 211.86768
-298.17188 1166.5599 211.86768
-292.75055 1166.5599 211.86768
-287.32922 1166.5599 211.86768
-281.90799 1166.5599 211.86768
-276.48666 1166.5599 211.86768
-271.06534 1166.5599 211.86768
-265.64401 1166.5599 211.86768
-260.22269 1166.5599 211.86768
-254.80147 1166.5599 211.86768
-249.38014 1166.5599 211.86768
-243.9588 1166.5599 211.86768
-238.53748 1166.5599 211.86768
-231.00513 1176.0994 185.49878
-225.63301 1176.0994 185.49878
-220.26077 1176.0994 185.49878
-214.88853 1176.0994 185.49878
-207.67004 1185.2983 160.07153
-202.34515 1185.2983 160.07153
-197.02036 1185.2983 160.07153
-191.69547 1185.2983 160.07153
-186.37057 1185.2983 160.07153
-179.43613 1194.4971 134.64478
-174.15857 1194.4971 134.64478
-168.8811 1194.4971 134.64478
-163.60356 1194.4971 134.64478
-158.326 1194.4971 134.64478
-153.04846 1194.4971 134.64478
-147.7709 1194.4971 134.64478
-142.49345 1194.4971 134.64478
-138.44673 1185.2983 160.07153
-133.12184 1185.2983 160.07153
-126.66079 1194.4971 134.64478
-121.38322 1194.4971 134.64478
-116.10578 1194.4971 134.64478
-110.82822 1194.4971 134.64478
-105.55067 1194.4971 134.64478
-100.27312 1194.4971 134.64478
-94.99556 1194.4971 134.64478
-89.718109 1194.4971 134.64478
-84.440552 1194.4971 134.64478
-79.163002 1194.4971 134.64478
-73.885452 1194.4971 134.64478
-68.607895 1194.4971 134.64478
-63.330441 1194.4971 134.64478
-58.052891 1194.4971 134.64478
-52.775333 1194.4971 134.64478
-47.49778 1194.4971 134.64478
-42.22023 1194.4971 134.64478
-36.942772 1194.4971 134.64478
-31.949263 1185.2983 160.07153
-26.624367 1185.2983 160.07153
-21.110115 1194.4971 134.64478
-15.83256 1194.4971 134.64478
-10.555108 1194.4971 134.64478
-5.277554 1194.4971 134.64478
0 1194.4971 134.64478
5.2774534 1194.4971 134.64478
10.555108 1194.4971 134.64478
15.83256 1194.4971 134.64478
21.110216 1194.4971 134.64478
26.387667 1194.4971 134.64478
31.665119 1194.4971 134.64478
36.942772 1194.4971 134.64478
42.22023 1194.4971 134.64478
47.497883 1194.4971 134.64478
52.775333 1194.4971 134.64478
58.052788 1194.4971 134.64478
63.330441 1194.4971 134.64478
68.607895 1194.4971 134.64478
73.885544 1194.4971 134.64478
79.163002 1194.4971 134.64478
85.197891 1185.2983 160.07153
90.522888 1185.2983 160.07153
95.847679 1185.2983 160.07153
101.17268 1185.2983 160.07153
107.44427 1176.0994 185.49878
112.81641 1176.0994 185.49878
118.18874 1176.0994 185.49878
123.56087 1176.0994 185.49878
128.9332 1176.0994 185.49878
134.30534 1176.0994 185.49878
140.9539 1166.5599 211.86768
146.37532 1166.5599 211.86768
151.79655 1166.5599 211.86768
157.21799 1166.5599 211.86768
162.63921 1166.5599 211.86768
168.06042 1166.5599 211.86768
173.48186 1166.5599 211.86768
178.90309 1166.5599 211.86768
184.32451 1166.5599 211.86768
191.464 1157.0204 238.23633
196.93433 1157.0204 238.23633
202.40485 1157.0204 238.23633
207.87517 1157.0204 238.23633
213.34569 1157.0204 238.23633
218.81601 1157.0204 238.23633
224.28632 1157.0204 238.23633
229.75684 1157.0204 238.23633
235.22717 1157.0204 238.23633
242.93494 1147.14 265.54688
248.45612 1147.14 265.54688
256.31622 1137.2598 292.85742
261.88843 1137.2598 292.85742
269.98526 1127.0388 321.10986
275.61008 1127.0388 321.10986
283.86469 1116.8179 349.36182
289.54187 1116.8179 349.36182
-314.43576 1161.5696 209.74927
-309.01453 1161.5696 209.74927
-303.5932 1161.5696 209.74927
-300.87201 1151.9849 236.09888
-295.40158 1151.9849 236.09888
-289.93118 1151.9849 236.09888
-281.90799 1161.5696 209.74927
-276.48666 1161.5696 209.74927
-273.52002 1151.9849 236.09888
-268.04959 1151.9849 236.09888
-262.57916 1151.9849 236.09888
-254.80147 1161.5696 209.74927
-249.38014 1161.5696 209.74927
-243.9588 1161.5696 209.74927
-238.53748 1161.5696 209.74927
-231.00513 1171.1543 183.39966
-225.63301 1171.1543 183.39966
-220.26077 1171.1543 183.39966
-214.88853 1171.1543 183.39966
-207.67004 1180.3967 157.99097
-202.34515 1180.3967 157.99097
-197.02036 1180.3967 157.99097
-191.69547 1180.3967 157.99097
-186.37057 1180.3967 157.99097
-179.43613 1189.6392 132.58252
-174.15857 1189.6392 132.58252
-168.8811 1189.6392 132.58252
-163.60356 1189.6392 132.58252
-158.326 1189.6392 132.58252
-153.04846 1189.6392 132.58252
-147.7709 1189.6392 132.58252
-142.49345 1189.6392 132.58252
-138.44673 1180.3967 157.99097
-133.12184 1180.3967 157.99097
-127.79694 1180.3967 157.99097
-121.38322 1189.6392 132.58252
-116.10578 1189.6392 132.58252
-110.82822 1189.6392 132.58252
-105.55067 1189.6392 132.58252
-100.27312 1189.6392 132.58252
-94.99556 1189.6392 132.58252
-89.718109 1189.6392 132.58252
-84.440552 1189.6392 132.58252
-79.163002 1189.6392 132.58252
-73.885452 1189.6392 132.58252
-68.607895 1189.6392 132.58252
-63.330441 1189.6392 132.58252
-58.052891 1189.6392 132.58252
-52.775333 1189.6392 132.58252
-47.49778 1189.6392 132.58252
-42.22023 1189.6392 132.58252
-36.942772 1189.6392 132.58252
-31.949263 1180.3967 157.99097
-26.624367 1180.3967 157.99097
-21.110115 1189.6392 132.58252
-15.83256 1189.6392 132.58252
-10.555108 1189.6392 132.58252
-5.277554 1189.6392 132.58252
0 1189.6392 132.58252
5.2774534 1189.6392 132.58252
10.555108 1189.6392 132.58252
15.83256 1189.6392 132.58252
21.110216 1189.6392 132.58252
26.387667 1189.6392 132.58252
31.665119 1189.6392 132.58252
36.942772 1189.6392 132.58252
42.22023 1189.6392 132.58252
47.497883 1189.6392 132.58252
52.775333 1189.6392 132.58252
58.573528 1180.3967 157.99097
63.898525 1180.3967 157.99097
69.223312 1180.3967 157.99097
74.548309 1180.3967 157.99097
79.8731 1180.3967 157.99097
85.197891 1180.3967 157.99097
90.522888 1180.3967 157.99097
95.847679 1180.3967 157.99097
102.07214 1171.1543 183.39966
107.44427 1171.1543 183.39966
112.81641 1171.1543 183.39966
118.18874 1171.1543 183.39966
123.56087 1171.1543 183.39966
128.9332 1171.1543 183.39966
134.30534 1171.1543 183.39966
139.67747 1171.1543 183.39966
146.37532 1161.5696 209.74927
151.79655 1161.5696 209.74927
157.21799 1161.5696 209.74927
162.63921 1161.5696 209.74927
168.06042 1161.5696 209.74927
173.48186 1161.5696 209.74927
178.90309 1161.5696 209.74927
185.9937 1151.9849 236.09888
191.464 1151.9849 236.09888
196.93433 1151.9849 236.09888
202.40485 1151.9849 236.09888
207.87517 1151.9849 236.09888
213.34569 1151.9849 236.09888
218.81601 1151.9849 236.09888
224.28632 1151.9849 236.09888
229.75684 1151.9849 236.09888
235.22717 1151.9849 236.09888
242.93494 1142.0576 263.38965
248.45612 1142.0576 263.38965
256.31622 1132.1306 290.68018
261.88843 1132.1306 290.68018
269.98526 1121.8613 318.91211
275.61008 1121.8613 318.91211
281.23468 1121.8613 318.91211
289.54187 1111.5919 347.14355
-314.43576 1156.5792 207.6311
-309.01453 1156.5792 207.6311
-306.34244 1146.9493 233.96143
-300.87201 1146.9493 233.96143
-295.40158 1146.9493 233.96143
-289.93118 1146.9493 233.96143
-281.90799 1156.5792 207.6311
-276.48666 1156.5792 207.6311
-273.52002 1146.9493 233.96143
-268.04959 1146.9493 233.96143
-260.22269 1156.5792 207.6311
-254.80147 1156.5792 207.6311
-249.38014 1156.5792 207.6311
-243.9588 1156.5792 207.6311
-238.53748 1156.5792 207.6311
-231.00513 1166.2091 181.30054
-225.63301 1166.2091 181.30054
-220.26077 1166.2091 181.30054
-214.88853 1166.2091 181.30054
-207.67004 1175.4952 155.9104
-202.34515 1175.4952 155.9104
-197.02036 1175.4952 155.9104
-191.69547 1175.4952 155.9104
-186.37057 1175.4952 155.9104
-179.43613 1184.7811 130.52051
-174.15857 1184.7811 130.52051
-168.8811 1184.7811 130.52051
-163.60356 1184.7811 130.52051
-158.326 1184.7811 130.52051
-153.04846 1184.7811 130.52051
-147.7709 1184.7811 130.52051
-143.77162 1175.4952 155.9104
-138.44673 1175.4952 155.9104
-133.12184 1175.4952 155.9104
-127.79694 1175.4952 155.9104
-121.38322 1184.7811 130.52051
-116.10578 1184.7811 130.52051
-110.82822 1184.7811 130.52051
-105.55067 1184.7811 130.52051
-100.27312 1184.7811 130.52051
-94.99556 1184.7811 130.52051
-89.718109 1184.7811 130.52051
-84.440552 1184.7811 130.52051
-79.163002 1184.7811 130.52051
-73.885452 1184.7811 130.52051
-68.607895 1184.7811 130.52051
-63.330441 1184.7811 130.52051
-58.052891 1184.7811 130.52051
-52.775333 1184.7811 130.52051
-47.49778 1184.7811 130.52051
-42.22023 1184.7811 130.52051
-36.942772 1184.7811 130.52051
-31.949263 1175.4952 155.9104
-26.624367 1175.4952 155.9104
-21.110115 1184.7811 130.52051
-15.83256 1184.7811 130.52051
-10.555108 1184.7811 130.52051
-5.277554 1184.7811 130.52051
0 1184.7811 130.52051
5.2774534 1184.7811 130.52051
10.555108 1184.7811 130.52051
15.83256 1184.7811 130.52051
21.110216 1184.7811 130.52051
26.387667 1184.7811 130.52051
31.665119 1184.7811 130.52051
36.942772 1184.7811 130.52051
42.22023 1184.7811 130.52051
47.497883 1184.7811 130.52051
52.775333 1184.7811 130.52051
58.052788 1184.7811 130.52051
63.898525 1175.4952 155.9104
69.223312 1175.4952 155.9104
74.548309 1175.4952 155.9104
79.8731 1175.4952 155.9104
85.197891 1175.4952 155.9104
90.522888 1175.4952 155.9104
95.847679 1175.4952 155.9104
102.07214 1166.2091 181.30054
107.44427 1166.2091 181.30054
112.81641 1166.2091 181.30054
118.18874 1166.2091 181.30054
123.56087 1166.2091 181.30054
128.9332 1166.2091 181.30054
134.30534 1166.2091 181.30054
139.67747 1166.2091 181.30054
146.37532 1156.5792 207.6311
151.79655 1156.5792 207.6311
157.21799 1156.5792 207.6311
162.63921 1156.5792 207.6311
168.06042 1156.5792 207.6311
173.48186 1156.5792 207.6311
178.90309 1156.5792 207.6311
185.9937 1146.9493 233.96143
191.464 1146.9493 233.96143
196.93433 1146.9493 233.96143
202.40485 1146.9493 233.96143
207.87517 1146.9493 233.96143
213.34569 1146.9493 233.96143
218.81601 1146.9493 233.96143
224.28632 1146.9493 233.96143
229.75684 1146.9493 233.96143
235.22717 1146.9493 233.96143
242.93494 1136.9753 261.23218
248.45612 1136.9753 261.23218
256.31622 1127.0015 288.50293
261.88843 1127.0015 288.50293
269.98526 1116.6837 316.71436
275.61008 1116.6837 316.71436
281.23468 1116.6837 316.71436
289.54187 1106.366 344.92529
295.2193 1106.366 344.92529
-322.75357 1141.9138 231.82397
-317.28317 1141.9138 231.82397
-311.81284 1141.9138 231.82397
-306.34244 1141.9138 231.82397
-300.87201 1141.9138 231.82397
-295.40158 1141.9138 231.82397
-289.93118 1141.9138 231.82397
-281.90799 1151.5889 205.51294
-276.48666 1151.5889 205.51294
-271.06534 1151.5889 205.51294
-265.64401 1151.5889 205.51294
-260.22269 1151.5889 205.51294
-254.80147 1151.5889 205.51294
-249.38014 1151.5889 205.51294
-243.9588 1151.5889 205.51294
-238.53748 1151.5889 205.51294
-233.11615 1151.5889 205.51294
-227.69493 1151.5889 205.51294
-220.26077 1161.264 179.20166
-214.88853 1161.264 179.20166
-209.5163 1161.264 179.20166
-204.14407 1161.264 179.20166
-197.02036 1170.5936 153.82983
-191.69547 1170.5936 153.82983
-186.37057 1170.5936 153.82983
-181.04568 1170.5936 153.82983
-175.72078 1170.5936 153.82983
-170.396 1170.5936 153.82983
-165.07111 1170.5936 153.82983
-158.326 1179.9231 128.4585
-153.04846 1179.9231 128.4585
-149.09642 1170.5936 153.82983
-143.77162 1170.5936 153.82983
-138.44673 1170.5936 153.82983
-133.12184 1170.5936 153.82983
-127.79694 1170.5936 153.82983
-122.47205 1170.5936 153.82983
-116.10578 1179.9231 128.4585
-110.82822 1179.9231 128.4585
-105.55067 1179.9231 128.4585
-100.27312 1179.9231 128.4585
-94.99556 1179.9231 128.4585
-89.718109 1179.9231 128.4585
-84.440552 1179.9231 128.4585
-79.163002 1179.9231 128.4585
-73.885452 1179.9231 128.4585
-68.607895 1179.9231 128.4585
-63.330441 1179.9231 128.4585
-58.052891 1179.9231 128.4585
-52.775333 1179.9231 128.4585
-47.49778 1179.9231 128.4585
-42.22023 1179.9231 128.4585
-36.942772 1179.9231 128.4585
-31.66522 1179.9231 128.4585
-26.624367 1170.5936 153.82983
-21.110115 1179.9231 128.4585
-15.83256 1179.9231 128.4585
-10.555108 1179.9231 128.4585
-5.277554 1179.9231 128.4585
0 1179.9231 128.4585
5.2774534 1179.9231 128.4585
10.555108 1179.9231 128.4585
15.83256 1179.9231 128.4585
21.110216 1179.9231 128.4585
26.387667 1179.9231 128.4585
31.665119 1179.9231 128.4585
36.942772 1179.9231 128.4585
42.22023 1179.9231 128.4585
47.497883 1179.9231 128.4585
52.775333 1179.9231 128.4585
58.052788 1179.9231 128.4585
63.898525 1170.5936 153.82983
69.223312 1170.5936 153.82983
74.548309 1170.5936 153.82983
79.8731 1170.5936 153.82983
85.197891 1170.5936 153.82983
90.522888 1170.5936 153.82983
96.699806 1161.264 179.20166
102.07214 1161.264 179.20166
107.44427 1161.264 179.20166
112.81641 1161.264 179.20166
118.18874 1161.264 179.20166
123.56087 1161.264 179.20166
128.9332 1161.264 179.20166
134.30534 1161.264 179.20166
139.67747 1161.264 179.20166
145.04982 1161.264 179.20166
151.79655 1151.5889 205.51294
157.21799 1151.5889 205.51294
162.63921 1151.5889 205.51294
168.06042 1151.5889 205.51294
173.48186 1151.5889 205.51294
178.90309 1151.5889 205.51294
185.9937 1141.9138 231.82397
191.464 1141.9138 231.82397
196.93433 1141.9138 231.82397
202.40485 1141.9138 231.82397
207.87517 1141.9138 231.82397
213.34569 1141.9138 231.82397
218.81601 1141.9138 231.82397
224.28632 1141.9138 231.82397
229.75684 1141.9138 231.82397
235.22717 1141.9138 231.82397
240.69769 1141.9138 231.82397
248.45612 1131.8931 259.07495
253.97728 1131.8931 259.07495
259.49866 1131.8931 259.07495
267.46045 1121.8723 286.32593
275.61008 1111.5061 314.5166
281.23468 1111.5061 314.5166
289.54187 1101.1399 342.70703
295.2193 1101.1399 342.70703
-322.75357 1136.8783 229.68652
-317.28317 1136.8783 229.68652
-311.81284 1136.8783 229.68652
-306.34244 1136.8783 229.68652
-300.87201 1136.8783 229.68652
-295.40158 1136.8783 229.68652
-289.93118 1136.8783 229.68652
-281.90799 1146.5985 203.39453
-276.48666 1146.5985 203.39453
-271.06534 1146.5985 203.39453
-265.64401 1146.5985 203.39453
-260.22269 1146.5985 203.39453
-254.80147 1146.5985 203.39453
-249.38014 1146.5985 203.39453
-243.9588 1146.5985 203.39453
-238.53748 1146.5985 203.39453
-233.11615 1146.5985 203.39453
-227.69493 1146.5985 203.39453
-220.26077 1156.3188 177.10254
-214.88853 1156.3188 177.10254
-209.5163 1156.3188 177.10254
-204.14407 1156.3188 177.10254
-197.02036 1165.692 151.74927
-191.69547 1165.692 151.74927
-186.37057 1165.692 151.74927
-181.04568 1165.692 151.74927
-175.72078 1165.692 151.74927
-170.396 1165.692 151.74927
-165.07111 1165.692 151.74927
-158.326 1175.0652 126.39624
-153.04846 1175.0652 126.39624
-149.09642 1165.692 151.74927
-143.77162 1165.692 151.74927
-138.44673 1165.692 151.74927
-133.12184 1165.692 151.74927
-127.79694 1165.692 151.74927
-122.47205 1165.692 151.74927
-116.10578 1175.0652 126.39624
-110.82822 1175.0652 126.39624
-105.55067 1175.0652 126.39624
-100.27312 1175.0652 126.39624
-94.99556 1175.0652 126.39624
-89.718109 1175.0652 126.39624
-84.440552 1175.0652 126.39624
-79.163002 1175.0652 126.39624
-73.885452 1175.0652 126.39624
-68.607895 1175.0652 126.39624
-63.330441 1175.0652 126.39624
-58.052891 1175.0652 126.39624
-52.775333 1175.0652 126.39624
-47.49778 1175.0652 126.39624
-42.22023 1175.0652 126.39624
-36.942772 1175.0652 126.39624
-31.66522 1175.0652 126.39624
-26.624367 1165.692 151.74927
-21.110115 1175.0652 126.39624
-15.83256 1175.0652 126.39624
-10.555108 1175.0652 126.39624
-5.277554 1175.0652 126.39624
0 1175.0652 126.39624
5.2774534 1175.0652 126.39624
10.555108 1175.0652 126.39624
15.83256 1175.0652 126.39624
21.110216 1175.0652 126.39624
26.387667 1175.0652 126.39624
31.665119 1175.0652 126.39624
36.942772 1175.0652 126.39624
42.22023 1175.0652 126.39624
47.497883 1175.0652 126.39624
52.775333 1175.0652 126.39624
58.052788 1175.0652 126.39624
63.330441 1175.0652 126.39624
68.607895 1175.0652 126.39624
74.548309 1165.692 151.74927
79.8731 1165.692 151.74927
85.197891 1165.692 151.74927
90.522888 1165.692 151.74927
95.847679 1165.692 151.74927
102.07214 1156.3188 177.10254
107.44427 1156.3188 177.10254
112.81641 1156.3188 177.10254
118.18874 1156.3188 177.10254
123.56087 1156.3188 177.10254
128.9332 1156.3188 177.10254
134.30534 1156.3188 177.10254
139.67747 1156.3188 177.10254
145.04982 1156.3188 177.10254
151.79655 1146.5985 203.39453
157.21799 1146.5985 203.39453
162.63921 1146.5985 203.39453
168.06042 1146.5985 203.39453
173.48186 1146.5985 203.39453
180.52318 1136.8783 229.68652
185.9937 1136.8783 229.68652
191.464 1136.8783 229.68652
196.93433 1136.8783 229.68652
202.40485 1136.8783 229.68652
207.87517 1136.8783 229.68652
213.34569 1136.8783 229.68652
218.81601 1136.8783 229.68652
224.28632 1136.8783 229.68652
229.75684 1136.8783 229.68652
235.22717 1136.8783 229.68652
240.69769 1136.8783 229.68652
248.45612 1126.8107 256.91772
253.97728 1126.8107 256.91772
259.49866 1126.8107 256.91772
267.46045 1116.7433 284.14868
275.61008 1106.3286 312.31885
281.23468 1106.3286 312.31885
286.85928 1106.3286 312.31885
292.4841 1106.3286 312.31885
298.10873 1106.3286 312.31885
306.57394 1095.9139 340.48877
-322.75357 1131.8428 227.54883
-317.28317 1131.8428 227.54883
-311.81284 1131.8428 227.54883
-306.34244 1131.8428 227.54883
-300.87201 1131.8428 227.54883
-295.40158 1131.8428 227.54883
-289.93118 1131.8428 227.54883
-281.90799 1141.6082 201.27637
-276.48666 1141.6082 201.27637
-271.06534 1141.6082 201.27637
-265.64401 1141.6082 201.27637
-260.22269 1141.6082 201.27637
-254.80147 1141.6082 201.27637
-249.38014 1141.6082 201.27637
-243.9588 1141.6082 201.27637
-238.53748 1141.6082 201.27637
-233.11615 1141.6082 201.27637
-227.69493 1141.6082 201.27637
-220.26077 1151.3737 175.00342
-214.88853 1151.3737 175.00342
-209.5163 1151.3737 175.00342
-202.34515 1160.7905 149.6687
-197.02036 1160.7905 149.6687
-191.69547 1160.7905 149.6687
-186.37057 1160.7905 149.6687
-181.04568 1160.7905 149.6687
-175.72078 1160.7905 149.6687
-170.396 1160.7905 149.6687
-165.07111 1160.7905 149.6687
-158.326 1170.2072 124.33423
-153.04846 1170.2072 124.33423
-149.09642 1160.7905 149.6687
-143.77162 1160.7905 149.6687
-138.44673 1160.7905 149.6687
-133.12184 1160.7905 149.6687
-127.79694 1160.7905 149.6687
