ply
format ascii 1.0
comment PCL generated
element vertex 1582
property float x
property float y
property float z
element camera 0
property float view_px
property float view_py
property float view_pz
property float x_axisx
property float x_axisy
property float x_axisz
property float y_axisx
property float y_axisy
property float y_axisz
property float z_axisx
property float z_axisy
property float z_axisz
property float focal
property float scalex
property float scaley
property float centerx
property float centery
property int viewportx
property int viewporty
property float k1
property float k2
end_header
-292.4841 738.72205 156.27905
-286.85938 738.72205 156.27905
-283.86469 724.86975 182.98975
-278.18738 724.86975 182.98975
-272.51004 724.86975 182.98975
-266.83286 724.86975 182.98975
-261.15552 724.86975 182.98975
-255.47821 724.86975 182.98975
-249.8009 724.86975 182.98975
-244.12358 724.86975 182.98975
-240.72922 710.55566 210.59106
-182.2011 765.96497 103.7478
-176.67995 765.96497 103.7478
-171.15868 765.96497 103.7478
-165.63741 765.96497 103.7478
-160.11613 765.96497 103.7478
-153.17117 779.35571 77.927002
-147.70084 779.35571 77.927002
-142.23042 779.35571 77.927002
-138.03117 765.96497 103.7478
-131.28958 779.35571 77.927002
-125.81916 779.35571 77.927002
-120.34885 779.35571 77.927002
-114.87842 779.35571 77.927002
-109.408 779.35571 77.927002
-103.93758 779.35571 77.927002
-98.467163 779.35571 77.927002
-92.996849 779.35571 77.927002
-87.526421 779.35571 77.927002
-82.056 779.35571 77.927002
-76.585587 779.35571 77.927002
-71.115158 779.35571 77.927002
-65.055725 792.28455 52.99707
-59.634396 792.28455 52.99707
-54.21307 792.28455 52.99707
-48.349903 805.21338 28.067139
-42.977669 805.21338 28.067139
-37.605534 805.21338 28.067139
-32.233299 805.21338 28.067139
-27.106535 792.28455 52.99707
-21.488834 805.21338 28.067139
-16.116598 805.21338 28.067139
-10.649788 817.68054 4.0270996
-5.324894 817.68054 4.0270996
0 817.68054 4.0270996
5.3247924 817.68054 4.0270996
10.649788 817.68054 4.0270996
16.116598 805.21338 28.067139
21.488937 805.21338 28.067139
26.861067 805.21338 28.067139
32.233196 805.21338 28.067139
37.605534 805.21338 28.067139
43.370415 792.28455 52.99707
48.791843 792.28455 52.99707
54.21307 792.28455 52.99707
59.634293 792.28455 52.99707
65.055725 792.28455 52.99707
70.476952 792.28455 52.99707
75.898376 792.28455 52.99707
81.319603 792.28455 52.99707
86.740829 792.28455 52.99707
92.162254 792.28455 52.99707
97.583481 792.28455 52.99707
103.00491 792.28455 52.99707
107.44427 805.21338 28.067139
112.81641 805.21338 28.067139
118.18874 805.21338 28.067139
124.69002 792.28455 52.99707
130.11145 792.28455 52.99707
135.53267 792.28455 52.99707
140.9539 792.28455 52.99707
146.37532 792.28455 52.99707
153.17117 779.35571 77.927002
158.64169 779.35571 77.927002
164.112 779.35571 77.927002
169.58232 779.35571 77.927002
175.05284 779.35571 77.927002
182.2011 765.96497 103.7478
189.45126 752.57446 129.56812
-303.73343 733.54443 154.0813
-298.10873 733.54443 154.0813
-292.4841 733.54443 154.0813
-286.85938 733.54443 154.0813
-283.86469 719.64368 180.77148
-278.18738 719.64368 180.77148
-272.51004 719.64368 180.77148
-266.83286 719.64368 180.77148
-261.15552 719.64368 180.77148
-255.47821 719.64368 180.77148
-249.8009 719.64368 180.77148
-244.12358 719.64368 180.77148
-238.44638 719.64368 180.77148
-182.2011 760.88257 101.59033
-176.67995 760.88257 101.59033
-171.15868 760.88257 101.59033
-165.63741 760.88257 101.59033
-160.11613 760.88257 101.59033
-154.59486 760.88257 101.59033
-147.70084 774.32007 75.789551
-142.23042 774.32007 75.789551
-138.03117 760.88257 101.59033
-131.28958 774.32007 75.789551
-125.81916 774.32007 75.789551
-120.34885 774.32007 75.789551
-114.87842 774.32007 75.789551
-109.408 774.32007 75.789551
-103.93758 774.32007 75.789551
-98.467163 774.32007 75.789551
-92.996849 774.32007 75.789551
-87.526421 774.32007 75.789551
-82.056 774.32007 75.789551
-76.585587 774.32007 75.789551
-71.115158 774.32007 75.789551
-65.055725 787.29407 50.878906
-59.634396 787.29407 50.878906
-54.21307 787.29407 50.878906
-48.79174 787.29407 50.878906
-43.370415 787.29407 50.878906
-37.949188 787.29407 50.878906
-32.527863 787.29407 50.878906
-27.106535 787.29407 50.878906
-21.488834 800.26807 25.968018
-16.116598 800.26807 25.968018
-10.744469 800.26807 25.968018
-5.3722343 800.26807 25.968018
0 800.26807 25.968018
5.3721313 800.26807 25.968018
10.744469 800.26807 25.968018
16.116598 800.26807 25.968018
21.488937 800.26807 25.968018
26.861067 800.26807 25.968018
32.233196 800.26807 25.968018
37.949188 787.29407 50.878906
43.370415 787.29407 50.878906
48.791843 787.29407 50.878906
54.21307 787.29407 50.878906
59.634293 787.29407 50.878906
65.055725 787.29407 50.878906
70.476952 787.29407 50.878906
75.898376 787.29407 50.878906
81.319603 787.29407 50.878906
86.740829 787.29407 50.878906
92.162254 787.29407 50.878906
97.583481 787.29407 50.878906
103.00491 787.29407 50.878906
107.44427 800.26807 25.968018
112.81641 800.26807 25.968018
118.18874 800.26807 25.968018
124.69002 787.29407 50.878906
130.11145 787.29407 50.878906
135.53267 787.29407 50.878906
140.9539 787.29407 50.878906
146.37532 787.29407 50.878906
153.17117 774.32007 75.789551
158.64169 774.32007 75.789551
164.112 774.32007 75.789551
169.58232 774.32007 75.789551
175.05284 774.32007 75.789551
180.52318 774.32007 75.789551
189.45126 747.44519 127.39087
-306.57385 714.41772 178.55322
-300.89655 714.41772 178.55322
-295.2193 714.41772 178.55322
-289.54199 714.41772 178.55322
-283.86469 714.41772 178.55322
-278.18738 714.41772 178.55322
-272.51004 714.41772 178.55322
-266.83286 714.41772 178.55322
-261.15552 714.41772 178.55322
-255.47821 714.41772 178.55322
-249.8009 714.41772 178.55322
-244.12358 714.41772 178.55322
-238.44638 714.41772 178.55322
-193.24364 755.80017 99.433105
-187.72237 755.80017 99.433105
-182.2011 755.80017 99.433105
-176.67995 755.80017 99.433105
-171.15868 755.80017 99.433105
-165.63741 755.80017 99.433105
-160.11613 755.80017 99.433105
-154.59486 755.80017 99.433105
-147.70084 769.28455 73.6521
-142.23042 769.28455 73.6521
-138.03117 755.80017 99.433105
-132.5099 755.80017 99.433105
-126.98864 755.80017 99.433105
-121.46747 755.80017 99.433105
-114.87842 769.28455 73.6521
-109.408 769.28455 73.6521
-103.93758 769.28455 73.6521
-98.467163 769.28455 73.6521
-92.996849 769.28455 73.6521
-87.526421 769.28455 73.6521
-82.056 769.28455 73.6521
-76.585587 769.28455 73.6521
-71.115158 769.28455 73.6521
-65.644844 769.28455 73.6521
-60.174423 769.28455 73.6521
-54.21307 782.30371 48.760498
-48.79174 782.30371 48.760498
-43.370415 782.30371 48.760498
-37.949188 782.30371 48.760498
-32.527863 782.30371 48.760498
-27.106535 782.30371 48.760498
-21.488834 795.32288 23.868896
-16.116598 795.32288 23.868896
-10.744469 795.32288 23.868896
-5.3722343 795.32288 23.868896
0 795.32288 23.868896
5.3721313 795.32288 23.868896
10.744469 795.32288 23.868896
16.116598 795.32288 23.868896
21.488937 795.32288 23.868896
27.106535 782.30371 48.760498
32.52776 782.30371 48.760498
37.949188 782.30371 48.760498
43.370415 782.30371 48.760498
48.791843 782.30371 48.760498
54.21307 782.30371 48.760498
59.634293 782.30371 48.760498
65.055725 782.30371 48.760498
70.476952 782.30371 48.760498
75.898376 782.30371 48.760498
81.319603 782.30371 48.760498
86.740829 782.30371 48.760498
92.162254 782.30371 48.760498
97.583481 782.30371 48.760498
103.00491 782.30371 48.760498
107.44427 795.32288 23.868896
112.81641 795.32288 23.868896
118.18874 795.32288 23.868896
124.69002 782.30371 48.760498
130.11145 782.30371 48.760498
135.53267 782.30371 48.760498
140.9539 782.30371 48.760498
146.37532 782.30371 48.760498
153.17117 769.28455 73.6521
158.64169 769.28455 73.6521
164.112 769.28455 73.6521
169.58232 769.28455 73.6521
175.05284 769.28455 73.6521
180.52318 769.28455 73.6521
187.72247 755.80017 99.433105
-306.57385 709.19177 176.33496
-300.89655 709.19177 176.33496
-295.2193 709.19177 176.33496
-289.54199 709.19177 176.33496
-283.86469 709.19177 176.33496
-278.18738 709.19177 176.33496
-272.51004 709.19177 176.33496
-266.83286 709.19177 176.33496
-261.15552 709.19177 176.33496
-255.47821 709.19177 176.33496
-249.8009 709.19177 176.33496
-244.12358 709.19177 176.33496
-198.70528 709.19177 176.33496
-187.72237 750.7179 97.275635
-182.2011 750.7179 97.275635
-176.67995 750.7179 97.275635
-172.73491 737.18689 123.03662
-165.63741 750.7179 97.275635
-160.11613 750.7179 97.275635
-154.59486 750.7179 97.275635
-147.70084 764.24902 71.514648
-142.23042 764.24902 71.514648
-138.03117 750.7179 97.275635
-132.5099 750.7179 97.275635
-126.98864 750.7179 97.275635
-121.46747 750.7179 97.275635
-115.94621 750.7179 97.275635
-110.42493 750.7179 97.275635
-104.90366 750.7179 97.275635
-98.467163 764.24902 71.514648
-92.996849 764.24902 71.514648
-87.526421 764.24902 71.514648
-82.056 764.24902 71.514648
-76.585587 764.24902 71.514648
-71.115158 764.24902 71.514648
-65.644844 764.24902 71.514648
-60.174423 764.24902 71.514648
-54.704002 764.24902 71.514648
-49.233582 764.24902 71.514648
-43.370415 777.31348 46.642334
-37.949188 777.31348 46.642334
-32.527863 777.31348 46.642334
-27.106535 777.31348 46.642334
-21.488834 790.37781 21.769775
-16.116598 790.37781 21.769775
-10.744469 790.37781 21.769775
-5.3722343 790.37781 21.769775
0 790.37781 21.769775
5.3721313 790.37781 21.769775
10.744469 790.37781 21.769775
16.116598 790.37781 21.769775
21.68531 777.31348 46.642334
27.106535 777.31348 46.642334
32.52776 777.31348 46.642334
37.949188 777.31348 46.642334
43.370415 777.31348 46.642334
48.791843 777.31348 46.642334
54.21307 777.31348 46.642334
59.634293 777.31348 46.642334
65.055725 777.31348 46.642334
70.476952 777.31348 46.642334
75.898376 777.31348 46.642334
81.319603 777.31348 46.642334
86.740829 777.31348 46.642334
92.162254 777.31348 46.642334
97.583481 777.31348 46.642334
103.00491 777.31348 46.642334
108.42614 777.31348 46.642334
113.84736 777.31348 46.642334
119.26879 777.31348 46.642334
124.69002 777.31348 46.642334
130.11145 777.31348 46.642334
135.53267 777.31348 46.642334
140.9539 777.31348 46.642334
146.37532 777.31348 46.642334
153.17117 764.24902 71.514648
158.64169 764.24902 71.514648
164.112 764.24902 71.514648
169.58232 764.24902 71.514648
175.05284 764.24902 71.514648
180.52318 764.24902 71.514648
187.72247 750.7179 97.275635
-306.57385 703.9657 174.11646
-300.89655 703.9657 174.11646
-295.2193 703.9657 174.11646
-289.54199 703.9657 174.11646
-283.86469 703.9657 174.11646
-278.18738 703.9657 174.11646
-272.51004 703.9657 174.11646
-266.83286 703.9657 174.11646
-261.15552 703.9657 174.11646
-255.47821 703.9657 174.11646
-249.8009 703.9657 174.11646
-244.12358 703.9657 174.11646
-198.70528 703.9657 174.11646
-193.02797 703.9657 174.11646
-182.2011 745.6355 95.118408
-176.67995 745.6355 95.118408
-172.73491 732.05774 120.85938
-165.63741 745.6355 95.118408
-160.11613 745.6355 95.118408
-154.59486 745.6355 95.118408
-149.07372 745.6355 95.118408
-143.55244 745.6355 95.118408
-138.03117 745.6355 95.118408
-132.5099 745.6355 95.118408
-126.98864 745.6355 95.118408
-121.46747 745.6355 95.118408
-115.94621 745.6355 95.118408
-110.42493 745.6355 95.118408
-104.90366 745.6355 95.118408
-99.382401 745.6355 95.118408
-93.861237 745.6355 95.118408
-87.526421 759.2135 69.377197
-82.056 759.2135 69.377197
-76.585587 759.2135 69.377197
-71.115158 759.2135 69.377197
-65.644844 759.2135 69.377197
-60.174423 759.2135 69.377197
-54.704002 759.2135 69.377197
-49.233582 759.2135 69.377197
-43.763157 759.2135 69.377197
-37.949188 772.323 44.523926
-32.527863 772.323 44.523926
-27.106535 772.323 44.523926
-21.685207 772.323 44.523926
-16.26388 772.323 44.523926
-10.842655 772.323 44.523926
-5.4213276 772.323 44.523926
0 772.323 44.523926
5.4212241 772.323 44.523926
10.842655 772.323 44.523926
16.26388 772.323 44.523926
21.68531 772.323 44.523926
27.106535 772.323 44.523926
32.52776 772.323 44.523926
37.949188 772.323 44.523926
43.370415 772.323 44.523926
48.791843 772.323 44.523926
54.21307 772.323 44.523926
59.634293 772.323 44.523926
65.055725 772.323 44.523926
70.476952 772.323 44.523926
75.898376 772.323 44.523926
81.319603 772.323 44.523926
86.740829 772.323 44.523926
92.162254 772.323 44.523926
97.583481 772.323 44.523926
103.00491 772.323 44.523926
108.42614 772.323 44.523926
113.84736 772.323 44.523926
119.26879 772.323 44.523926
124.69002 772.323 44.523926
130.11145 772.323 44.523926
135.53267 772.323 44.523926
140.9539 772.323 44.523926
146.37532 772.323 44.523926
153.17117 759.2135 69.377197
158.64169 759.2135 69.377197
164.112 759.2135 69.377197
169.58232 759.2135 69.377197
175.05284 759.2135 69.377197
182.2011 745.6355 95.118408
189.45126 732.05774 120.85938
-306.57385 698.73975 171.89819
-300.89655 698.73975 171.89819
-295.2193 698.73975 171.89819
-289.54199 698.73975 171.89819
-283.86469 698.73975 171.89819
-278.18738 698.73975 171.89819
-272.51004 698.73975 171.89819
-266.83286 698.73975 171.89819
-261.15552 698.73975 171.89819
-255.47821 698.73975 171.89819
-249.8009 698.73975 171.89819
-244.12358 698.73975 171.89819
-198.70528 698.73975 171.89819
-193.02797 698.73975 171.89819
-185.61484 712.83423 145.29028
-179.99023 712.83423 145.29028
-174.36551 712.83423 145.29028
-167.16281 726.92871 118.68213
-161.5907 726.92871 118.68213
-154.59486 740.55322 92.961182
-149.07372 740.55322 92.961182
-143.55244 740.55322 92.961182
-138.03117 740.55322 92.961182
-132.5099 740.55322 92.961182
-126.98864 740.55322 92.961182
-121.46747 740.55322 92.961182
-115.94621 740.55322 92.961182
-110.42493 740.55322 92.961182
-104.90366 740.55322 92.961182
-99.382401 740.55322 92.961182
-93.861237 740.55322 92.961182
-88.339973 740.55322 92.961182
-82.818703 740.55322 92.961182
-76.585587 754.17798 67.239746
-71.115158 754.17798 67.239746
-65.644844 754.17798 67.239746
-60.174423 754.17798 67.239746
-54.704002 754.17798 67.239746
-49.233582 754.17798 67.239746
-43.763157 754.17798 67.239746
-37.949188 767.33276 42.405762
-32.527863 767.33276 42.405762
-27.106535 767.33276 42.405762
-21.685207 767.33276 42.405762
-16.26388 767.33276 42.405762
-10.842655 767.33276 42.405762
-5.4213276 767.33276 42.405762
0 767.33276 42.405762
5.4212241 767.33276 42.405762
10.842655 767.33276 42.405762
16.26388 767.33276 42.405762
21.68531 767.33276 42.405762
27.106535 767.33276 42.405762
32.52776 767.33276 42.405762
37.949188 767.33276 42.405762
43.370415 767.33276 42.405762
48.791843 767.33276 42.405762
54.21307 767.33276 42.405762
59.634293 767.33276 42.405762
65.055725 767.33276 42.405762
70.476952 767.33276 42.405762
75.898376 767.33276 42.405762
81.319603 767.33276 42.405762
86.740829 767.33276 42.405762
92.162254 767.33276 42.405762
97.583481 767.33276 42.405762
103.00491 767.33276 42.405762
108.42614 767.33276 42.405762
113.84736 767.33276 42.405762
119.26879 767.33276 42.405762
124.69002 767.33276 42.405762
130.11145 767.33276 42.405762
135.53267 767.33276 42.405762
140.9539 767.33276 42.405762
146.37532 767.33276 42.405762
153.17117 754.17798 67.239746
158.64169 754.17798 67.239746
164.112 754.17798 67.239746
169.58232 754.17798 67.239746
175.05284 754.17798 67.239746
182.2011 740.55322 92.961182
-295.2193 693.51379 169.67993
-286.85938 707.65662 143.09253
-281.23468 707.65662 143.09253
-278.18738 693.51379 169.67993
-272.51004 693.51379 169.67993
-266.83286 693.51379 169.67993
-261.15552 693.51379 169.67993
-255.47821 693.51379 169.67993
-249.8009 693.51379 169.67993
-244.12358 693.51379 169.67993
-196.86427 707.65662 143.09253
-191.23956 707.65662 143.09253
-185.61484 707.65662 143.09253
-179.99023 707.65662 143.09253
-174.36551 707.65662 143.09253
-168.7408 707.65662 143.09253
-161.5907 721.79944 116.50488
-156.01857 721.79944 116.50488
-149.07372 735.47083 90.803711
-143.55244 735.47083 90.803711
-138.03117 735.47083 90.803711
-132.5099 735.47083 90.803711
-126.98864 735.47083 90.803711
-121.46747 735.47083 90.803711
-115.94621 735.47083 90.803711
-110.42493 735.47083 90.803711
-104.90366 735.47083 90.803711
-99.382401 735.47083 90.803711
-93.861237 735.47083 90.803711
-88.339973 735.47083 90.803711
-82.818703 735.47083 90.803711
-77.297432 735.47083 90.803711
-71.776169 735.47083 90.803711
-65.644844 749.14246 65.102295
-60.174423 749.14246 65.102295
-54.704002 749.14246 65.102295
-49.233582 749.14246 65.102295
-43.763157 749.14246 65.102295
-38.292843 749.14246 65.102295
-32.822422 749.14246 65.102295
-27.106535 762.34241 40.287598
-21.685207 762.34241 40.287598
-16.26388 762.34241 40.287598
-10.842655 762.34241 40.287598
-5.4213276 762.34241 40.287598
0 762.34241 40.287598
5.4212241 762.34241 40.287598
10.842655 762.34241 40.287598
16.26388 762.34241 40.287598
21.68531 762.34241 40.287598
27.106535 762.34241 40.287598
32.52776 762.34241 40.287598
37.949188 762.34241 40.287598
43.370415 762.34241 40.287598
48.791843 762.34241 40.287598
54.21307 762.34241 40.287598
59.634293 762.34241 40.287598
65.055725 762.34241 40.287598
70.476952 762.34241 40.287598
75.898376 762.34241 40.287598
81.319603 762.34241 40.287598
86.740829 762.34241 40.287598
92.162254 762.34241 40.287598
97.583481 762.34241 40.287598
103.00491 762.34241 40.287598
108.42614 762.34241 40.287598
113.84736 762.34241 40.287598
119.26879 762.34241 40.287598
124.69002 762.34241 40.287598
130.11145 762.34241 40.287598
135.53267 762.34241 40.287598
140.9539 762.34241 40.287598
146.37532 762.34241 40.287598
153.17117 749.14246 65.102295
158.64169 749.14246 65.102295
164.112 749.14246 65.102295
169.58232 749.14246 65.102295
175.05284 749.14246 65.102295
182.2011 735.47083 90.803711
187.72247 735.47083 90.803711
-295.2193 688.28784 167.46167
-286.85938 702.47913 140.89478
-281.23468 702.47913 140.89478
-278.18738 688.28784 167.46167
-272.51004 688.28784 167.46167
-266.83286 688.28784 167.46167
-261.15552 688.28784 167.46167
-255.47821 688.28784 167.46167
-249.8009 688.28784 167.46167
-196.86427 702.47913 140.89478
-191.23956 702.47913 140.89478
-183.87904 716.67041 114.32788
-178.30704 716.67041 114.32788
-174.36551 702.47913 140.89478
-167.16281 716.67041 114.32788
-161.5907 716.67041 114.32788
-156.01857 716.67041 114.32788
-150.44656 716.67041 114.32788
-144.87445 716.67041 114.32788
-138.03117 730.38867 88.646484
-132.5099 730.38867 88.646484
-126.98864 730.38867 88.646484
-121.46747 730.38867 88.646484
-115.94621 730.38867 88.646484
-110.42493 730.38867 88.646484
-104.90366 730.38867 88.646484
-99.382401 730.38867 88.646484
-93.861237 730.38867 88.646484
-88.339973 730.38867 88.646484
-82.818703 730.38867 88.646484
-77.297432 730.38867 88.646484
-71.776169 730.38867 88.646484
-65.644844 744.10693 62.964844
-60.174423 744.10693 62.964844
-54.704002 744.10693 62.964844
-49.233582 744.10693 62.964844
-43.763157 744.10693 62.964844
-38.292843 744.10693 62.964844
-32.822422 744.10693 62.964844
-27.352001 744.10693 62.964844
-21.685207 757.35205 38.169189
-16.26388 757.35205 38.169189
-10.842655 757.35205 38.169189
-5.4213276 757.35205 38.169189
0 757.35205 38.169189
5.4212241 757.35205 38.169189
10.842655 757.35205 38.169189
16.26388 757.35205 38.169189
21.68531 757.35205 38.169189
27.106535 757.35205 38.169189
32.52776 757.35205 38.169189
37.949188 757.35205 38.169189
43.370415 757.35205 38.169189
48.791843 757.35205 38.169189
54.21307 757.35205 38.169189
59.634293 757.35205 38.169189
65.055725 757.35205 38.169189
70.476952 757.35205 38.169189
75.898376 757.35205 38.169189
81.319603 757.35205 38.169189
86.740829 757.35205 38.169189
92.162254 757.35205 38.169189
97.583481 757.35205 38.169189
103.00491 757.35205 38.169189
108.42614 757.35205 38.169189
113.84736 757.35205 38.169189
119.26879 757.35205 38.169189
124.69002 757.35205 38.169189
130.11145 757.35205 38.169189
135.53267 757.35205 38.169189
140.9539 757.35205 38.169189
146.37532 757.35205 38.169189
153.17117 744.10693 62.964844
158.64169 744.10693 62.964844
164.112 744.10693 62.964844
169.58232 744.10693 62.964844
175.05284 744.10693 62.964844
182.2011 730.38867 88.646484
187.72247 730.38867 88.646484
-292.314 668.34741 192.67456
-286.58234 668.34741 192.67456
-278.18738 683.06177 165.24341
-272.51004 683.06177 165.24341
-266.83286 683.06177 165.24341
-261.15552 683.06177 165.24341
-255.47821 683.06177 165.24341
-196.86427 697.30151 138.69702
-191.23956 697.30151 138.69702
-183.87904 711.54126 112.15063
-178.30704 711.54126 112.15063
-174.36551 697.30151 138.69702
-167.16281 711.54126 112.15063
-161.5907 711.54126 112.15063
-156.01857 711.54126 112.15063
-150.44656 711.54126 112.15063
-144.87445 711.54126 112.15063
-138.03117 725.30615 86.489014
-132.5099 725.30615 86.489014
-126.98864 725.30615 86.489014
-121.46747 725.30615 86.489014
-115.94621 725.30615 86.489014
-110.42493 725.30615 86.489014
-104.90366 725.30615 86.489014
-99.382401 725.30615 86.489014
-93.861237 725.30615 86.489014
-88.339973 725.30615 86.489014
-82.818703 725.30615 86.489014
-76.585587 739.07129 60.827393
-71.115158 739.07129 60.827393
-65.644844 739.07129 60.827393
-60.174423 739.07129 60.827393
-54.704002 739.07129 60.827393
-49.233582 739.07129 60.827393
-43.763157 739.07129 60.827393
-38.292843 739.07129 60.827393
-32.822422 739.07129 60.827393
-27.352001 739.07129 60.827393
-21.685207 752.36169 36.051025
-16.26388 752.36169 36.051025
-10.842655 752.36169 36.051025
-5.4213276 752.36169 36.051025
0 752.36169 36.051025
5.4212241 752.36169 36.051025
10.842655 752.36169 36.051025
16.26388 752.36169 36.051025
21.68531 752.36169 36.051025
27.106535 752.36169 36.051025
32.52776 752.36169 36.051025
37.949188 752.36169 36.051025
43.370415 752.36169 36.051025
48.791843 752.36169 36.051025
54.21307 752.36169 36.051025
59.634293 752.36169 36.051025
65.055725 752.36169 36.051025
70.476952 752.36169 36.051025
75.898376 752.36169 36.051025
81.319603 752.36169 36.051025
86.740829 752.36169 36.051025
92.162254 752.36169 36.051025
97.583481 752.36169 36.051025
103.00491 752.36169 36.051025
108.42614 752.36169 36.051025
113.84736 752.36169 36.051025
119.26879 752.36169 36.051025
124.69002 752.36169 36.051025
130.11145 752.36169 36.051025
135.53267 752.36169 36.051025
140.9539 752.36169 36.051025
146.37532 752.36169 36.051025
153.17117 739.07129 60.827393
158.64169 739.07129 60.827393
164.112 739.07129 60.827393
169.58232 739.07129 60.827393
175.05284 739.07129 60.827393
182.2011 725.30615 86.489014
189.45126 711.54126 112.15063
-280.85068 663.07153 190.43506
-275.11899 663.07153 190.43506
-269.38745 663.07153 190.43506
-196.86427 692.12402 136.49951
-191.23956 692.12402 136.49951
-185.61484 692.12402 136.49951
-179.99023 692.12402 136.49951
-174.36551 692.12402 136.49951
-168.7408 692.12402 136.49951
-161.5907 706.41211 109.97339
-156.01857 706.41211 109.97339
-150.44656 706.41211 109.97339
-144.87445 706.41211 109.97339
-139.30234 706.41211 109.97339
-133.73022 706.41211 109.97339
-126.98864 720.224 84.331787
-121.46747 720.224 84.331787
-115.94621 720.224 84.331787
-110.42493 720.224 84.331787
-104.90366 720.224 84.331787
-99.382401 720.224 84.331787
-93.861237 720.224 84.331787
-88.339973 720.224 84.331787
-82.818703 720.224 84.331787
-76.585587 734.03589 58.689941
-71.115158 734.03589 58.689941
-65.644844 734.03589 58.689941
-60.174423 734.03589 58.689941
-54.704002 734.03589 58.689941
-49.233582 734.03589 58.689941
-43.763157 734.03589 58.689941
-38.292843 734.03589 58.689941
-32.822422 734.03589 58.689941
-27.352001 734.03589 58.689941
-21.685207 747.37146 33.932617
-16.26388 747.37146 33.932617
-10.842655 747.37146 33.932617
-5.4213276 747.37146 33.932617
0 747.37146 33.932617
5.4212241 747.37146 33.932617
10.842655 747.37146 33.932617
16.26388 747.37146 33.932617
21.68531 747.37146 33.932617
27.106535 747.37146 33.932617
32.52776 747.37146 33.932617
37.949188 747.37146 33.932617
43.370415 747.37146 33.932617
48.791843 747.37146 33.932617
54.21307 747.37146 33.932617
59.634293 747.37146 33.932617
65.055725 747.37146 33.932617
70.476952 747.37146 33.932617
75.898376 747.37146 33.932617
81.319603 747.37146 33.932617
86.740829 747.37146 33.932617
92.162254 747.37146 33.932617
97.583481 747.37146 33.932617
103.00491 747.37146 33.932617
108.42614 747.37146 33.932617
113.84736 747.37146 33.932617
119.26879 747.37146 33.932617
124.69002 747.37146 33.932617
130.11145 747.37146 33.932617
135.53267 747.37146 33.932617
140.9539 747.37146 33.932617
147.70084 734.03589 58.689941
153.17117 734.03589 58.689941
158.64169 734.03589 58.689941
164.112 734.03589 58.689941
169.58232 734.03589 58.689941
175.05284 734.03589 58.689941
182.2011 720.224 84.331787
189.45126 706.41211 109.97339
-196.86427 686.94641 134.30151
-191.23956 686.94641 134.30151
-185.61484 686.94641 134.30151
-179.99023 686.94641 134.30151
-174.36551 686.94641 134.30151
-168.7408 686.94641 134.30151
-161.5907 701.28296 107.79614
-156.01857 701.28296 107.79614
-151.86678 686.94641 134.30151
-144.87445 701.28296 107.79614
-139.30234 701.28296 107.79614
-133.73022 701.28296 107.79614
-126.98864 715.1416 82.174561
-121.46747 715.1416 82.174561
-117.01398 701.28296 107.79614
-110.42493 715.1416 82.174561
-104.90366 715.1416 82.174561
-99.382401 715.1416 82.174561
-93.861237 715.1416 82.174561
-88.339973 715.1416 82.174561
-82.818703 715.1416 82.174561
-77.297432 715.1416 82.174561
-71.776169 715.1416 82.174561
-66.255005 715.1416 82.174561
-60.174423 729.00037 56.55249
-54.704002 729.00037 56.55249
-49.233582 729.00037 56.55249
-43.763157 729.00037 56.55249
-38.292843 729.00037 56.55249
-32.822422 729.00037 56.55249
-27.352001 729.00037 56.55249
-21.685207 742.3811 31.814453
-16.26388 742.3811 31.814453
-10.842655 742.3811 31.814453
-5.4704208 729.00037 56.55249
0 729.00037 56.55249
5.4703169 729.00037 56.55249
10.842655 742.3811 31.814453
16.26388 742.3811 31.814453
21.68531 742.3811 31.814453
27.106535 742.3811 31.814453
32.52776 742.3811 31.814453
37.949188 742.3811 31.814453
43.370415 742.3811 31.814453
48.791843 742.3811 31.814453
54.21307 742.3811 31.814453
59.634293 742.3811 31.814453
65.055725 742.3811 31.814453
70.476952 742.3811 31.814453
75.898376 742.3811 31.814453
81.319603 742.3811 31.814453
86.740829 742.3811 31.814453
92.162254 742.3811 31.814453
97.583481 742.3811 31.814453
103.00491 742.3811 31.814453
108.42614 742.3811 31.814453
113.84736 742.3811 31.814453
119.26879 742.3811 31.814453
124.69002 742.3811 31.814453
130.11145 742.3811 31.814453
135.53267 742.3811 31.814453
140.9539 742.3811 31.814453
147.70084 729.00037 56.55249
153.17117 729.00037 56.55249
158.64169 729.00037 56.55249
164.112 729.00037 56.55249
169.58232 729.00037 56.55249
176.67995 715.1416 82.174561
183.87904 701.28296 107.79614
189.45126 701.28296 107.79614
196.86427 686.94641 134.30151
-196.86427 681.76892 132.104
-191.23956 681.76892 132.104
-185.61484 681.76892 132.104
-179.99023 681.76892 132.104
-174.36551 681.76892 132.104
-168.7408 681.76892 132.104
-163.1161 681.76892 132.104
-157.49138 681.76892 132.104
-151.86678 681.76892 132.104
-144.87445 696.15381 105.61914
-139.30234 696.15381 105.61914
-133.73022 696.15381 105.61914
-126.98864 710.05933 80.01709
-121.46747 710.05933 80.01709
-117.01398 696.15381 105.61914
-110.42493 710.05933 80.01709
-104.90366 710.05933 80.01709
-99.382401 710.05933 80.01709
-93.861237 710.05933 80.01709
-88.339973 710.05933 80.01709
-82.818703 710.05933 80.01709
-77.297432 710.05933 80.01709
-71.776169 710.05933 80.01709
-66.255005 710.05933 80.01709
-60.733734 710.05933 80.01709
-54.704002 723.96484 54.415039
-49.233582 723.96484 54.415039
-43.763157 723.96484 54.415039
-38.292843 723.96484 54.415039
-32.822422 723.96484 54.415039
-27.352001 723.96484 54.415039
-21.881578 723.96484 54.415039
-16.26388 737.39075 29.696289
-10.842655 737.39075 29.696289
-5.4213276 737.39075 29.696289
0 723.96484 54.415039
5.4212241 737.39075 29.696289
10.842655 737.39075 29.696289
16.26388 737.39075 29.696289
21.68531 737.39075 29.696289
27.106535 737.39075 29.696289
32.52776 737.39075 29.696289
37.949188 737.39075 29.696289
43.370415 737.39075 29.696289
48.791843 737.39075 29.696289
54.21307 737.39075 29.696289
59.634293 737.39075 29.696289
65.055725 737.39075 29.696289
70.476952 737.39075 29.696289
75.898376 737.39075 29.696289
81.319603 737.39075 29.696289
86.740829 737.39075 29.696289
92.162254 737.39075 29.696289
97.583481 737.39075 29.696289
103.00491 737.39075 29.696289
108.42614 737.39075 29.696289
113.84736 737.39075 29.696289
119.26879 737.39075 29.696289
124.69002 737.39075 29.696289
130.11145 737.39075 29.696289
135.53267 737.39075 29.696289
142.23032 723.96484 54.415039
147.70084 723.96484 54.415039
153.17117 723.96484 54.415039
158.64169 723.96484 54.415039
164.112 723.96484 54.415039
169.58232 723.96484 54.415039
176.67995 710.05933 80.01709
182.2011 710.05933 80.01709
187.72247 710.05933 80.01709
196.86427 681.76892 132.104
-198.70528 662.15796 156.37012
-193.02797 662.15796 156.37012
-185.61484 676.59131 129.90625
-179.99023 676.59131 129.90625
-174.36551 676.59131 129.90625
-168.7408 676.59131 129.90625
-161.5907 691.02466 103.44189
-156.01857 691.02466 103.44189
-150.44656 691.02466 103.44189
-144.87445 691.02466 103.44189
-139.30234 691.02466 103.44189
-133.73022 691.02466 103.44189
-126.98864 704.97693 77.859863
-121.46747 704.97693 77.859863
-115.94621 704.97693 77.859863
-110.42493 704.97693 77.859863
-104.90366 704.97693 77.859863
-99.382401 704.97693 77.859863
-93.861237 704.97693 77.859863
-88.339973 704.97693 77.859863
-82.818703 704.97693 77.859863
-77.297432 704.97693 77.859863
-71.115158 718.9292 52.277588
-65.644844 718.9292 52.277588
-60.733734 704.97693 77.859863
-54.704002 718.9292 52.277588
-49.233582 718.9292 52.277588
-43.763157 718.9292 52.277588
-38.292843 718.9292 52.277588
-32.822422 718.9292 52.277588
-27.352001 718.9292 52.277588
-21.881578 718.9292 52.277588
-16.26388 732.40039 27.577881
-10.842655 732.40039 27.577881
-5.4213276 732.40039 27.577881
0 718.9292 52.277588
5.4212241 732.40039 27.577881
10.842655 732.40039 27.577881
16.26388 732.40039 27.577881
21.68531 732.40039 27.577881
27.106535 732.40039 27.577881
32.52776 732.40039 27.577881
37.949188 732.40039 27.577881
43.370415 732.40039 27.577881
48.791843 732.40039 27.577881
54.21307 732.40039 27.577881
59.634293 732.40039 27.577881
65.055725 732.40039 27.577881
70.476952 732.40039 27.577881
75.898376 732.40039 27.577881
81.319603 732.40039 27.577881
86.740829 732.40039 27.577881
92.162254 732.40039 27.577881
97.583481 732.40039 27.577881
103.00491 732.40039 27.577881
108.42614 732.40039 27.577881
113.84736 732.40039 27.577881
119.26879 732.40039 27.577881
124.69002 732.40039 27.577881
130.11145 732.40039 27.577881
135.53267 732.40039 27.577881
142.23032 718.9292 52.277588
147.70084 718.9292 52.277588
153.17117 718.9292 52.277588
158.64169 718.9292 52.277588
164.112 718.9292 52.277588
169.58232 718.9292 52.277588
176.67995 704.97693 77.859863
182.2011 704.97693 77.859863
187.72247 704.97693 77.859863
195.02327 691.02466 103.44189
-196.86427 671.41382 127.7085
-191.23956 671.41382 127.7085
-185.61484 671.41382 127.7085
-179.99023 671.41382 127.7085
-174.36551 671.41382 127.7085
-168.7408 671.41382 127.7085
-161.5907 685.89563 101.26465
-156.01857 685.89563 101.26465
-150.44656 685.89563 101.26465
-144.87445 685.89563 101.26465
-139.30234 685.89563 101.26465
-133.73022 685.89563 101.26465
-126.98864 699.89465 75.702637
-121.46747 699.89465 75.702637
-115.94621 699.89465 75.702637
-110.42493 699.89465 75.702637
-104.90366 699.89465 75.702637
-99.382401 699.89465 75.702637
-93.861237 699.89465 75.702637
-88.339973 699.89465 75.702637
-82.818703 699.89465 75.702637
-77.297432 699.89465 75.702637
-71.115158 713.8938 50.140137
-65.644844 713.8938 50.140137
-60.733734 699.89465 75.702637
-54.704002 713.8938 50.140137
-49.233582 713.8938 50.140137
-43.763157 713.8938 50.140137
-38.292843 713.8938 50.140137
-32.822422 713.8938 50.140137
-27.352001 713.8938 50.140137
-21.881578 713.8938 50.140137
-16.26388 727.41016 25.459717
-10.842655 727.41016 25.459717
-5.4704208 713.8938 50.140137
0 713.8938 50.140137
5.4212241 727.41016 25.459717
10.842655 727.41016 25.459717
16.26388 727.41016 25.459717
21.68531 727.41016 25.459717
27.106535 727.41016 25.459717
32.52776 727.41016 25.459717
37.949188 727.41016 25.459717
43.370415 727.41016 25.459717
48.791843 727.41016 25.459717
54.21307 727.41016 25.459717
59.634293 727.41016 25.459717
65.055725 727.41016 25.459717
70.476952 727.41016 25.459717
75.898376 727.41016 25.459717
81.319603 727.41016 25.459717
86.740829 727.41016 25.459717
92.162254 727.41016 25.459717
97.583481 727.41016 25.459717
103.00491 727.41016 25.459717
108.42614 727.41016 25.459717
113.84736 727.41016 25.459717
119.26879 727.41016 25.459717
124.69002 727.41016 25.459717
130.11145 727.41016 25.459717
135.53267 727.41016 25.459717
142.23032 713.8938 50.140137
147.70084 713.8938 50.140137
153.17117 713.8938 50.140137
158.64169 713.8938 50.140137
164.112 713.8938 50.140137
169.58232 713.8938 50.140137
176.67995 699.89465 75.702637
182.2011 699.89465 75.702637
187.72247 699.89465 75.702637
195.02327 685.89563 101.26465
-196.86427 666.23621 125.51074
-191.23956 666.23621 125.51074
-185.61484 666.23621 125.51074
-179.99023 666.23621 125.51074
-174.36551 666.23621 125.51074
-167.16281 680.76636 99.087402
-161.5907 680.76636 99.087402
-156.01857 680.76636 99.087402
-150.44656 680.76636 99.087402
-144.87445 680.76636 99.087402
-139.30234 680.76636 99.087402
-133.73022 680.76636 99.087402
-128.15811 680.76636 99.087402
-122.58611 680.76636 99.087402
-117.01398 680.76636 99.087402
-111.44187 680.76636 99.087402
-104.90366 694.81226 73.545166
-99.382401 694.81226 73.545166
-93.861237 694.81226 73.545166
-88.339973 694.81226 73.545166
-82.818703 694.81226 73.545166
-77.297432 694.81226 73.545166
-71.115158 708.85815 48.002686
-65.644844 708.85815 48.002686
-60.733734 694.81226 73.545166
-55.212467 694.81226 73.545166
-49.6912 694.81226 73.545166
-43.763157 708.85815 48.002686
-38.292843 708.85815 48.002686
-32.822422 708.85815 48.002686
-27.352001 708.85815 48.002686
-21.881578 708.85815 48.002686
-16.41116 708.85815 48.002686
-10.940842 708.85815 48.002686
-5.4704208 708.85815 48.002686
0 708.85815 48.002686
5.4212241 722.41968 23.341309
10.842655 722.41968 23.341309
16.26388 722.41968 23.341309
21.68531 722.41968 23.341309
27.106535 722.41968 23.341309
32.52776 722.41968 23.341309
37.949188 722.41968 23.341309
43.370415 722.41968 23.341309
48.791843 722.41968 23.341309
54.21307 722.41968 23.341309
59.634293 722.41968 23.341309
65.055725 722.41968 23.341309
70.476952 722.41968 23.341309
75.898376 722.41968 23.341309
81.319603 722.41968 23.341309
86.740829 722.41968 23.341309
92.162254 722.41968 23.341309
97.583481 722.41968 23.341309
103.00491 722.41968 23.341309
108.42614 722.41968 23.341309
113.84736 722.41968 23.341309
119.26879 722.41968 23.341309
125.81916 708.85815 48.002686
131.28969 708.85815 48.002686
136.76001 708.85815 48.002686
142.23032 708.85815 48.002686
147.70084 708.85815 48.002686
153.17117 708.85815 48.002686
158.64169 708.85815 48.002686
164.112 708.85815 48.002686
171.15857 694.81226 73.545166
176.67995 694.81226 73.545166
182.2011 694.81226 73.545166
187.72247 694.81226 73.545166
195.02327 680.76636 99.087402
-196.86427 661.05872 123.31299
-191.23956 661.05872 123.31299
-183.87904 675.63733 96.9104
-178.30704 675.63733 96.9104
-174.36551 661.05872 123.31299
-167.16281 675.63733 96.9104
-161.5907 675.63733 96.9104
-156.01857 675.63733 96.9104
-150.44656 675.63733 96.9104
-144.87445 675.63733 96.9104
-139.30234 675.63733 96.9104
-133.73022 675.63733 96.9104
-128.15811 675.63733 96.9104
-122.58611 675.63733 96.9104
-117.01398 675.63733 96.9104
-111.44187 675.63733 96.9104
-105.86976 675.63733 96.9104
-100.29764 675.63733 96.9104
-94.725632 675.63733 96.9104
-88.339973 689.72998 71.387939
-82.818703 689.72998 71.387939
-77.297432 689.72998 71.387939
-71.115158 703.82275 45.865234
-65.644844 703.82275 45.865234
-60.733734 689.72998 71.387939
-55.212467 689.72998 71.387939
-49.6912 689.72998 71.387939
-44.16993 689.72998 71.387939
-38.292843 703.82275 45.865234
-32.822422 703.82275 45.865234
-27.606234 689.72998 71.387939
-21.881578 703.82275 45.865234
-16.41116 703.82275 45.865234
-10.940842 703.82275 45.865234
-5.4704208 703.82275 45.865234
0 703.82275 45.865234
5.4703169 703.82275 45.865234
10.940842 703.82275 45.865234
16.26388 717.42944 21.223145
21.68531 717.42944 21.223145
27.106535 717.42944 21.223145
32.52776 717.42944 21.223145
37.949188 717.42944 21.223145
43.370415 717.42944 21.223145
48.791843 717.42944 21.223145
54.704002 703.82275 45.865234
60.174316 703.82275 45.865234
65.644844 703.82275 45.865234
70.476952 717.42944 21.223145
75.898376 717.42944 21.223145
81.319603 717.42944 21.223145
86.740829 717.42944 21.223145
92.162254 717.42944 21.223145
97.583481 717.42944 21.223145
103.00491 717.42944 21.223145
108.42614 717.42944 21.223145
113.84736 717.42944 21.223145
120.34885 703.82275 45.865234
125.81916 703.82275 45.865234
131.28969 703.82275 45.865234
136.76001 703.82275 45.865234
142.23032 703.82275 45.865234
147.70084 703.82275 45.865234
153.17117 703.82275 45.865234
158.64169 703.82275 45.865234
164.112 703.82275 45.865234
171.15857 689.72998 71.387939
176.67995 689.72998 71.387939
182.2011 689.72998 71.387939
187.72247 689.72998 71.387939
195.02327 675.63733 96.9104
-196.86427 655.8811 121.11523
-191.23956 655.8811 121.11523
-183.87904 670.50818 94.733154
-178.30704 670.50818 94.733154
-174.36551 655.8811 121.11523
-168.7408 655.8811 121.11523
-161.5907 670.50818 94.733154
-156.01857 670.50818 94.733154
-150.44656 670.50818 94.733154
-144.87445 670.50818 94.733154
-139.30234 670.50818 94.733154
-134.99263 655.8811 121.11523
-128.15811 670.50818 94.733154
-122.58611 670.50818 94.733154
-117.01398 670.50818 94.733154
-111.44187 670.50818 94.733154
-105.86976 670.50818 94.733154
-100.29764 670.50818 94.733154
-94.725632 670.50818 94.733154
-89.153519 670.50818 94.733154
-82.818703 684.64758 69.230469
-77.297432 684.64758 69.230469
-71.776169 684.64758 69.230469
-66.255005 684.64758 69.230469
-60.733734 684.64758 69.230469
-55.212467 684.64758 69.230469
-49.6912 684.64758 69.230469
-44.16993 684.64758 69.230469
-38.292843 698.78711 43.727783
-32.822422 698.78711 43.727783
-27.606234 684.64758 69.230469
-21.881578 698.78711 43.727783
-16.41116 698.78711 43.727783
-10.940842 698.78711 43.727783
-5.4704208 698.78711 43.727783
0 698.78711 43.727783
5.4703169 698.78711 43.727783
10.940842 698.78711 43.727783
16.41116 698.78711 43.727783
21.68531 712.43896 19.104736
27.106535 712.43896 19.104736
32.52776 712.43896 19.104736
37.949188 712.43896 19.104736
43.763157 698.78711 43.727783
49.233688 698.78711 43.727783
54.704002 698.78711 43.727783
59.634293 712.43896 19.104736
65.055725 712.43896 19.104736
71.115158 698.78711 43.727783
75.898376 712.43896 19.104736
81.319603 712.43896 19.104736
86.740829 712.43896 19.104736
92.162254 712.43896 19.104736
97.583481 712.43896 19.104736
103.00491 712.43896 19.104736
108.42614 712.43896 19.104736
113.84736 712.43896 19.104736
120.34885 698.78711 43.727783
125.81916 698.78711 43.727783
131.28969 698.78711 43.727783
136.76001 698.78711 43.727783
142.23032 698.78711 43.727783
147.70084 698.78711 43.727783
153.17117 698.78711 43.727783
158.64169 698.78711 43.727783
164.112 698.78711 43.727783
171.15857 684.64758 69.230469
176.67995 684.64758 69.230469
182.2011 684.64758 69.230469
187.72247 684.64758 69.230469
196.86427 655.8811 121.11523
202.48888 655.8811 121.11523
-191.23956 650.70349 118.91748
-183.87904 665.37891 92.555908
-178.30704 665.37891 92.555908
-174.36551 650.70349 118.91748
-168.7408 650.70349 118.91748
-163.1161 650.70349 118.91748
-157.49138 650.70349 118.91748
-151.86678 650.70349 118.91748
-146.24205 650.70349 118.91748
-140.61734 650.70349 118.91748
-134.99263 650.70349 118.91748
-129.3679 650.70349 118.91748
-123.7433 650.70349 118.91748
-117.01398 665.37891 92.555908
-111.44187 665.37891 92.555908
-105.86976 665.37891 92.555908
-100.29764 665.37891 92.555908
-94.725632 665.37891 92.555908
-89.153519 665.37891 92.555908
-82.818703 679.56519 67.073242
-77.297432 679.56519 67.073242
-71.776169 679.56519 67.073242
-66.255005 679.56519 67.073242
-60.733734 679.56519 67.073242
-55.212467 679.56519 67.073242
-49.6912 679.56519 67.073242
-44.16993 679.56519 67.073242
-38.292843 693.75159 41.590332
-32.822422 693.75159 41.590332
-27.606234 679.56519 67.073242
-21.881578 693.75159 41.590332
-16.41116 693.75159 41.590332
-10.940842 693.75159 41.590332
-5.4704208 693.75159 41.590332
0 693.75159 41.590332
5.4703169 693.75159 41.590332
10.940842 693.75159 41.590332
16.41116 693.75159 41.590332
21.881683 693.75159 41.590332
27.352001 693.75159 41.590332
32.822319 693.75159 41.590332
38.292843 693.75159 41.590332
43.763157 693.75159 41.590332
49.233688 693.75159 41.590332
54.704002 693.75159 41.590332
59.634293 707.44861 16.986572
65.055725 707.44861 16.986572
71.115158 693.75159 41.590332
75.898376 707.44861 16.986572
81.319603 707.44861 16.986572
86.740829 707.44861 16.986572
92.162254 707.44861 16.986572
97.583481 707.44861 16.986572
103.00491 707.44861 16.986572
108.42614 707.44861 16.986572
113.84736 707.44861 16.986572
120.34885 693.75159 41.590332
125.81916 693.75159 41.590332
131.28969 693.75159 41.590332
136.76001 693.75159 41.590332
142.23032 693.75159 41.590332
147.70084 693.75159 41.590332
153.17117 693.75159 41.590332
158.64169 693.75159 41.590332
164.112 693.75159 41.590332
171.15857 679.56519 67.073242
176.67995 679.56519 67.073242
182.2011 679.56519 67.073242
187.72247 679.56519 67.073242
196.86427 650.70349 118.91748
202.48888 650.70349 118.91748
-187.35065 630.80212 143.06055
-181.67343 630.80212 143.06055
-174.36551 645.526 116.71973
-168.7408 645.526 116.71973
-163.1161 645.526 116.71973
-157.49138 645.526 116.71973
-151.86678 645.526 116.71973
-146.24205 645.526 116.71973
-140.61734 645.526 116.71973
-134.99263 645.526 116.71973
-129.3679 645.526 116.71973
-123.7433 645.526 116.71973
-117.01398 660.24988 90.378662
-111.44187 660.24988 90.378662
-105.86976 660.24988 90.378662
-100.29764 660.24988 90.378662
-94.725632 660.24988 90.378662
-89.153519 660.24988 90.378662
-82.818703 674.48291 64.916016
-77.297432 674.48291 64.916016
-71.776169 674.48291 64.916016
-66.255005 674.48291 64.916016
-60.733734 674.48291 64.916016
-55.212467 674.48291 64.916016
-49.6912 674.48291 64.916016
-44.16993 674.48291 64.916016
-38.648773 674.48291 64.916016
-33.127502 674.48291 64.916016
-27.606234 674.48291 64.916016
-21.881578 688.71606 39.452881
-16.41116 688.71606 39.452881
-10.940842 688.71606 39.452881
-5.4704208 688.71606 39.452881
0 688.71606 39.452881
5.4703169 688.71606 39.452881
10.940842 688.71606 39.452881
16.41116 688.71606 39.452881
21.881683 688.71606 39.452881
27.352001 688.71606 39.452881
32.822319 688.71606 39.452881
38.292843 688.71606 39.452881
43.763157 688.71606 39.452881
48.791843 702.45837 14.868164
54.21307 702.45837 14.868164
60.174316 688.71606 39.452881
65.644844 688.71606 39.452881
71.115158 688.71606 39.452881
75.898376 702.45837 14.868164
81.319603 702.45837 14.868164
86.740829 702.45837 14.868164
92.162254 702.45837 14.868164
98.467163 688.71606 39.452881
103.00491 702.45837 14.868164
108.42614 702.45837 14.868164
113.84736 702.45837 14.868164
120.34885 688.71606 39.452881
125.81916 688.71606 39.452881
131.28969 688.71606 39.452881
136.76001 688.71606 39.452881
142.23032 688.71606 39.452881
147.70084 688.71606 39.452881
153.17117 688.71606 39.452881
158.64169 688.71606 39.452881
164.112 688.71606 39.452881
171.15857 674.48291 64.916016
176.67995 674.48291 64.916016
183.87904 660.24988 90.378662
189.45126 660.24988 90.378662
196.86427 645.526 116.71973
202.48888 645.526 116.71973
-187.35065 625.57605 140.84204
-181.67343 625.57605 140.84204
-174.36551 640.34839 114.52197
-168.7408 640.34839 114.52197
-163.1161 640.34839 114.52197
-157.49138 640.34839 114.52197
-151.86678 640.34839 114.52197
-146.24205 640.34839 114.52197
-140.61734 640.34839 114.52197
-134.99263 640.34839 114.52197
-129.3679 640.34839 114.52197
-123.7433 640.34839 114.52197
-118.11858 640.34839 114.52197
-112.49387 640.34839 114.52197
-105.86976 655.12061 88.201416
-100.29764 655.12061 88.201416
-94.725632 655.12061 88.201416
-89.153519 655.12061 88.201416
-82.818703 669.40051 62.758545
-77.297432 669.40051 62.758545
-71.776169 669.40051 62.758545
-66.255005 669.40051 62.758545
-60.733734 669.40051 62.758545
-55.212467 669.40051 62.758545
-49.6912 669.40051 62.758545
-44.16993 669.40051 62.758545
-38.648773 669.40051 62.758545
-33.127502 669.40051 62.758545
-27.606234 669.40051 62.758545
-21.881578 683.68054 37.31543
-16.41116 683.68054 37.31543
-10.940842 683.68054 37.31543
-5.4704208 683.68054 37.31543
0 683.68054 37.31543
5.4703169 683.68054 37.31543
10.940842 683.68054 37.31543
16.41116 683.68054 37.31543
21.881683 683.68054 37.31543
27.352001 683.68054 37.31543
32.822319 683.68054 37.31543
38.292843 683.68054 37.31543
43.763157 683.68054 37.31543
48.791843 697.46802 12.75
54.21307 697.46802 12.75
60.174316 683.68054 37.31543
65.644844 683.68054 37.31543
71.115158 683.68054 37.31543
76.585686 683.68054 37.31543
81.319603 697.46802 12.75
86.740829 697.46802 12.75
92.162254 697.46802 12.75
98.467163 683.68054 37.31543
103.00491 697.46802 12.75
108.42614 697.46802 12.75
113.84736 697.46802 12.75
120.34885 683.68054 37.31543
125.81916 683.68054 37.31543
131.28969 683.68054 37.31543
136.76001 683.68054 37.31543
142.23032 683.68054 37.31543
147.70084 683.68054 37.31543
153.17117 683.68054 37.31543
158.64169 683.68054 37.31543
164.112 683.68054 37.31543
169.58232 683.68054 37.31543
176.67995 669.40051 62.758545
183.87904 655.12061 88.201416
189.45126 655.12061 88.201416
-187.35065 620.35022 138.62378
-181.67343 620.35022 138.62378
-175.99611 620.35022 138.62378
-170.3188 620.35022 138.62378
-164.64149 620.35022 138.62378
-158.96417 620.35022 138.62378
-151.86678 635.1709 112.32422
-146.24205 635.1709 112.32422
-141.93234 620.35022 138.62378
-134.99263 635.1709 112.32422
-129.3679 635.1709 112.32422
-123.7433 635.1709 112.32422
-118.11858 635.1709 112.32422
-112.49387 635.1709 112.32422
-106.86916 635.1709 112.32422
-100.29764 649.99158 86.024414
-94.725632 649.99158 86.024414
-89.153519 649.99158 86.024414
-82.818703 664.31824 60.601318
-77.297432 664.31824 60.601318
-71.776169 664.31824 60.601318
-66.255005 664.31824 60.601318
-60.733734 664.31824 60.601318
-55.212467 664.31824 60.601318
-49.6912 664.31824 60.601318
-44.576702 649.99158 86.024414
-39.0047 649.99158 86.024414
-33.127502 664.31824 60.601318
-27.606234 664.31824 60.601318
-22.084965 664.31824 60.601318
-16.563698 664.31824 60.601318
-11.042537 664.31824 60.601318
-5.5212684 664.31824 60.601318
0 664.31824 60.601318
5.4703169 678.64502 35.177979
10.940842 678.64502 35.177979
16.41116 678.64502 35.177979
21.881683 678.64502 35.177979
27.352001 678.64502 35.177979
32.822319 678.64502 35.177979
38.292843 678.64502 35.177979
43.763157 678.64502 35.177979
48.791843 692.47766 10.631592
54.21307 692.47766 10.631592
60.174316 678.64502 35.177979
65.644844 678.64502 35.177979
71.115158 678.64502 35.177979
76.585686 678.64502 35.177979
81.319603 692.47766 10.631592
86.740829 692.47766 10.631592
92.162254 692.47766 10.631592
97.583481 692.47766 10.631592
103.00491 692.47766 10.631592
108.42614 692.47766 10.631592
113.84736 692.47766 10.631592
119.26879 692.47766 10.631592
125.81916 678.64502 35.177979
131.28969 678.64502 35.177979
136.76001 678.64502 35.177979
142.23032 678.64502 35.177979
147.70084 678.64502 35.177979
153.17117 678.64502 35.177979
158.64169 678.64502 35.177979
164.112 678.64502 35.177979
169.58232 678.64502 35.177979
176.67995 664.31824 60.601318
183.87904 649.99158 86.024414
191.23967 635.1709 112.32422
-187.35065 615.12415 136.40552
-181.67343 615.12415 136.40552
-175.99611 615.12415 136.40552
-170.3188 615.12415 136.40552
-164.64149 615.12415 136.40552
-158.96417 615.12415 136.40552
-153.28697 615.12415 136.40552
-147.60965 615.12415 136.40552
-141.93234 615.12415 136.40552
-134.99263 629.99329 110.12646
