ply
format ascii 1.0
comment PCL generated
element vertex 1580
property float x
property float y
property float z
element camera 0
property float view_px
property float view_py
property float view_pz
property float x_axisx
property float x_axisy
property float x_axisz
property float y_axisx
property float y_axisy
property float y_axisz
property float z_axisx
property float z_axisy
property float z_axisz
property float focal
property float scalex
property float scaley
property float centerx
property float centery
property int viewportx
property int viewporty
property float k1
property float k2
end_header
-403.08786 813.7113 220.70068
-397.41055 813.7113 220.70068
-391.73325 813.7113 220.70068
-389.75195 800.2478 248.66309
-384.02039 800.2478 248.66309
-378.2887 800.2478 248.66309
-372.55704 800.2478 248.66309
-366.82538 800.2478 248.66309
-361.09372 800.2478 248.66309
-355.36215 800.2478 248.66309
-349.63046 800.2478 248.66309
-343.8988 800.2478 248.66309
-121.46747 852.36462 140.42212
-115.94621 852.36462 140.42212
-110.42493 852.36462 140.42212
-104.90366 852.36462 140.42212
-99.382401 852.36462 140.42212
-94.725632 839.76978 166.58032
-89.153519 839.76978 166.58032
-83.581406 839.76978 166.58032
-77.297432 852.36462 140.42212
-71.776169 852.36462 140.42212
-66.255005 852.36462 140.42212
-60.733734 852.36462 140.42212
-54.704002 864.95972 114.26392
-49.233582 864.95972 114.26392
-43.763157 864.95972 114.26392
-38.292843 864.95972 114.26392
-32.822422 864.95972 114.26392
-27.352001 864.95972 114.26392
-21.685207 877.12024 89.007812
-16.26388 877.12024 89.007812
-10.842655 877.12024 89.007812
-5.4213276 877.12024 89.007812
0 877.12024 89.007812
5.4212241 877.12024 89.007812
10.842655 877.12024 89.007812
16.26388 877.12024 89.007812
21.68531 877.12024 89.007812
27.106535 877.12024 89.007812
32.233196 889.28088 63.751465
37.605534 889.28088 63.751465
42.977669 889.28088 63.751465
48.350006 889.28088 63.751465
54.21307 877.12024 89.007812
59.094265 889.28088 63.751465
64.466599 889.28088 63.751465
70.476952 877.12024 89.007812
75.898376 877.12024 89.007812
81.319603 877.12024 89.007812
86.740829 877.12024 89.007812
92.162254 877.12024 89.007812
97.583481 877.12024 89.007812
103.00491 877.12024 89.007812
109.408 864.95972 114.26392
114.87832 864.95972 114.26392
120.34885 864.95972 114.26392
125.81916 864.95972 114.26392
131.28969 864.95972 114.26392
136.76001 864.95972 114.26392
142.23032 864.95972 114.26392
147.70084 864.95972 114.26392
154.59486 852.36462 140.42212
160.11624 852.36462 140.42212
165.63741 852.36462 140.42212
171.15857 852.36462 140.42212
176.67995 852.36462 140.42212
183.87904 839.76978 166.58032
189.45126 839.76978 166.58032
196.86427 826.7406 193.64062
202.48888 826.7406 193.64062
208.11371 826.7406 193.64062
213.73831 826.7406 193.64062
219.36314 826.7406 193.64062
222.88374 839.76978 166.58032
228.45575 839.76978 166.58032
382.47913 826.7406 193.64062
388.10394 826.7406 193.64062
393.72855 826.7406 193.64062
399.35315 826.7406 193.64062
401.19077 839.76978 166.58032
406.76279 839.76978 166.58032
412.33502 839.76978 166.58032
417.90701 839.76978 166.58032
423.47903 839.76978 166.58032
429.05124 839.76978 166.58032
434.62326 839.76978 166.58032
444.35089 826.7406 193.64062
449.97549 826.7406 193.64062
455.6001 826.7406 193.64062
461.22488 826.7406 193.64062
471.21533 813.7113 220.70068
476.89276 813.7113 220.70068
-454.18347 808.48535 218.48242
-448.50616 808.48535 218.48242
-442.82886 808.48535 218.48242
-437.15164 808.48535 218.48242
-431.47433 808.48535 218.48242
-425.79703 808.48535 218.48242
-420.11972 808.48535 218.48242
-414.44241 808.48535 218.48242
-408.76517 808.48535 218.48242
-403.08786 808.48535 218.48242
-397.41055 808.48535 218.48242
-391.73325 808.48535 218.48242
-389.75195 794.97168 246.42334
-384.02039 794.97168 246.42334
-378.2887 794.97168 246.42334
-372.55704 794.97168 246.42334
-366.82538 794.97168 246.42334
-361.09372 794.97168 246.42334
-355.36215 794.97168 246.42334
-349.63046 794.97168 246.42334
-129.3679 821.56299 191.44287
-121.46747 847.28223 138.26489
-115.94621 847.28223 138.26489
-110.42493 847.28223 138.26489
-105.86976 834.64062 164.40308
-100.29764 834.64062 164.40308
-94.725632 834.64062 164.40308
-89.153519 834.64062 164.40308
-82.818703 847.28223 138.26489
-77.297432 847.28223 138.26489
-71.776169 847.28223 138.26489
-66.255005 847.28223 138.26489
-60.733734 847.28223 138.26489
-54.704002 859.92407 112.12622
-49.233582 859.92407 112.12622
-43.763157 859.92407 112.12622
-38.292843 859.92407 112.12622
-32.822422 859.92407 112.12622
-27.352001 859.92407 112.12622
-21.685207 872.12988 86.889404
-16.26388 872.12988 86.889404
-10.842655 872.12988 86.889404
-5.4213276 872.12988 86.889404
0 872.12988 86.889404
5.4212241 872.12988 86.889404
10.842655 872.12988 86.889404
16.26388 872.12988 86.889404
21.68531 872.12988 86.889404
27.106535 872.12988 86.889404
32.52776 872.12988 86.889404
37.949188 872.12988 86.889404
43.370415 872.12988 86.889404
48.791843 872.12988 86.889404
54.21307 872.12988 86.889404
59.634293 872.12988 86.889404
65.055725 872.12988 86.889404
70.476952 872.12988 86.889404
75.898376 872.12988 86.889404
81.319603 872.12988 86.889404
86.740829 872.12988 86.889404
92.162254 872.12988 86.889404
97.583481 872.12988 86.889404
103.00491 872.12988 86.889404
109.408 859.92407 112.12622
114.87832 859.92407 112.12622
120.34885 859.92407 112.12622
125.81916 859.92407 112.12622
131.28969 859.92407 112.12622
136.76001 859.92407 112.12622
142.23032 859.92407 112.12622
147.70084 859.92407 112.12622
153.17117 859.92407 112.12622
160.11624 847.28223 138.26489
165.63741 847.28223 138.26489
171.15857 847.28223 138.26489
176.67995 847.28223 138.26489
182.2011 847.28223 138.26489
189.45126 834.64062 164.40308
196.86427 821.56299 191.44287
202.48888 821.56299 191.44287
208.11371 821.56299 191.44287
213.73831 821.56299 191.44287
219.36314 821.56299 191.44287
224.98775 821.56299 191.44287
230.61235 821.56299 191.44287
384.47455 834.64062 164.40308
390.04654 834.64062 164.40308
399.35315 821.56299 191.44287
401.19077 834.64062 164.40308
406.76279 834.64062 164.40308
412.33502 834.64062 164.40308
417.90701 834.64062 164.40308
423.47903 834.64062 164.40308
429.05124 834.64062 164.40308
434.62326 834.64062 164.40308
444.35089 821.56299 191.44287
449.97549 821.56299 191.44287
455.6001 821.56299 191.44287
461.22488 821.56299 191.44287
466.84955 821.56299 191.44287
472.47433 821.56299 191.44287
-459.86078 803.2594 216.26416
-454.18347 803.2594 216.26416
-448.50616 803.2594 216.26416
-442.82886 803.2594 216.26416
-437.15164 803.2594 216.26416
-431.47433 803.2594 216.26416
-425.79703 803.2594 216.26416
-420.11972 803.2594 216.26416
-414.44241 803.2594 216.26416
-408.76517 803.2594 216.26416
-403.08786 803.2594 216.26416
-397.41055 803.2594 216.26416
-395.48364 789.6958 244.18384
-389.75195 789.6958 244.18384
-384.02039 789.6958 244.18384
-378.2887 789.6958 244.18384
-376.09003 776.1322 272.10376
-370.30399 776.1322 272.10376
-364.51797 776.1322 272.10376
-134.99263 816.3855 189.24512
-129.3679 816.3855 189.24512
-122.58611 829.51147 162.22607
-117.01398 829.51147 162.22607
-112.49387 816.3855 189.24512
-105.86976 829.51147 162.22607
-100.29764 829.51147 162.22607
-94.725632 829.51147 162.22607
-89.153519 829.51147 162.22607
-82.818703 842.19995 136.10767
-77.297432 842.19995 136.10767
-71.776169 842.19995 136.10767
-66.255005 842.19995 136.10767
-60.733734 842.19995 136.10767
-54.704002 854.88867 109.98901
-49.233582 854.88867 109.98901
-43.763157 854.88867 109.98901
-38.292843 854.88867 109.98901
-32.822422 854.88867 109.98901
-27.352001 854.88867 109.98901
-21.685207 867.13965 84.77124
-16.26388 867.13965 84.77124
-10.842655 867.13965 84.77124
-5.4213276 867.13965 84.77124
0 867.13965 84.77124
5.4212241 867.13965 84.77124
10.842655 867.13965 84.77124
16.26388 867.13965 84.77124
21.68531 867.13965 84.77124
27.106535 867.13965 84.77124
32.52776 867.13965 84.77124
37.949188 867.13965 84.77124
43.370415 867.13965 84.77124
48.791843 867.13965 84.77124
54.21307 867.13965 84.77124
59.634293 867.13965 84.77124
65.055725 867.13965 84.77124
70.476952 867.13965 84.77124
75.898376 867.13965 84.77124
81.319603 867.13965 84.77124
86.740829 867.13965 84.77124
92.162254 867.13965 84.77124
97.583481 867.13965 84.77124
103.00491 867.13965 84.77124
109.408 854.88867 109.98901
114.87832 854.88867 109.98901
120.34885 854.88867 109.98901
125.81916 854.88867 109.98901
131.28969 854.88867 109.98901
136.76001 854.88867 109.98901
142.23032 854.88867 109.98901
147.70084 854.88867 109.98901
153.17117 854.88867 109.98901
160.11624 842.19995 136.10767
165.63741 842.19995 136.10767
171.15857 842.19995 136.10767
176.67995 842.19995 136.10767
182.2011 842.19995 136.10767
189.45126 829.51147 162.22607
196.86427 816.3855 189.24512
202.48888 816.3855 189.24512
208.11371 816.3855 189.24512
213.73831 816.3855 189.24512
219.36314 816.3855 189.24512
224.98775 816.3855 189.24512
230.61235 816.3855 189.24512
384.47455 829.51147 162.22607
390.04654 829.51147 162.22607
399.35315 816.3855 189.24512
401.19077 829.51147 162.22607
406.76279 829.51147 162.22607
412.33502 829.51147 162.22607
417.90701 829.51147 162.22607
423.47903 829.51147 162.22607
429.05124 829.51147 162.22607
434.62326 829.51147 162.22607
440.19547 829.51147 162.22607
449.97549 816.3855 189.24512
455.6001 816.3855 189.24512
461.22488 816.3855 189.24512
466.84955 816.3855 189.24512
472.47433 816.3855 189.24512
482.56995 803.2594 216.26416
-459.86078 798.03333 214.0459
-454.18347 798.03333 214.0459
-448.50616 798.03333 214.0459
-442.82886 798.03333 214.0459
-437.15164 798.03333 214.0459
-431.47433 798.03333 214.0459
-425.79703 798.03333 214.0459
-420.11972 798.03333 214.0459
-414.44241 798.03333 214.0459
-408.76517 798.03333 214.0459
-403.08786 798.03333 214.0459
-401.21527 784.41968 241.94434
-395.48364 784.41968 241.94434
-389.75195 784.41968 241.94434
-384.02039 784.41968 241.94434
-378.2887 784.41968 241.94434
-376.09003 770.80603 269.84302
-370.30399 770.80603 269.84302
-134.99263 811.20776 187.04736
-129.3679 811.20776 187.04736
-123.7433 811.20776 187.04736
-118.11858 811.20776 187.04736
-112.49387 811.20776 187.04736
-105.86976 824.38232 160.04883
-100.29764 824.38232 160.04883
-94.725632 824.38232 160.04883
-89.153519 824.38232 160.04883
-82.818703 837.11768 133.9502
-77.297432 837.11768 133.9502
-71.776169 837.11768 133.9502
-66.255005 837.11768 133.9502
-60.733734 837.11768 133.9502
-55.212467 837.11768 133.9502
-49.233582 849.85303 107.85132
-43.763157 849.85303 107.85132
-38.292843 849.85303 107.85132
-32.822422 849.85303 107.85132
-27.352001 849.85303 107.85132
-21.685207 862.14917 82.653076
-16.26388 862.14917 82.653076
-10.940842 849.85303 107.85132
-5.4704208 849.85303 107.85132
0 849.85303 107.85132
5.4212241 862.14917 82.653076
10.842655 862.14917 82.653076
16.26388 862.14917 82.653076
21.68531 862.14917 82.653076
27.106535 862.14917 82.653076
32.52776 862.14917 82.653076
37.949188 862.14917 82.653076
43.370415 862.14917 82.653076
48.791843 862.14917 82.653076
54.21307 862.14917 82.653076
59.634293 862.14917 82.653076
65.055725 862.14917 82.653076
70.476952 862.14917 82.653076
75.898376 862.14917 82.653076
81.319603 862.14917 82.653076
86.740829 862.14917 82.653076
92.162254 862.14917 82.653076
97.583481 862.14917 82.653076
103.00491 862.14917 82.653076
109.408 849.85303 107.85132
114.87832 849.85303 107.85132
120.34885 849.85303 107.85132
125.81916 849.85303 107.85132
131.28969 849.85303 107.85132
136.76001 849.85303 107.85132
142.23032 849.85303 107.85132
147.70084 849.85303 107.85132
153.17117 849.85303 107.85132
160.11624 837.11768 133.9502
165.63741 837.11768 133.9502
171.15857 837.11768 133.9502
176.67995 837.11768 133.9502
182.2011 837.11768 133.9502
189.45126 824.38232 160.04883
196.86427 811.20776 187.04736
200.59528 824.38232 160.04883
206.16751 824.38232 160.04883
213.73831 811.20776 187.04736
219.36314 811.20776 187.04736
224.98775 811.20776 187.04736
230.61235 811.20776 187.04736
393.72855 811.20776 187.04736
399.35315 811.20776 187.04736
404.97797 811.20776 187.04736
406.76279 824.38232 160.04883
412.33502 824.38232 160.04883
417.90701 824.38232 160.04883
423.47903 824.38232 160.04883
429.05124 824.38232 160.04883
434.62326 824.38232 160.04883
440.19547 824.38232 160.04883
449.97549 811.20776 187.04736
455.6001 811.20776 187.04736
461.22488 811.20776 187.04736
466.84955 811.20776 187.04736
472.47433 811.20776 187.04736
482.56995 798.03333 214.0459
488.24716 798.03333 214.0459
-469.99509 779.14355 239.70483
-459.86078 792.80725 211.82764
-454.18347 792.80725 211.82764
-448.50616 792.80725 211.82764
-442.82886 792.80725 211.82764
-437.15164 792.80725 211.82764
-431.47433 792.80725 211.82764
-425.79703 792.80725 211.82764
-420.11972 792.80725 211.82764
-414.44241 792.80725 211.82764
-412.67862 779.14355 239.70483
-406.94693 779.14355 239.70483
-401.21527 779.14355 239.70483
-395.48364 779.14355 239.70483
-389.75195 779.14355 239.70483
-384.02039 779.14355 239.70483
-381.87604 765.47998 267.58203
-376.09003 765.47998 267.58203
-370.30399 765.47998 267.58203
-141.93234 792.80725 211.82764
-134.99263 806.03015 184.84961
-129.3679 806.03015 184.84961
-123.7433 806.03015 184.84961
-118.11858 806.03015 184.84961
-112.49387 806.03015 184.84961
-105.86976 819.25305 157.87158
-100.29764 819.25305 157.87158
-94.725632 819.25305 157.87158
-89.153519 819.25305 157.87158
-82.818703 832.03516 131.79297
-77.297432 832.03516 131.79297
-71.776169 832.03516 131.79297
-66.255005 832.03516 131.79297
-60.733734 832.03516 131.79297
-55.212467 832.03516 131.79297
-49.233582 844.8175 105.71387
-43.763157 844.8175 105.71387
-38.292843 844.8175 105.71387
-33.127502 832.03516 131.79297
-27.606234 832.03516 131.79297
-21.881578 844.8175 105.71387
-16.41116 844.8175 105.71387
-10.940842 844.8175 105.71387
-5.4704208 844.8175 105.71387
0 844.8175 105.71387
5.4212241 857.15881 80.534668
10.842655 857.15881 80.534668
16.26388 857.15881 80.534668
21.68531 857.15881 80.534668
27.106535 857.15881 80.534668
32.52776 857.15881 80.534668
37.949188 857.15881 80.534668
43.370415 857.15881 80.534668
48.791843 857.15881 80.534668
54.21307 857.15881 80.534668
59.634293 857.15881 80.534668
65.055725 857.15881 80.534668
70.476952 857.15881 80.534668
75.898376 857.15881 80.534668
81.319603 857.15881 80.534668
86.740829 857.15881 80.534668
92.162254 857.15881 80.534668
97.583481 857.15881 80.534668
103.00491 857.15881 80.534668
109.408 844.8175 105.71387
114.87832 844.8175 105.71387
120.34885 844.8175 105.71387
125.81916 844.8175 105.71387
131.28969 844.8175 105.71387
136.76001 844.8175 105.71387
142.23032 844.8175 105.71387
147.70084 844.8175 105.71387
153.17117 844.8175 105.71387
160.11624 832.03516 131.79297
165.63741 832.03516 131.79297
171.15857 832.03516 131.79297
176.67995 832.03516 131.79297
182.2011 832.03516 131.79297
187.72247 832.03516 131.79297
196.86427 806.03015 184.84961
200.59528 819.25305 157.87158
206.16751 819.25305 157.87158
213.73831 806.03015 184.84961
219.36314 806.03015 184.84961
224.98775 806.03015 184.84961
232.76895 792.80725 211.82764
238.44638 792.80725 211.82764
393.72855 806.03015 184.84961
399.35315 806.03015 184.84961
404.97797 806.03015 184.84961
406.76279 819.25305 157.87158
412.33502 819.25305 157.87158
417.90701 819.25305 157.87158
423.47903 819.25305 157.87158
429.05124 819.25305 157.87158
438.72607 806.03015 184.84961
444.35089 806.03015 184.84961
449.97549 806.03015 184.84961
455.6001 806.03015 184.84961
461.22488 806.03015 184.84961
466.84955 806.03015 184.84961
472.47433 806.03015 184.84961
482.56995 792.80725 211.82764
488.24716 792.80725 211.82764
-465.53809 787.58142 209.60938
-459.86078 787.58142 209.60938
-458.53174 773.86768 237.46533
-448.50616 787.58142 209.60938
-442.82886 787.58142 209.60938
-437.15164 787.58142 209.60938
-431.47433 787.58142 209.60938
-425.79703 787.58142 209.60938
-424.14188 773.86768 237.46533
-418.41019 773.86768 237.46533
-412.67862 773.86768 237.46533
-406.94693 773.86768 237.46533
-401.21527 773.86768 237.46533
-395.48364 773.86768 237.46533
-389.75195 773.86768 237.46533
-384.02039 773.86768 237.46533
-381.87604 760.15393 265.32129
-376.09003 760.15393 265.32129
-141.93234 787.58142 209.60938
-134.99263 800.85278 182.65186
-129.3679 800.85278 182.65186
-123.7433 800.85278 182.65186
-118.11858 800.85278 182.65186
-112.49387 800.85278 182.65186
-105.86976 814.12402 155.69434
-100.29764 814.12402 155.69434
-94.725632 814.12402 155.69434
-89.153519 814.12402 155.69434
-82.818703 826.953 129.6355
-77.297432 826.953 129.6355
-71.776169 826.953 129.6355
-66.255005 826.953 129.6355
-60.733734 826.953 129.6355
-55.212467 826.953 129.6355
-49.6912 826.953 129.6355
-44.16993 826.953 129.6355
-38.648773 826.953 129.6355
-33.127502 826.953 129.6355
-27.606234 826.953 129.6355
-21.881578 839.78198 103.57642
-16.41116 839.78198 103.57642
-10.940842 839.78198 103.57642
-5.4704208 839.78198 103.57642
0 839.78198 103.57642
5.4703169 839.78198 103.57642
10.842655 852.16858 78.416504
16.26388 852.16858 78.416504
21.68531 852.16858 78.416504
27.106535 852.16858 78.416504
32.52776 852.16858 78.416504
37.949188 852.16858 78.416504
43.370415 852.16858 78.416504
48.791843 852.16858 78.416504
54.21307 852.16858 78.416504
59.634293 852.16858 78.416504
65.055725 852.16858 78.416504
70.476952 852.16858 78.416504
75.898376 852.16858 78.416504
81.319603 852.16858 78.416504
86.740829 852.16858 78.416504
92.162254 852.16858 78.416504
97.583481 852.16858 78.416504
103.00491 852.16858 78.416504
109.408 839.78198 103.57642
114.87832 839.78198 103.57642
120.34885 839.78198 103.57642
125.81916 839.78198 103.57642
131.28969 839.78198 103.57642
136.76001 839.78198 103.57642
142.23032 839.78198 103.57642
147.70084 839.78198 103.57642
153.17117 839.78198 103.57642
160.11624 826.953 129.6355
165.63741 826.953 129.6355
171.15857 826.953 129.6355
176.67995 826.953 129.6355
182.2011 826.953 129.6355
187.72247 826.953 129.6355
195.02327 814.12402 155.69434
200.59528 814.12402 155.69434
206.16751 814.12402 155.69434
213.73831 800.85278 182.65186
219.36314 800.85278 182.65186
224.98775 800.85278 182.65186
232.76895 787.58142 209.60938
238.44638 787.58142 209.60938
244.12358 787.58142 209.60938
403.08774 787.58142 209.60938
404.97797 800.85278 182.65186
410.6026 800.85278 182.65186
412.33502 814.12402 155.69434
417.90701 814.12402 155.69434
423.47903 814.12402 155.69434
429.05124 814.12402 155.69434
438.72607 800.85278 182.65186
444.35089 800.85278 182.65186
449.97549 800.85278 182.65186
455.6001 800.85278 182.65186
461.22488 800.85278 182.65186
466.84955 800.85278 182.65186
472.47433 800.85278 182.65186
482.56995 787.58142 209.60938
488.24716 787.58142 209.60938
-465.53809 782.35535 207.39087
-459.86078 782.35535 207.39087
-454.18347 782.35535 207.39087
-448.50616 782.35535 207.39087
-442.82886 782.35535 207.39087
-437.15164 782.35535 207.39087
-431.47433 782.35535 207.39087
-429.8735 768.59155 235.22583
-424.14188 768.59155 235.22583
-418.41019 768.59155 235.22583
-412.67862 768.59155 235.22583
-406.94693 768.59155 235.22583
-401.21527 768.59155 235.22583
-395.48364 768.59155 235.22583
-389.75195 768.59155 235.22583
-384.02039 768.59155 235.22583
-381.87604 754.82788 263.06055
-141.93234 782.35535 207.39087
-134.99263 795.67505 180.4541
-129.3679 795.67505 180.4541
-123.7433 795.67505 180.4541
-117.01398 808.99487 153.51709
-111.44187 808.99487 153.51709
-105.86976 808.99487 153.51709
-100.29764 808.99487 153.51709
-93.861237 821.87061 127.47827
-88.339973 821.87061 127.47827
-82.818703 821.87061 127.47827
-77.297432 821.87061 127.47827
-71.776169 821.87061 127.47827
-66.255005 821.87061 127.47827
-60.733734 821.87061 127.47827
-55.212467 821.87061 127.47827
-49.6912 821.87061 127.47827
-44.16993 821.87061 127.47827
-38.648773 821.87061 127.47827
-33.127502 821.87061 127.47827
-27.606234 821.87061 127.47827
-21.881578 834.74634 101.43896
-16.41116 834.74634 101.43896
-10.940842 834.74634 101.43896
-5.4704208 834.74634 101.43896
0 834.74634 101.43896
5.4703169 834.74634 101.43896
10.842655 847.1781 76.298096
16.26388 847.1781 76.298096
21.68531 847.1781 76.298096
27.106535 847.1781 76.298096
32.52776 847.1781 76.298096
37.949188 847.1781 76.298096
43.370415 847.1781 76.298096
48.791843 847.1781 76.298096
54.21307 847.1781 76.298096
60.174316 834.74634 101.43896
65.644844 834.74634 101.43896
70.476952 847.1781 76.298096
75.898376 847.1781 76.298096
81.319603 847.1781 76.298096
87.526314 834.74634 101.43896
92.996849 834.74634 101.43896
98.467163 834.74634 101.43896
103.93769 834.74634 101.43896
109.408 834.74634 101.43896
114.87832 834.74634 101.43896
120.34885 834.74634 101.43896
125.81916 834.74634 101.43896
131.28969 834.74634 101.43896
138.03117 821.87061 127.47827
143.55234 821.87061 127.47827
149.07372 821.87061 127.47827
154.59486 821.87061 127.47827
160.11624 821.87061 127.47827
165.63741 821.87061 127.47827
171.15857 821.87061 127.47827
176.67995 821.87061 127.47827
182.2011 821.87061 127.47827
187.72247 821.87061 127.47827
195.02327 808.99487 153.51709
200.59528 808.99487 153.51709
208.11371 795.67505 180.4541
213.73831 795.67505 180.4541
219.36314 795.67505 180.4541
224.98775 795.67505 180.4541
232.76895 782.35535 207.39087
238.44638 782.35535 207.39087
244.12358 782.35535 207.39087
410.6026 795.67505 180.4541
412.33502 808.99487 153.51709
417.90701 808.99487 153.51709
423.47903 808.99487 153.51709
429.05124 808.99487 153.51709
434.62326 808.99487 153.51709
440.19547 808.99487 153.51709
445.76749 808.99487 153.51709
455.6001 795.67505 180.4541
461.22488 795.67505 180.4541
466.84955 795.67505 180.4541
472.47433 795.67505 180.4541
478.09894 795.67505 180.4541
483.72354 795.67505 180.4541
489.34836 795.67505 180.4541
-461.22488 790.49756 178.25659
-455.60019 790.49756 178.25659
-449.97549 790.49756 178.25659
-448.50616 777.12939 205.17261
-442.82886 777.12939 205.17261
-437.15164 777.12939 205.17261
-431.47433 777.12939 205.17261
-429.8735 763.31567 232.98633
-424.14188 763.31567 232.98633
-418.41019 763.31567 232.98633
-412.67862 763.31567 232.98633
-406.94693 763.31567 232.98633
-401.21527 763.31567 232.98633
-395.48364 763.31567 232.98633
-393.44797 749.50195 260.7998
-141.93234 777.12939 205.17261
-136.25502 777.12939 205.17261
-129.3679 790.49756 178.25659
-123.7433 790.49756 178.25659
-117.01398 803.86572 151.34009
-111.44187 803.86572 151.34009
-105.86976 803.86572 151.34009
-100.29764 803.86572 151.34009
-93.861237 816.78833 125.32104
-88.339973 816.78833 125.32104
-82.818703 816.78833 125.32104
-77.297432 816.78833 125.32104
-71.776169 816.78833 125.32104
-66.255005 816.78833 125.32104
-60.733734 816.78833 125.32104
-55.212467 816.78833 125.32104
-49.6912 816.78833 125.32104
-44.16993 816.78833 125.32104
-38.648773 816.78833 125.32104
-33.127502 816.78833 125.32104
-27.606234 816.78833 125.32104
-21.881578 829.71094 99.301514
-16.41116 829.71094 99.301514
-10.940842 829.71094 99.301514
-5.4704208 829.71094 99.301514
0 829.71094 99.301514
5.4703169 829.71094 99.301514
10.842655 842.18787 74.179932
16.26388 842.18787 74.179932
21.68531 842.18787 74.179932
27.352001 829.71094 99.301514
32.822319 829.71094 99.301514
38.292843 829.71094 99.301514
43.370415 842.18787 74.179932
48.791843 842.18787 74.179932
54.21307 842.18787 74.179932
60.174316 829.71094 99.301514
65.644844 829.71094 99.301514
70.476952 842.18787 74.179932
75.898376 842.18787 74.179932
81.319603 842.18787 74.179932
87.526314 829.71094 99.301514
92.996849 829.71094 99.301514
98.467163 829.71094 99.301514
103.93769 829.71094 99.301514
109.408 829.71094 99.301514
114.87832 829.71094 99.301514
121.46747 816.78833 125.32104
126.98864 816.78833 125.32104
132.51001 816.78833 125.32104
138.03117 816.78833 125.32104
143.55234 816.78833 125.32104
149.07372 816.78833 125.32104
154.59486 816.78833 125.32104
160.11624 816.78833 125.32104
165.63741 816.78833 125.32104
171.15857 816.78833 125.32104
176.67995 816.78833 125.32104
182.2011 816.78833 125.32104
187.72247 816.78833 125.32104
195.02327 803.86572 151.34009
200.59528 803.86572 151.34009
206.16751 803.86572 151.34009
213.73831 790.49756 178.25659
219.36314 790.49756 178.25659
224.98775 790.49756 178.25659
230.61235 790.49756 178.25659
238.44638 777.12939 205.17261
244.12358 777.12939 205.17261
249.80101 777.12939 205.17261
412.33502 803.86572 151.34009
417.90701 803.86572 151.34009
423.47903 803.86572 151.34009
429.05124 803.86572 151.34009
434.62326 803.86572 151.34009
440.19547 803.86572 151.34009
445.76749 803.86572 151.34009
455.6001 790.49756 178.25659
461.22488 790.49756 178.25659
466.84955 790.49756 178.25659
472.47433 790.49756 178.25659
478.09894 790.49756 178.25659
483.72354 790.49756 178.25659
489.34836 790.49756 178.25659
499.60181 777.12939 205.17261
-461.22488 785.31995 176.05859
-455.60019 785.31995 176.05859
-449.97549 785.31995 176.05859
-448.50616 771.90344 202.95435
-442.82886 771.90344 202.95435
-437.15164 771.90344 202.95435
-431.47433 771.90344 202.95435
-425.79703 771.90344 202.95435
-424.14188 758.03955 230.74658
-418.41019 758.03955 230.74658
-412.67862 758.03955 230.74658
-406.94693 758.03955 230.74658
-401.21527 758.03955 230.74658
-395.48364 758.03955 230.74658
-393.44797 744.17578 258.53906
-141.93234 771.90344 202.95435
-136.25502 771.90344 202.95435
-129.3679 785.31995 176.05859
-123.7433 785.31995 176.05859
-117.01398 798.73657 149.16284
-111.44187 798.73657 149.16284
-105.86976 798.73657 149.16284
-100.29764 798.73657 149.16284
-94.725632 798.73657 149.16284
-89.153519 798.73657 149.16284
-83.581406 798.73657 149.16284
-78.009285 798.73657 149.16284
-72.437172 798.73657 149.16284
-66.865166 798.73657 149.16284
-61.293053 798.73657 149.16284
-55.212467 811.70593 123.16357
-49.6912 811.70593 123.16357
-44.16993 811.70593 123.16357
-38.648773 811.70593 123.16357
-33.127502 811.70593 123.16357
-27.606234 811.70593 123.16357
-21.881578 824.67529 97.164062
-16.41116 824.67529 97.164062
-10.940842 824.67529 97.164062
-5.4704208 824.67529 97.164062
0 824.67529 97.164062
5.4703169 824.67529 97.164062
10.842655 837.19751 72.061523
16.26388 837.19751 72.061523
21.68531 837.19751 72.061523
27.352001 824.67529 97.164062
32.822319 824.67529 97.164062
38.292843 824.67529 97.164062
43.370415 837.19751 72.061523
48.791843 837.19751 72.061523
54.21307 837.19751 72.061523
60.174316 824.67529 97.164062
65.644844 824.67529 97.164062
71.115158 824.67529 97.164062
75.898376 837.19751 72.061523
81.319603 837.19751 72.061523
87.526314 824.67529 97.164062
92.996849 824.67529 97.164062
98.467163 824.67529 97.164062
103.93769 824.67529 97.164062
109.408 824.67529 97.164062
114.87832 824.67529 97.164062
120.34885 824.67529 97.164062
126.98864 811.70593 123.16357
132.51001 811.70593 123.16357
138.03117 811.70593 123.16357
143.55234 811.70593 123.16357
149.07372 811.70593 123.16357
154.59486 811.70593 123.16357
160.11624 811.70593 123.16357
165.63741 811.70593 123.16357
171.15857 811.70593 123.16357
176.67995 811.70593 123.16357
182.2011 811.70593 123.16357
187.72247 811.70593 123.16357
195.02327 798.73657 149.16284
200.59528 798.73657 149.16284
206.16751 798.73657 149.16284
213.73831 785.31995 176.05859
219.36314 785.31995 176.05859
224.98775 785.31995 176.05859
230.61235 785.31995 176.05859
238.44638 771.90344 202.95435
244.12358 771.90344 202.95435
249.80101 771.90344 202.95435
417.90701 798.73657 149.16284
423.47903 798.73657 149.16284
429.05124 798.73657 149.16284
434.62326 798.73657 149.16284
440.19547 798.73657 149.16284
445.76749 798.73657 149.16284
455.6001 785.31995 176.05859
461.22488 785.31995 176.05859
466.84955 785.31995 176.05859
472.47433 785.31995 176.05859
478.09894 785.31995 176.05859
488.24716 771.90344 202.95435
493.92456 771.90344 202.95435
499.60181 771.90344 202.95435
505.27921 771.90344 202.95435
-461.22488 780.14246 173.86108
-455.60019 780.14246 173.86108
-449.97549 780.14246 173.86108
-448.50616 766.67749 200.73608
-442.82886 766.67749 200.73608
-437.15164 766.67749 200.73608
-431.47433 766.67749 200.73608
-425.79703 766.67749 200.73608
-424.14188 752.76367 228.50732
-418.41019 752.76367 228.50732
-412.67862 752.76367 228.50732
-406.94693 752.76367 228.50732
-401.21527 752.76367 228.50732
-395.48364 752.76367 228.50732
-147.60965 766.67749 200.73608
-141.93234 766.67749 200.73608
-134.99263 780.14246 173.86108
-129.3679 780.14246 173.86108
-122.58611 793.60754 146.9856
-117.01398 793.60754 146.9856
-111.44187 793.60754 146.9856
-105.86976 793.60754 146.9856
-100.29764 793.60754 146.9856
-94.725632 793.60754 146.9856
-89.153519 793.60754 146.9856
-83.581406 793.60754 146.9856
-78.009285 793.60754 146.9856
-72.437172 793.60754 146.9856
-66.865166 793.60754 146.9856
-61.293053 793.60754 146.9856
-55.212467 806.62366 121.00635
-49.6912 806.62366 121.00635
-44.16993 806.62366 121.00635
-38.648773 806.62366 121.00635
-33.432583 793.60754 146.9856
-27.606234 806.62366 121.00635
-21.881578 819.63989 95.026611
-16.41116 819.63989 95.026611
-10.940842 819.63989 95.026611
-5.4704208 819.63989 95.026611
0 819.63989 95.026611
5.4703169 819.63989 95.026611
10.842655 832.20715 69.943359
16.26388 832.20715 69.943359
21.68531 832.20715 69.943359
27.352001 819.63989 95.026611
32.822319 819.63989 95.026611
38.292843 819.63989 95.026611
43.763157 819.63989 95.026611
48.791843 832.20715 69.943359
54.21307 832.20715 69.943359
60.174316 819.63989 95.026611
65.644844 819.63989 95.026611
71.115158 819.63989 95.026611
76.585686 819.63989 95.026611
82.056 819.63989 95.026611
87.526314 819.63989 95.026611
92.996849 819.63989 95.026611
98.467163 819.63989 95.026611
103.93769 819.63989 95.026611
109.408 819.63989 95.026611
114.87832 819.63989 95.026611
120.34885 819.63989 95.026611
126.98864 806.62366 121.00635
132.51001 806.62366 121.00635
138.03117 806.62366 121.00635
143.55234 806.62366 121.00635
149.07372 806.62366 121.00635
154.59486 806.62366 121.00635
160.11624 806.62366 121.00635
165.63741 806.62366 121.00635
172.73482 793.60754 146.9856
178.30704 793.60754 146.9856
183.87904 793.60754 146.9856
189.45126 793.60754 146.9856
195.02327 793.60754 146.9856
200.59528 793.60754 146.9856
206.16751 793.60754 146.9856
213.73831 780.14246 173.86108
219.36314 780.14246 173.86108
224.98775 780.14246 173.86108
230.61235 780.14246 173.86108
238.44638 766.67749 200.73608
244.12358 766.67749 200.73608
423.47903 793.60754 146.9856
429.05124 793.60754 146.9856
434.62326 793.60754 146.9856
440.19547 793.60754 146.9856
445.76749 793.60754 146.9856
455.6001 780.14246 173.86108
456.91168 793.60754 146.9856
462.48373 793.60754 146.9856
472.47433 780.14246 173.86108
478.09894 780.14246 173.86108
483.72354 780.14246 173.86108
493.92456 766.67749 200.73608
499.60181 766.67749 200.73608
-461.22488 774.96484 171.66333
-455.60019 774.96484 171.66333
-449.97549 774.96484 171.66333
-448.50616 761.45142 198.51782
-442.82886 761.45142 198.51782
-437.15164 761.45142 198.51782
-431.47433 761.45142 198.51782
-425.79703 761.45142 198.51782
-424.14188 747.48755 226.26758
-418.41019 747.48755 226.26758
-412.67862 747.48755 226.26758
-406.94693 747.48755 226.26758
-405.02002 733.52368 254.01758
-147.60965 761.45142 198.51782
-140.61734 774.96484 171.66333
-134.99263 774.96484 171.66333
-128.15811 788.47827 144.80835
-122.58611 788.47827 144.80835
-115.94621 801.54126 118.84888
-110.42493 801.54126 118.84888
-105.86976 788.47827 144.80835
-100.29764 788.47827 144.80835
-94.725632 788.47827 144.80835
-89.153519 788.47827 144.80835
-83.581406 788.47827 144.80835
-78.009285 788.47827 144.80835
-72.437172 788.47827 144.80835
-66.865166 788.47827 144.80835
-61.293053 788.47827 144.80835
-55.212467 801.54126 118.84888
-49.6912 801.54126 118.84888
-44.16993 801.54126 118.84888
-38.648773 801.54126 118.84888
-33.432583 788.47827 144.80835
-27.606234 801.54126 118.84888
-21.881578 814.60425 92.88916
-16.41116 814.60425 92.88916
-10.940842 814.60425 92.88916
-5.4704208 814.60425 92.88916
0 814.60425 92.88916
5.4703169 814.60425 92.88916
10.940842 814.60425 92.88916
16.26388 827.2168 67.824951
21.68531 827.2168 67.824951
27.352001 814.60425 92.88916
32.822319 814.60425 92.88916
38.292843 814.60425 92.88916
43.763157 814.60425 92.88916
48.791843 827.2168 67.824951
54.21307 827.2168 67.824951
60.174316 814.60425 92.88916
65.644844 814.60425 92.88916
71.115158 814.60425 92.88916
76.585686 814.60425 92.88916
82.056 814.60425 92.88916
87.526314 814.60425 92.88916
92.996849 814.60425 92.88916
98.467163 814.60425 92.88916
103.93769 814.60425 92.88916
110.42493 801.54126 118.84888
115.9461 801.54126 118.84888
121.46747 801.54126 118.84888
126.98864 801.54126 118.84888
132.51001 801.54126 118.84888
138.03117 801.54126 118.84888
144.87434 788.47827 144.80835
149.07372 801.54126 118.84888
154.59486 801.54126 118.84888
160.11624 801.54126 118.84888
165.63741 801.54126 118.84888
172.73482 788.47827 144.80835
178.30704 788.47827 144.80835
183.87904 788.47827 144.80835
189.45126 788.47827 144.80835
195.02327 788.47827 144.80835
200.59528 788.47827 144.80835
208.11371 774.96484 171.66333
213.73831 774.96484 171.66333
219.36314 774.96484 171.66333
224.98775 774.96484 171.66333
230.61235 774.96484 171.66333
238.44638 761.45142 198.51782
244.12358 761.45142 198.51782
427.47662 774.96484 171.66333
429.05124 788.47827 144.80835
434.62326 788.47827 144.80835
440.19547 788.47827 144.80835
445.76749 788.47827 144.80835
455.6001 774.96484 171.66333
456.91168 788.47827 144.80835
462.48373 788.47827 144.80835
472.47433 774.96484 171.66333
478.09894 774.96484 171.66333
483.72354 774.96484 171.66333
489.34836 774.96484 171.66333
494.97299 774.96484 171.66333
505.27921 761.45142 198.51782
-455.60019 769.78735 169.46558
-449.97549 769.78735 169.46558
-448.50616 756.22559 196.29956
-442.82886 756.22559 196.29956
-437.15164 756.22559 196.29956
-435.60516 742.21167 224.02808
-429.8735 742.21167 224.02808
-424.14188 742.21167 224.02808
-418.41019 742.21167 224.02808
-412.67862 742.21167 224.02808
-410.80606 728.19775 251.75684
-405.02002 728.19775 251.75684
-140.61734 769.78735 169.46558
-134.99263 769.78735 169.46558
-128.15811 783.34924 142.63135
-122.58611 783.34924 142.63135
-115.94621 796.45898 116.69165
-110.42493 796.45898 116.69165
-105.86976 783.34924 142.63135
-100.29764 783.34924 142.63135
-94.725632 783.34924 142.63135
-89.153519 783.34924 142.63135
-83.581406 783.34924 142.63135
-78.745689 769.78735 169.46558
-72.437172 783.34924 142.63135
-66.865166 783.34924 142.63135
-61.293053 783.34924 142.63135
-55.212467 796.45898 116.69165
-49.6912 796.45898 116.69165
-44.16993 796.45898 116.69165
-38.648773 796.45898 116.69165
-33.432583 783.34924 142.63135
-27.860468 783.34924 142.63135
-22.084965 796.45898 116.69165
-16.41116 809.56885 90.751709
-10.940842 809.56885 90.751709
-5.4704208 809.56885 90.751709
0 809.56885 90.751709
5.4703169 809.56885 90.751709
10.940842 809.56885 90.751709
16.41116 809.56885 90.751709
21.881683 809.56885 90.751709
27.352001 809.56885 90.751709
32.822319 809.56885 90.751709
38.292843 809.56885 90.751709
43.763157 809.56885 90.751709
49.233688 809.56885 90.751709
54.704002 809.56885 90.751709
60.174316 809.56885 90.751709
65.644844 809.56885 90.751709
71.115158 809.56885 90.751709
76.585686 809.56885 90.751709
82.056 809.56885 90.751709
87.526314 809.56885 90.751709
92.996849 809.56885 90.751709
98.467163 809.56885 90.751709
103.93769 809.56885 90.751709
110.42493 796.45898 116.69165
115.9461 796.45898 116.69165
121.46747 796.45898 116.69165
126.98864 796.45898 116.69165
132.51001 796.45898 116.69165
138.03117 796.45898 116.69165
144.87434 783.34924 142.63135
150.44656 783.34924 142.63135
156.01857 783.34924 142.63135
161.59081 783.34924 142.63135
167.16281 783.34924 142.63135
172.73482 783.34924 142.63135
178.30704 783.34924 142.63135
183.87904 783.34924 142.63135
189.45126 783.34924 142.63135
195.02327 783.34924 142.63135
200.59528 783.34924 142.63135
208.11371 769.78735 169.46558
213.73831 769.78735 169.46558
219.36314 769.78735 169.46558
224.98775 769.78735 169.46558
230.61235 769.78735 169.46558
238.44638 756.22559 196.29956
244.12358 756.22559 196.29956
427.47662 769.78735 169.46558
429.05124 783.34924 142.63135
434.62326 783.34924 142.63135
440.19547 783.34924 142.63135
445.76749 783.34924 142.63135
451.33948 783.34924 142.63135
456.91168 783.34924 142.63135
462.48373 783.34924 142.63135
472.47433 769.78735 169.46558
478.09894 769.78735 169.46558
483.72354 769.78735 169.46558
489.34836 769.78735 169.46558
494.97299 769.78735 169.46558
505.27921 756.22559 196.29956
515.84821 742.21167 224.02808
-455.60019 764.60974 167.26782
-449.97549 764.60974 167.26782
-448.50616 750.99951 194.0813
-442.82886 750.99951 194.0813
-437.15164 750.99951 194.0813
-435.60516 736.93555 221.78857
-429.8735 736.93555 221.78857
-424.14188 736.93555 221.78857
-418.41019 736.93555 221.78857
-412.67862 736.93555 221.78857
-406.94693 736.93555 221.78857
-401.21527 736.93555 221.78857
-134.99263 764.60974 167.26782
-128.15811 778.21997 140.4541
-122.58611 778.21997 140.4541
-117.01398 778.21997 140.4541
-111.44187 778.21997 140.4541
-105.86976 778.21997 140.4541
-100.29764 778.21997 140.4541
-94.725632 778.21997 140.4541
-89.153519 778.21997 140.4541
-83.581406 778.21997 140.4541
-78.745689 764.60974 167.26782
-72.437172 778.21997 140.4541
-66.865166 778.21997 140.4541
-61.293053 778.21997 140.4541
-55.720936 778.21997 140.4541
-50.148819 778.21997 140.4541
-44.576702 778.21997 140.4541
-39.0047 778.21997 140.4541
-33.432583 778.21997 140.4541
-27.860468 778.21997 140.4541
-22.084965 791.37659 114.53442
-16.41116 804.5332 88.614258
-10.940842 804.5332 88.614258
-5.4704208 804.5332 88.614258
0 804.5332 88.614258
5.4703169 804.5332 88.614258
10.940842 804.5332 88.614258
16.41116 804.5332 88.614258
21.881683 804.5332 88.614258
27.352001 804.5332 88.614258
32.822319 804.5332 88.614258
38.292843 804.5332 88.614258
43.763157 804.5332 88.614258
49.233688 804.5332 88.614258
54.704002 804.5332 88.614258
60.174316 804.5332 88.614258
65.644844 804.5332 88.614258
71.115158 804.5332 88.614258
76.585686 804.5332 88.614258
82.056 804.5332 88.614258
87.526314 804.5332 88.614258
92.996849 804.5332 88.614258
99.382401 791.37659 114.53442
104.90378 791.37659 114.53442
110.42493 791.37659 114.53442
115.9461 791.37659 114.53442
121.46747 791.37659 114.53442
126.98864 791.37659 114.53442
132.51001 791.37659 114.53442
138.03117 791.37659 114.53442
144.87434 778.21997 140.4541
150.44656 778.21997 140.4541
156.01857 778.21997 140.4541
161.59081 778.21997 140.4541
167.16281 778.21997 140.4541
172.73482 778.21997 140.4541
178.30704 778.21997 140.4541
183.87904 778.21997 140.4541
189.45126 778.21997 140.4541
195.02327 778.21997 140.4541
202.48888 764.60974 167.26782
208.11371 764.60974 167.26782
213.73831 764.60974 167.26782
219.36314 764.60974 167.26782
224.98775 764.60974 167.26782
230.61235 764.60974 167.26782
238.44638 750.99951 194.0813
427.47662 764.60974 167.26782
433.10144 764.60974 167.26782
438.72607 764.60974 167.26782
440.19547 778.21997 140.4541
445.76749 778.21997 140.4541
451.33948 778.21997 140.4541
456.91168 778.21997 140.4541
462.48373 778.21997 140.4541
472.47433 764.60974 167.26782
478.09894 764.60974 167.26782
483.72354 764.60974 167.26782
489.34836 764.60974 167.26782
499.60181 750.99951 194.0813
505.27921 750.99951 194.0813
515.84821 736.93555 221.78857
-459.86078 745.77368 191.86304
-454.18347 745.77368 191.86304
-448.50616 745.77368 191.86304
-442.82886 745.77368 191.86304
-437.15164 745.77368 191.86304
-435.60516 731.65967 219.54907
-429.8735 731.65967 219.54907
-424.14188 731.65967 219.54907
-418.41019 731.65967 219.54907
-412.67862 731.65967 219.54907
-406.94693 731.65967 219.54907
-401.21527 731.65967 219.54907
-133.73022 773.09094 138.27686
-128.15811 773.09094 138.27686
-122.58611 773.09094 138.27686
-117.01398 773.09094 138.27686
-111.44187 773.09094 138.27686
-105.86976 773.09094 138.27686
-100.29764 773.09094 138.27686
-94.725632 773.09094 138.27686
-89.153519 773.09094 138.27686
-84.370399 759.43225 165.07007
-78.745689 759.43225 165.07007
-73.120972 759.43225 165.07007
-66.865166 773.09094 138.27686
-61.293053 773.09094 138.27686
-55.720936 773.09094 138.27686
-50.148819 773.09094 138.27686
-44.576702 773.09094 138.27686
-39.0047 773.09094 138.27686
-33.432583 773.09094 138.27686
-27.860468 773.09094 138.27686
-22.084965 786.29431 112.37695
-16.41116 799.4978 86.476807
-10.940842 799.4978 86.476807
-5.4704208 799.4978 86.476807
0 799.4978 86.476807
5.4703169 799.4978 86.476807
10.940842 799.4978 86.476807
16.41116 799.4978 86.476807
21.881683 799.4978 86.476807
27.352001 799.4978 86.476807
32.822319 799.4978 86.476807
38.292843 799.4978 86.476807
43.763157 799.4978 86.476807
49.233688 799.4978 86.476807
54.704002 799.4978 86.476807
60.174316 799.4978 86.476807
65.644844 799.4978 86.476807
71.115158 799.4978 86.476807
76.585686 799.4978 86.476807
82.056 799.4978 86.476807
87.526314 799.4978 86.476807
92.996849 799.4978 86.476807
99.382401 786.29431 112.37695
104.90378 786.29431 112.37695
110.42493 786.29431 112.37695
115.9461 786.29431 112.37695
121.46747 786.29431 112.37695
126.98864 786.29431 112.37695
132.51001 786.29431 112.37695
139.30234 773.09094 138.27686
144.87434 773.09094 138.27686
150.44656 773.09094 138.27686
156.01857 773.09094 138.27686
161.59081 773.09094 138.27686
167.16281 773.09094 138.27686
172.73482 773.09094 138.27686
178.30704 773.09094 138.27686
183.87904 773.09094 138.27686
189.45126 773.09094 138.27686
195.02327 773.09094 138.27686
202.48888 759.43225 165.07007
208.11371 759.43225 165.07007
213.73831 759.43225 165.07007
219.36314 759.43225 165.07007
224.98775 759.43225 165.07007
230.61235 759.43225 165.07007
238.44638 745.77368 191.86304
433.10144 759.43225 165.07007
438.72607 759.43225 165.07007
444.35089 759.43225 165.07007
449.97549 759.43225 165.07007
455.6001 759.43225 165.07007
456.91168 773.09094 138.27686
462.48373 773.09094 138.27686
472.47433 759.43225 165.07007
478.09894 759.43225 165.07007
483.72354 759.43225 165.07007
493.92456 745.77368 191.86304
499.60181 745.77368 191.86304
505.27921 745.77368 191.86304
515.84821 731.65967 219.54907
-454.18347 740.54761 189.64453
-448.50616 740.54761 189.64453
-442.82886 740.54761 189.64453
-437.15164 740.54761 189.64453
-435.60516 726.38354 217.30957
-429.8735 726.38354 217.30957
-424.14188 726.38354 217.30957
-418.41019 726.38354 217.30957
-412.67862 726.38354 217.30957
-406.94693 726.38354 217.30957
-401.21527 726.38354 217.30957
-133.73022 767.96179 136.09961
-128.15811 767.96179 136.09961
-122.58611 767.96179 136.09961
-117.01398 767.96179 136.09961
-111.44187 767.96179 136.09961
-105.86976 767.96179 136.09961
-100.29764 767.96179 136.09961
-94.725632 767.96179 136.09961
-89.153519 767.96179 136.09961
-83.581406 767.96179 136.09961
-78.009285 767.96179 136.09961
-72.437172 767.96179 136.09961
-67.496368 754.25464 162.87231
-61.293053 767.96179 136.09961
-55.720936 767.96179 136.09961
-50.148819 767.96179 136.09961
-44.576702 767.96179 136.09961
-39.0047 767.96179 136.09961
-33.432583 767.96179 136.09961
-27.860468 767.96179 136.09961
-22.084965 781.21191 110.21973
-16.563698 781.21191 110.21973
-11.042537 781.21191 110.21973
-5.5212684 781.21191 110.21973
0 794.46216 84.339355
5.4703169 794.46216 84.339355
10.940842 794.46216 84.339355
16.41116 794.46216 84.339355
21.881683 794.46216 84.339355
27.352001 794.46216 84.339355
32.822319 794.46216 84.339355
38.292843 794.46216 84.339355
43.763157 794.46216 84.339355
49.233688 794.46216 84.339355
54.704002 794.46216 84.339355
60.174316 794.46216 84.339355
65.644844 794.46216 84.339355
71.776169 781.21191 110.21973
77.297546 781.21191 110.21973
82.818703 781.21191 110.21973
88.339859 781.21191 110.21973
93.861237 781.21191 110.21973
99.382401 781.21191 110.21973
104.90378 781.21191 110.21973
110.42493 781.21191 110.21973
115.9461 781.21191 110.21973
121.46747 781.21191 110.21973
126.98864 781.21191 110.21973
132.51001 781.21191 110.21973
139.30234 767.96179 136.09961
144.87434 767.96179 136.09961
150.44656 767.96179 136.09961
156.01857 767.96179 136.09961
160.11624 781.21191 110.21973
165.63741 781.21191 110.21973
172.73482 767.96179 136.09961
179.99023 754.25464 162.87231
183.87904 767.96179 136.09961
189.45126 767.96179 136.09961
196.86427 754.25464 162.87231
202.48888 754.25464 162.87231
208.11371 754.25464 162.87231
213.73831 754.25464 162.87231
219.36314 754.25464 162.87231
224.98775 754.25464 162.87231
232.76895 740.54761 189.64453
238.44638 740.54761 189.64453
438.72607 754.25464 162.87231
444.35089 754.25464 162.87231
449.97549 754.25464 162.87231
455.6001 754.25464 162.87231
456.91168 767.96179 136.09961
462.48373 767.96179 136.09961
472.47433 754.25464 162.87231
478.09894 754.25464 162.87231
483.72354 754.25464 162.87231
493.92456 740.54761 189.64453
499.60181 740.54761 189.64453
505.27921 740.54761 189.64453
510.95642 740.54761 189.64453
-448.50616 735.32166 187.42627
-442.82886 735.32166 187.42627
-437.15164 735.32166 187.42627
-435.60516 721.10767 215.07007
-429.8735 721.10767 215.07007
-428.16397 706.89368 242.71362
-422.37799 706.89368 242.71362
-416.59204 706.89368 242.71362
-144.87445 762.83276 133.92261
-139.30234 762.83276 133.92261
-133.73022 762.83276 133.92261
-128.15811 762.83276 133.92261
-122.58611 762.83276 133.92261
-117.01398 762.83276 133.92261
-111.44187 762.83276 133.92261
-105.86976 762.83276 133.92261
-100.29764 762.83276 133.92261
-94.725632 762.83276 133.92261
-89.153519 762.83276 133.92261
-83.581406 762.83276 133.92261
-78.009285 762.83276 133.92261
-72.437172 762.83276 133.92261
-67.496368 749.07715 160.67456
-61.293053 762.83276 133.92261
-55.720936 762.83276 133.92261
-50.148819 762.83276 133.92261
-44.576702 762.83276 133.92261
-39.0047 762.83276 133.92261
-33.432583 762.83276 133.92261
-27.860468 762.83276 133.92261
-22.084965 776.12964 108.0625
-16.563698 776.12964 108.0625
-11.042537 776.12964 108.0625
-5.5212684 776.12964 108.0625
0 789.42676 82.201904
5.4703169 789.42676 82.201904
10.940842 789.42676 82.201904
16.41116 789.42676 82.201904
21.881683 789.42676 82.201904
27.352001 789.42676 82.201904
32.822319 789.42676 82.201904
38.292843 789.42676 82.201904
43.763157 789.42676 82.201904
49.233688 789.42676 82.201904
54.704002 789.42676 82.201904
60.733631 776.12964 108.0625
66.255005 776.12964 108.0625
71.776169 776.12964 108.0625
77.297546 776.12964 108.0625
82.818703 776.12964 108.0625
88.339859 776.12964 108.0625
93.861237 776.12964 108.0625
99.382401 776.12964 108.0625
104.90378 776.12964 108.0625
110.42493 776.12964 108.0625
117.01388 762.83276 133.92261
122.58611 762.83276 133.92261
126.98864 776.12964 108.0625
132.51001 776.12964 108.0625
139.30234 762.83276 133.92261
144.87434 762.83276 133.92261
150.44656 762.83276 133.92261
156.01857 762.83276 133.92261
160.11624 776.12964 108.0625
165.63741 776.12964 108.0625
172.73482 762.83276 133.92261
179.99023 749.07715 160.67456
183.87904 762.83276 133.92261
189.45126 762.83276 133.92261
196.86427 749.07715 160.67456
202.48888 749.07715 160.67456
208.11371 749.07715 160.67456
213.73831 749.07715 160.67456
221.41454 735.32166 187.42627
227.09174 735.32166 187.42627
232.76895 735.32166 187.42627
240.72922 721.10767 215.07007
434.62326 762.83276 133.92261
440.19547 762.83276 133.92261
445.76749 762.83276 133.92261
455.6001 749.07715 160.67456
456.91168 762.83276 133.92261
462.48373 762.83276 133.92261
472.47433 749.07715 160.67456
478.09894 749.07715 160.67456
483.72354 749.07715 160.67456
493.92456 735.32166 187.42627
499.60181 735.32166 187.42627
505.27921 735.32166 187.42627
510.95642 735.32166 187.42627
-441.33685 715.83154 212.83057
-435.60516 715.83154 212.83057
-429.8735 715.83154 212.83057
-144.87445 757.70349 131.74536
-139.30234 757.70349 131.74536
-133.73022 757.70349 131.74536
-128.15811 757.70349 131.74536
-122.58611 757.70349 131.74536
-117.01398 757.70349 131.74536
-111.44187 757.70349 131.74536
-105.86976 757.70349 131.74536
-100.29764 757.70349 131.74536
-94.725632 757.70349 131.74536
-89.153519 757.70349 131.74536
-83.581406 757.70349 131.74536
-78.009285 757.70349 131.74536
-72.437172 757.70349 131.74536
