ply
format ascii 1.0
comment PCL generated
element vertex 1581
property float x
property float y
property float z
element camera 0
property float view_px
property float view_py
property float view_pz
property float x_axisx
property float x_axisy
property float x_axisz
property float y_axisx
property float y_axisy
property float y_axisz
property float z_axisx
property float z_axisy
property float z_axisz
property float focal
property float scalex
property float scaley
property float centerx
property float centery
property int viewportx
property int viewporty
property float k1
property float k2
end_header
5.785912 376.67908 102.5459
11.463337 393.99512 76.218994
17.194897 393.99512 76.218994
22.926674 393.99512 76.218994
28.93 376.67908 102.5459
34.715912 376.67908 102.5459
40.502045 376.67908 102.5459
46.28796 376.67908 102.5459
52.074093 376.67908 102.5459
58.438602 358.24585 130.57153
64.282372 358.24585 130.57153
70.126366 358.24585 130.57153
75.970139 358.24585 130.57153
81.814133 358.24585 130.57153
88.499504 340.37134 157.74756
94.399376 340.37134 157.74756
100.29948 340.37134 157.74756
106.19936 340.37134 157.74756
-158.41367 195.45142 366.73657
-150.47806 216.73877 334.49072
-142.71603 237.46606 303.09375
-136.51108 237.46606 303.09375
-130.30602 237.46606 303.09375
-122.83854 257.6333 272.54517
-115.53062 277.23999 242.84497
-109.45004 277.23999 242.84497
-101.31291 315.89355 184.29395
-93.501785 352.86646 128.28809
-87.657906 352.86646 128.28809
-81.003975 371.35291 100.28516
-74.51136 388.71899 73.979492
-68.779808 388.71899 73.979492
-63.048141 388.71899 73.979492
-57.316467 388.71899 73.979492
-51.584797 388.71899 73.979492
-45.85313 388.71899 73.979492
-40.121571 388.71899 73.979492
-34.389904 388.71899 73.979492
-28.658234 388.71899 73.979492
-22.926565 388.71899 73.979492
-17.357956 371.35291 100.28516
-11.572044 371.35291 100.28516
-5.7860222 371.35291 100.28516
0 371.35291 100.28516
5.785912 371.35291 100.28516
11.572044 371.35291 100.28516
17.357956 371.35291 100.28516
23.144089 371.35291 100.28516
28.93 371.35291 100.28516
34.715912 371.35291 100.28516
40.502045 371.35291 100.28516
46.28796 371.35291 100.28516
52.074093 371.35291 100.28516
58.438602 352.86646 128.28809
64.282372 352.86646 128.28809
70.126366 352.86646 128.28809
75.970139 352.86646 128.28809
82.599632 334.94019 155.44214
88.499504 334.94019 155.44214
94.399376 334.94019 155.44214
100.29948 334.94019 155.44214
106.19936 334.94019 155.44214
112.09946 334.94019 155.44214
-158.41367 189.61841 364.26074
-150.47806 210.96729 332.04102
-142.71603 231.75427 300.66919
-136.51108 231.75427 300.66919
-130.30602 231.75427 300.66919
-124.10094 231.75427 300.66919
-116.69659 251.97949 270.14526
-110.55464 251.97949 270.14526
-102.32633 291.30615 210.79321
-94.399498 329.50928 153.13696
-88.499504 329.50928 153.13696
-81.814018 347.48706 126.00464
-75.217957 366.02686 98.024414
-69.432045 366.02686 98.024414
-63.646023 366.02686 98.024414
-57.860001 366.02686 98.024414
-52.073982 366.02686 98.024414
-45.85313 383.44287 71.739746
-40.121571 383.44287 71.739746
-34.389904 383.44287 71.739746
-28.658234 383.44287 71.739746
-23.14398 366.02686 98.024414
-17.357956 366.02686 98.024414
-11.572044 366.02686 98.024414
-5.7860222 366.02686 98.024414
0 366.02686 98.024414
5.785912 366.02686 98.024414
11.572044 366.02686 98.024414
17.357956 366.02686 98.024414
23.144089 366.02686 98.024414
28.93 366.02686 98.024414
34.715912 366.02686 98.024414
40.502045 366.02686 98.024414
46.28796 366.02686 98.024414
52.074093 366.02686 98.024414
58.438602 347.48706 126.00464
64.282372 347.48706 126.00464
70.126366 347.48706 126.00464
75.970139 347.48706 126.00464
81.814133 347.48706 126.00464
88.499504 329.50928 153.13696
94.399376 329.50928 153.13696
100.29948 329.50928 153.13696
106.19936 329.50928 153.13696
112.09946 329.50928 153.13696
116.8772 347.48706 126.00464
122.72098 347.48706 126.00464
-158.41367 183.78589 361.78491
-150.47806 205.1958 329.59106
-144.20811 205.1958 329.59106
-137.93829 205.1958 329.59106
-130.30602 226.04248 298.24463
-124.10094 226.04248 298.24463
-116.69659 246.32593 267.74561
-110.55464 246.32593 267.74561
-103.36957 266.04565 238.09326
-95.35331 304.92188 179.63672
-88.499504 324.07837 150.83154
-82.59951 324.07837 150.83154
-75.970139 342.10791 123.72119
-70.126366 342.10791 123.72119
-64.282486 342.10791 123.72119
-57.860001 360.70093 95.763672
-52.073982 360.70093 95.763672
-46.28796 360.70093 95.763672
-40.121571 378.16699 69.500488
-34.389904 378.16699 69.500488
-28.93 360.70093 95.763672
-23.14398 360.70093 95.763672
-17.531536 342.10791 123.72119
-11.687765 342.10791 123.72119
-5.8438826 342.10791 123.72119
0 342.10791 123.72119
5.785912 360.70093 95.763672
11.572044 360.70093 95.763672
17.357956 360.70093 95.763672
23.144089 360.70093 95.763672
28.93 360.70093 95.763672
34.715912 360.70093 95.763672
40.502045 360.70093 95.763672
46.28796 360.70093 95.763672
52.074093 360.70093 95.763672
58.438602 342.10791 123.72119
64.282372 342.10791 123.72119
70.126366 342.10791 123.72119
75.970139 342.10791 123.72119
81.814133 342.10791 123.72119
88.499504 324.07837 150.83154
94.399376 324.07837 150.83154
100.29948 324.07837 150.83154
106.19936 324.07837 150.83154
112.09946 324.07837 150.83154
116.8772 342.10791 123.72119
122.72098 342.10791 123.72119
-150.47806 199.42432 327.14111
-144.20811 199.42432 327.14111
-136.51108 220.33057 295.82031
-130.30602 220.33057 295.82031
-124.10094 220.33057 295.82031
-117.89587 220.33057 295.82031
-111.6908 220.33057 295.82031
-104.4128 240.67212 265.3457
-97.288986 260.44836 235.71753
-91.208405 260.44836 235.71753
-83.434097 299.43604 177.30811
-77.474495 299.43604 177.30811
-70.126366 336.72852 121.43799
-64.282486 336.72852 121.43799
-58.438602 336.72852 121.43799
-52.594719 336.72852 121.43799
-46.28796 355.37476 93.502686
-40.502045 355.37476 93.502686
-34.716022 355.37476 93.502686
-28.93 355.37476 93.502686
-23.14398 355.37476 93.502686
-17.531536 336.72852 121.43799
-11.687765 336.72852 121.43799
-5.8438826 336.72852 121.43799
0 336.72852 121.43799
5.785912 355.37476 93.502686
11.572044 355.37476 93.502686
17.357956 355.37476 93.502686
23.144089 355.37476 93.502686
28.93 355.37476 93.502686
34.715912 355.37476 93.502686
40.502045 355.37476 93.502686
46.28796 355.37476 93.502686
52.59483 336.72852 121.43799
58.438602 336.72852 121.43799
64.282372 336.72852 121.43799
70.126366 336.72852 121.43799
75.970139 336.72852 121.43799
81.814133 336.72852 121.43799
88.499504 318.64734 148.52637
94.399376 318.64734 148.52637
100.29948 318.64734 148.52637
106.19936 318.64734 148.52637
112.09946 318.64734 148.52637
117.99934 318.64734 148.52637
123.89921 318.64734 148.52637
129.79932 318.64734 148.52637
-150.47806 193.65283 324.69141
-144.20811 193.65283 324.69141
-136.51108 214.61902 293.39575
-130.30602 214.61902 293.39575
-124.10094 214.61902 293.39575
-117.89587 214.61902 293.39575
-111.6908 214.61902 293.39575
-104.4128 235.01855 262.9458
-98.270851 235.01855 262.9458
-91.208405 254.85132 233.34155
-84.268684 274.68408 203.73779
-78.249474 274.68408 203.73779
-70.799652 313.21655 146.22095
-64.899658 313.21655 146.22095
-57.860001 350.04883 91.241943
-52.073982 350.04883 91.241943
-46.28796 350.04883 91.241943
-40.502045 350.04883 91.241943
-34.716022 350.04883 91.241943
-28.93 350.04883 91.241943
-23.14398 350.04883 91.241943
-17.531536 331.34924 119.15454
-11.687765 331.34924 119.15454
-5.8438826 331.34924 119.15454
0 331.34924 119.15454
5.843771 331.34924 119.15454
11.572044 350.04883 91.241943
17.357956 350.04883 91.241943
23.144089 350.04883 91.241943
28.93 350.04883 91.241943
34.715912 350.04883 91.241943
40.502045 350.04883 91.241943
46.28796 350.04883 91.241943
52.59483 331.34924 119.15454
58.438602 331.34924 119.15454
64.282372 331.34924 119.15454
70.799652 313.21655 146.22095
75.970139 331.34924 119.15454
81.814133 331.34924 119.15454
88.499504 313.21655 146.22095
94.399376 313.21655 146.22095
100.29948 313.21655 146.22095
106.19936 313.21655 146.22095
112.09946 313.21655 146.22095
117.99934 313.21655 146.22095
123.89921 313.21655 146.22095
129.79932 313.21655 146.22095
135.69919 313.21655 146.22095
-152.0771 166.28711 354.35718
-144.20811 187.88135 322.24146
-136.51108 208.90723 290.97119
-130.30602 208.90723 290.97119
-124.10094 208.90723 290.97119
-116.69659 229.36487 260.5459
-110.55464 229.36487 260.5459
-104.4128 229.36487 260.5459
-98.270851 229.36487 260.5459
-91.208405 249.25415 230.96582
-84.268684 269.14331 201.38574
-78.249474 269.14331 201.38574
-71.515007 288.46436 172.65088
-64.899658 307.78552 143.91577
-57.860001 344.72266 88.981201
-52.073982 344.72266 88.981201
-46.28796 344.72266 88.981201
-40.502045 344.72266 88.981201
-34.389904 362.33899 62.781738
-28.658234 362.33899 62.781738
-22.926565 362.33899 62.781738
-17.531536 325.96997 116.87109
-11.687765 325.96997 116.87109
-5.8438826 325.96997 116.87109
0 344.72266 88.981201
5.785912 344.72266 88.981201
11.687765 325.96997 116.87109
17.357956 344.72266 88.981201
23.144089 344.72266 88.981201
28.93 344.72266 88.981201
34.715912 344.72266 88.981201
40.502045 344.72266 88.981201
46.28796 344.72266 88.981201
52.59483 325.96997 116.87109
58.438602 325.96997 116.87109
64.282372 325.96997 116.87109
70.126366 325.96997 116.87109
75.970139 325.96997 116.87109
81.814133 325.96997 116.87109
88.499504 307.78552 143.91577
94.399376 307.78552 143.91577
100.29948 307.78552 143.91577
106.19936 307.78552 143.91577
112.09946 307.78552 143.91577
117.99934 307.78552 143.91577
123.89921 307.78552 143.91577
129.79932 307.78552 143.91577
135.69919 307.78552 143.91577
141.5993 307.78552 143.91577
-152.0771 160.45459 351.88135
-144.20811 182.10986 319.79175
-136.51108 203.19543 288.54663
-130.30602 203.19543 288.54663
-124.10094 203.19543 288.54663
-116.69659 223.71118 258.146
-110.55464 223.71118 258.146
-104.4128 223.71118 258.146
-98.270851 223.71118 258.146
-91.208405 243.65698 228.58984
-85.127823 243.65698 228.58984
-79.047241 243.65698 228.58984
-71.515007 282.97864 170.32227
-65.555405 282.97864 170.32227
-57.860001 339.39673 86.720459
-52.073982 339.39673 86.720459
-46.28796 339.39673 86.720459
-40.502045 339.39673 86.720459
-34.389904 357.06299 60.542236
-28.658234 357.06299 60.542236
-22.926565 357.06299 60.542236
-17.531536 320.59058 114.58789
-11.687765 320.59058 114.58789
-5.8438826 320.59058 114.58789
0 339.39673 86.720459
5.785912 339.39673 86.720459
11.687765 320.59058 114.58789
17.357956 339.39673 86.720459
23.144089 339.39673 86.720459
28.93 339.39673 86.720459
34.715912 339.39673 86.720459
40.502045 339.39673 86.720459
46.28796 339.39673 86.720459
52.59483 320.59058 114.58789
58.438602 320.59058 114.58789
64.282372 320.59058 114.58789
70.126366 320.59058 114.58789
75.970139 320.59058 114.58789
81.814133 320.59058 114.58789
88.499504 302.35461 141.61035
94.399376 302.35461 141.61035
100.29948 302.35461 141.61035
106.19936 302.35461 141.61035
112.09946 302.35461 141.61035
117.99934 302.35461 141.61035
125.1511 282.97864 170.32227
129.79932 302.35461 141.61035
135.69919 302.35461 141.61035
141.5993 302.35461 141.61035
148.9895 282.97864 170.32227
-152.0771 154.62158 349.40527
-144.20811 176.33838 317.3418
-136.51108 197.48364 286.12207
-130.30602 197.48364 286.12207
-124.10094 197.48364 286.12207
-117.89587 197.48364 286.12207
-110.55464 218.0575 255.74634
-104.4128 218.0575 255.74634
-98.270851 218.0575 255.74634
-91.208405 238.05969 226.21387
-85.127823 238.05969 226.21387
-79.047241 238.05969 226.21387
-71.515007 277.4928 167.99365
-65.555405 277.4928 167.99365
-58.999668 296.92358 139.30518
-52.594719 315.2113 112.30444
-46.750835 315.2113 112.30444
-40.502045 334.07056 84.459717
-34.389904 351.78687 58.302734
-28.658234 351.78687 58.302734
-22.926565 351.78687 58.302734
-17.531536 315.2113 112.30444
-11.687765 315.2113 112.30444
-5.8438826 315.2113 112.30444
0 315.2113 112.30444
5.843771 315.2113 112.30444
11.687765 315.2113 112.30444
17.531536 315.2113 112.30444
23.144089 334.07056 84.459717
28.93 334.07056 84.459717
34.715912 334.07056 84.459717
40.502045 334.07056 84.459717
46.28796 334.07056 84.459717
52.59483 315.2113 112.30444
58.438602 315.2113 112.30444
64.282372 315.2113 112.30444
70.126366 315.2113 112.30444
76.699524 296.92358 139.30518
82.599632 296.92358 139.30518
88.499504 296.92358 139.30518
94.399376 296.92358 139.30518
100.29948 296.92358 139.30518
106.19936 296.92358 139.30518
112.09946 296.92358 139.30518
117.99934 296.92358 139.30518
125.1511 277.4928 167.99365
131.11081 277.4928 167.99365
137.0703 277.4928 167.99365
143.03001 277.4928 167.99365
148.9895 277.4928 167.99365
154.94899 277.4928 167.99365
160.90871 277.4928 167.99365
-152.0771 148.78882 346.92944
-145.74052 148.78882 346.92944
-137.93829 170.56689 314.89209
-131.66835 170.56689 314.89209
-124.10094 191.77197 283.69775
-117.89587 191.77197 283.69775
-111.6908 191.77197 283.69775
-104.4128 212.40381 253.34644
-98.270851 212.40381 253.34644
-91.208405 232.46265 223.83813
-85.127823 232.46265 223.83813
-79.047241 232.46265 223.83813
-72.23037 252.52124 194.33008
-66.211151 252.52124 194.33008
-59.595802 272.00708 165.66504
-53.099682 291.49268 136.99976
-47.199688 291.49268 136.99976
-40.907066 309.83203 110.021
-34.716022 328.74463 82.198975
-28.658234 346.51099 56.063232
-22.926565 346.51099 56.063232
-17.357956 328.74463 82.198975
-11.687765 309.83203 110.021
-5.8438826 309.83203 110.021
0 309.83203 110.021
5.843771 309.83203 110.021
11.687765 309.83203 110.021
17.531536 309.83203 110.021
23.144089 328.74463 82.198975
28.93 328.74463 82.198975
34.715912 328.74463 82.198975
40.502045 328.74463 82.198975
46.28796 328.74463 82.198975
52.59483 309.83203 110.021
58.438602 309.83203 110.021
64.282372 309.83203 110.021
70.126366 309.83203 110.021
75.970139 309.83203 110.021
81.814133 309.83203 110.021
88.499504 291.49268 136.99976
94.399376 291.49268 136.99976
100.29948 291.49268 136.99976
106.19936 291.49268 136.99976
112.09946 291.49268 136.99976
117.99934 291.49268 136.99976
125.1511 272.00708 165.66504
131.11081 272.00708 165.66504
137.0703 272.00708 165.66504
143.03001 272.00708 165.66504
148.9895 272.00708 165.66504
154.94899 272.00708 165.66504
160.90871 272.00708 165.66504
168.53737 252.52124 194.33008
-152.0771 142.95605 344.45361
-145.74052 142.95605 344.45361
-137.93829 164.79541 312.44214
-131.66835 164.79541 312.44214
-124.10094 186.06006 281.27319
-117.89587 186.06006 281.27319
-111.6908 186.06006 281.27319
-104.4128 206.75012 250.94653
-98.270851 206.75012 250.94653
-92.128906 206.75012 250.94653
-85.986954 206.75012 250.94653
-79.047241 226.86536 221.4624
-72.23037 246.98047 191.97827
-66.211151 246.98047 191.97827
-60.191936 246.98047 191.97827
-53.636196 266.52112 163.33643
-47.199688 286.06177 134.69458
-40.907066 304.45264 107.73755
-34.389904 341.23499 53.82373
-28.658234 341.23499 53.82373
-22.926565 341.23499 53.82373
-17.357956 323.41846 79.938232
-11.687765 304.45264 107.73755
-5.8438826 304.45264 107.73755
0 304.45264 107.73755
5.843771 304.45264 107.73755
11.687765 304.45264 107.73755
17.531536 304.45264 107.73755
23.37553 304.45264 107.73755
29.219301 304.45264 107.73755
35.063072 304.45264 107.73755
40.907066 304.45264 107.73755
46.750835 304.45264 107.73755
52.59483 304.45264 107.73755
58.438602 304.45264 107.73755
64.282372 304.45264 107.73755
70.126366 304.45264 107.73755
75.970139 304.45264 107.73755
81.814133 304.45264 107.73755
87.657906 304.45264 107.73755
94.399376 286.06177 134.69458
100.29948 286.06177 134.69458
106.19936 286.06177 134.69458
112.09946 286.06177 134.69458
117.99934 286.06177 134.69458
125.1511 266.52112 163.33643
131.11081 266.52112 163.33643
137.0703 266.52112 163.33643
143.03001 266.52112 163.33643
148.9895 266.52112 163.33643
154.94899 266.52112 163.33643
160.90871 266.52112 163.33643
168.53737 246.98047 191.97827
-152.0771 137.12329 341.97778
-144.20811 159.02393 309.99219
-137.93829 159.02393 309.99219
-130.30602 180.34839 278.84863
-124.10094 180.34839 278.84863
-117.89587 180.34839 278.84863
-111.6908 180.34839 278.84863
-104.4128 201.09644 248.54688
-98.270851 201.09644 248.54688
-92.128906 201.09644 248.54688
-85.986954 201.09644 248.54688
-79.047241 221.26831 219.08643
-72.966766 221.26831 219.08643
-66.886185 221.26831 219.08643
-60.805603 221.26831 219.08643
-54.725021 221.26831 219.08643
-48.153503 241.43994 189.62646
-41.299816 280.63086 132.38916
-34.389904 335.95898 51.583984
-28.658234 335.95898 51.583984
-22.926565 335.95898 51.583984
-17.357956 318.09253 77.67749
-11.687765 299.07349 105.45435
-5.8438826 299.07349 105.45435
0 299.07349 105.45435
5.843771 299.07349 105.45435
11.687765 299.07349 105.45435
17.531536 299.07349 105.45435
23.37553 299.07349 105.45435
29.219301 299.07349 105.45435
35.063072 299.07349 105.45435
40.907066 299.07349 105.45435
46.750835 299.07349 105.45435
52.59483 299.07349 105.45435
58.438602 299.07349 105.45435
64.282372 299.07349 105.45435
70.126366 299.07349 105.45435
75.970139 299.07349 105.45435
81.814133 299.07349 105.45435
87.657906 299.07349 105.45435
94.399376 280.63086 132.38916
100.29948 280.63086 132.38916
106.19936 280.63086 132.38916
112.09946 280.63086 132.38916
117.99934 280.63086 132.38916
125.1511 261.0354 161.00781
129.79932 280.63086 132.38916
135.69919 280.63086 132.38916
143.03001 261.0354 161.00781
148.9895 261.0354 161.00781
154.94899 261.0354 161.00781
160.90871 261.0354 161.00781
168.53737 241.43994 189.62646
174.5567 241.43994 189.62646
-144.20811 153.25244 307.54248
-136.51108 174.63647 276.42407
-130.30602 174.63647 276.42407
-124.10094 174.63647 276.42407
-117.89587 174.63647 276.42407
-110.55464 195.44287 246.14697
-104.4128 195.44287 246.14697
-98.270851 195.44287 246.14697
-92.128906 195.44287 246.14697
-85.986954 195.44287 246.14697
-79.047241 215.6709 216.71045
-72.966766 215.6709 216.71045
-66.886185 215.6709 216.71045
-60.805603 215.6709 216.71045
-54.725021 215.6709 216.71045
-48.153503 235.89917 187.27441
-42.134399 235.89917 187.27441
-35.063183 293.69409 103.1709
-28.93 312.76648 75.416748
-23.14398 312.76648 75.416748
-17.531536 293.69409 103.1709
-11.687765 293.69409 103.1709
-5.8438826 293.69409 103.1709
0 293.69409 103.1709
5.843771 293.69409 103.1709
11.687765 293.69409 103.1709
17.531536 293.69409 103.1709
23.37553 293.69409 103.1709
29.219301 293.69409 103.1709
35.063072 293.69409 103.1709
40.907066 293.69409 103.1709
46.750835 293.69409 103.1709
52.59483 293.69409 103.1709
58.438602 293.69409 103.1709
64.282372 293.69409 103.1709
70.126366 293.69409 103.1709
75.970139 293.69409 103.1709
81.814133 293.69409 103.1709
87.657906 293.69409 103.1709
94.399376 275.19983 130.08398
100.29948 275.19983 130.08398
106.19936 275.19983 130.08398
112.09946 275.19983 130.08398
117.99934 275.19983 130.08398
125.1511 255.54944 158.6792
129.79932 275.19983 130.08398
135.69919 275.19983 130.08398
143.03001 255.54944 158.6792
148.9895 255.54944 158.6792
154.94899 255.54944 158.6792
160.90871 255.54944 158.6792
168.53737 235.89917 187.27441
174.5567 235.89917 187.27441
182.41681 215.6709 216.71045
-144.20811 147.48096 305.09253
-136.51108 168.9248 273.99976
-130.30602 168.9248 273.99976
-124.10094 168.9248 273.99976
-117.89587 168.9248 273.99976
-110.55464 189.78918 243.74707
-104.4128 189.78918 243.74707
-98.270851 189.78918 243.74707
-92.128906 189.78918 243.74707
-85.986954 189.78918 243.74707
-79.047241 210.07397 214.33472
-72.966766 210.07397 214.33472
-66.886185 210.07397 214.33472
-60.805603 210.07397 214.33472
-54.725021 210.07397 214.33472
-48.644436 210.07397 214.33472
-42.563965 210.07397 214.33472
-36.115185 230.35852 184.92261
-29.797901 250.06372 156.35083
-23.599844 269.76904 127.77856
-17.699856 269.76904 127.77856
-11.687765 288.31494 100.88745
-5.8438826 288.31494 100.88745
0 288.31494 100.88745
5.843771 288.31494 100.88745
11.687765 288.31494 100.88745
17.531536 288.31494 100.88745
23.37553 288.31494 100.88745
29.219301 288.31494 100.88745
35.399712 269.76904 127.77856
40.907066 288.31494 100.88745
46.750835 288.31494 100.88745
52.59483 288.31494 100.88745
58.438602 288.31494 100.88745
64.282372 288.31494 100.88745
70.126366 288.31494 100.88745
75.970139 288.31494 100.88745
81.814133 288.31494 100.88745
87.657906 288.31494 100.88745
94.399376 269.76904 127.77856
100.29948 269.76904 127.77856
106.19936 269.76904 127.77856
112.09946 269.76904 127.77856
117.99934 269.76904 127.77856
123.89921 269.76904 127.77856
129.79932 269.76904 127.77856
135.69919 269.76904 127.77856
143.03001 250.06372 156.35083
148.9895 250.06372 156.35083
154.94899 250.06372 156.35083
160.90871 250.06372 156.35083
168.53737 230.35852 184.92261
174.5567 230.35852 184.92261
182.41681 210.07397 214.33472
190.39964 189.78918 243.74707
-152.0771 119.62476 334.55005
-142.71603 163.21289 271.5752
-136.51108 163.21289 271.5752
-130.30602 163.21289 271.5752
-124.10094 163.21289 271.5752
-117.89587 163.21289 271.5752
-110.55464 184.1355 241.34717
-104.4128 184.1355 241.34717
-98.270851 184.1355 241.34717
-91.208405 204.47656 211.95898
-85.127823 204.47656 211.95898
-79.047241 204.47656 211.95898
-73.703171 184.1355 241.34717
-67.561218 184.1355 241.34717
-61.41927 184.1355 241.34717
-54.725021 204.47656 211.95898
-48.644436 204.47656 211.95898
-42.563965 204.47656 211.95898
-36.483383 204.47656 211.95898
-30.402802 204.47656 211.95898
-24.322218 204.47656 211.95898
-17.878695 244.57788 154.02197
-11.799978 264.33789 125.47339
-5.8999891 264.33789 125.47339
0 264.33789 125.47339
5.8998771 264.33789 125.47339
11.799978 264.33789 125.47339
17.699856 264.33789 125.47339
23.599957 264.33789 125.47339
29.499834 264.33789 125.47339
35.399712 264.33789 125.47339
41.299816 264.33789 125.47339
46.750835 282.93555 98.604004
52.59483 282.93555 98.604004
58.438602 282.93555 98.604004
64.282372 282.93555 98.604004
70.126366 282.93555 98.604004
75.970139 282.93555 98.604004
81.814133 282.93555 98.604004
87.657906 282.93555 98.604004
94.399376 264.33789 125.47339
100.29948 264.33789 125.47339
106.19936 264.33789 125.47339
112.09946 264.33789 125.47339
117.99934 264.33789 125.47339
123.89921 264.33789 125.47339
129.79932 264.33789 125.47339
137.0703 244.57788 154.02197
143.03001 244.57788 154.02197
148.9895 244.57788 154.02197
154.94899 244.57788 154.02197
160.90871 244.57788 154.02197
168.53737 224.81775 182.5708
174.5567 224.81775 182.5708
182.41681 204.47656 211.95898
190.39964 184.1355 241.34717
196.5417 184.1355 241.34717
-152.0771 113.79199 332.07422
-142.71603 157.50122 269.15063
-136.51108 157.50122 269.15063
-130.30602 157.50122 269.15063
-122.83854 178.48193 238.94751
-116.69659 178.48193 238.94751
-110.55464 178.48193 238.94751
-104.4128 178.48193 238.94751
-98.270851 178.48193 238.94751
-91.208405 198.87952 209.58301
-85.127823 198.87952 209.58301
-79.047241 198.87952 209.58301
-73.703171 178.48193 238.94751
-67.561218 178.48193 238.94751
-61.41927 178.48193 238.94751
-55.277321 178.48193 238.94751
-49.135365 178.48193 238.94751
-42.563965 198.87952 209.58301
-36.483383 198.87952 209.58301
-30.402802 198.87952 209.58301
-24.322218 198.87952 209.58301
-18.241634 198.87952 209.58301
-12.038433 219.2771 180.21875
-5.9596033 239.09204 151.6936
0 258.9071 123.16797
5.8998771 258.9071 123.16797
11.799978 258.9071 123.16797
17.699856 258.9071 123.16797
23.599957 258.9071 123.16797
29.499834 258.9071 123.16797
35.399712 258.9071 123.16797
41.299816 258.9071 123.16797
47.199688 258.9071 123.16797
52.59483 277.5564 96.320801
58.438602 277.5564 96.320801
64.282372 277.5564 96.320801
70.126366 277.5564 96.320801
75.970139 277.5564 96.320801
81.814133 277.5564 96.320801
87.657906 277.5564 96.320801
94.399376 258.9071 123.16797
100.29948 258.9071 123.16797
106.19936 258.9071 123.16797
112.09946 258.9071 123.16797
117.99934 258.9071 123.16797
123.89921 258.9071 123.16797
129.79932 258.9071 123.16797
137.0703 239.09204 151.6936
143.03001 239.09204 151.6936
148.9895 239.09204 151.6936
154.94899 239.09204 151.6936
160.90871 239.09204 151.6936
168.53737 219.2771 180.21875
174.5567 219.2771 180.21875
182.41681 198.87952 209.58301
188.49728 198.87952 209.58301
196.5417 178.48193 238.94751
-150.47806 130.1665 297.74292
-142.71603 151.78955 266.72607
-136.51108 151.78955 266.72607
-128.98048 172.82812 236.54761
-122.83854 172.82812 236.54761
-116.69659 172.82812 236.54761
-110.55464 172.82812 236.54761
-104.4128 172.82812 236.54761
-98.270851 172.82812 236.54761
-92.128906 172.82812 236.54761
-85.986954 172.82812 236.54761
-79.845009 172.82812 236.54761
-73.703171 172.82812 236.54761
-67.561218 172.82812 236.54761
-61.41927 172.82812 236.54761
-54.725021 193.28223 207.20703
-48.644436 193.28223 207.20703
-42.993538 172.82812 236.54761
-36.851585 172.82812 236.54761
-30.709635 172.82812 236.54761
-24.567682 172.82812 236.54761
-18.615093 151.78955 266.72607
-12.2839 172.82812 236.54761
-6.1419501 172.82812 236.54761
0 233.6062 149.36499
5.8998771 253.47607 120.86279
11.799978 253.47607 120.86279
17.699856 253.47607 120.86279
23.599957 253.47607 120.86279
29.499834 253.47607 120.86279
35.399712 253.47607 120.86279
41.299816 253.47607 120.86279
47.199688 253.47607 120.86279
52.59483 272.177 94.037354
58.438602 272.177 94.037354
64.282372 272.177 94.037354
70.126366 272.177 94.037354
75.970139 272.177 94.037354
81.814133 272.177 94.037354
87.657906 272.177 94.037354
94.399376 253.47607 120.86279
100.29948 253.47607 120.86279
106.19936 253.47607 120.86279
112.09946 253.47607 120.86279
117.99934 253.47607 120.86279
123.89921 253.47607 120.86279
131.11081 233.6062 149.36499
137.0703 233.6062 149.36499
143.03001 233.6062 149.36499
148.9895 233.6062 149.36499
154.94899 233.6062 149.36499
162.51826 213.73633 177.86694
168.53737 213.73633 177.86694
174.5567 213.73633 177.86694
180.57581 213.73633 177.86694
188.49728 193.28223 207.20703
194.57797 193.28223 207.20703
202.68355 172.82812 236.54761
-148.9211 146.07764 264.30176
-142.71603 146.07764 264.30176
-135.12244 167.17432 234.14771
-128.98048 167.17432 234.14771
-122.83854 167.17432 234.14771
-116.69659 167.17432 234.14771
-110.55464 167.17432 234.14771
-104.4128 167.17432 234.14771
-97.288986 187.68506 204.8313
-91.208405 187.68506 204.8313
-85.986954 167.17432 234.14771
-79.845009 167.17432 234.14771
-73.703171 167.17432 234.14771
-67.561218 167.17432 234.14771
-61.41927 167.17432 234.14771
-54.725021 187.68506 204.8313
-48.644436 187.68506 204.8313
-42.993538 167.17432 234.14771
-36.851585 167.17432 234.14771
-30.709635 167.17432 234.14771
-24.567682 167.17432 234.14771
-18.615093 146.07764 264.30176
-12.410141 146.07764 264.30176
5.8998771 248.04504 118.55737
11.799978 248.04504 118.55737
17.531536 266.79761 91.753906
23.37553 266.79761 91.753906
29.219301 266.79761 91.753906
35.063072 266.79761 91.753906
40.907066 266.79761 91.753906
47.199688 248.04504 118.55737
52.59483 266.79761 91.753906
58.438602 266.79761 91.753906
64.282372 266.79761 91.753906
70.799652 248.04504 118.55737
76.699524 248.04504 118.55737
82.599632 248.04504 118.55737
88.499504 248.04504 118.55737
94.399376 248.04504 118.55737
100.29948 248.04504 118.55737
106.19936 248.04504 118.55737
112.09946 248.04504 118.55737
117.99934 248.04504 118.55737
125.1511 228.12036 147.03638
131.11081 228.12036 147.03638
137.0703 228.12036 147.03638
143.03001 228.12036 147.03638
148.9895 228.12036 147.03638
154.94899 228.12036 147.03638
160.90871 228.12036 147.03638
166.86819 228.12036 147.03638
172.82793 228.12036 147.03638
180.57581 208.19556 175.51514
186.59491 208.19556 175.51514
194.57797 187.68506 204.8313
202.68355 167.17432 234.14771
-155.12617 140.36597 261.8772
-148.9211 140.36597 261.8772
-142.71603 140.36597 261.8772
-135.12244 161.52075 231.7478
-128.98048 161.52075 231.7478
-122.83854 161.52075 231.7478
-116.69659 161.52075 231.7478
-110.55464 161.52075 231.7478
-104.4128 161.52075 231.7478
-97.288986 182.08789 202.45532
-91.208405 182.08789 202.45532
-85.986954 161.52075 231.7478
-79.845009 161.52075 231.7478
-73.703171 161.52075 231.7478
-67.561218 161.52075 231.7478
-61.41927 161.52075 231.7478
-54.725021 182.08789 202.45532
-48.644436 182.08789 202.45532
-42.993538 161.52075 231.7478
-36.851585 161.52075 231.7478
-30.709635 161.52075 231.7478
-24.567682 161.52075 231.7478
-18.615093 140.36597 261.8772
-12.539888 118.62354 292.84326
11.799978 242.61426 116.2522
17.531536 261.41833 89.470703
23.37553 261.41833 89.470703
29.219301 261.41833 89.470703
35.063072 261.41833 89.470703
40.907066 261.41833 89.470703
46.750835 261.41833 89.470703
52.59483 261.41833 89.470703
58.438602 261.41833 89.470703
64.282372 261.41833 89.470703
70.799652 242.61426 116.2522
76.699524 242.61426 116.2522
82.599632 242.61426 116.2522
88.499504 242.61426 116.2522
94.399376 242.61426 116.2522
100.29948 242.61426 116.2522
106.19936 242.61426 116.2522
112.09946 242.61426 116.2522
117.99934 242.61426 116.2522
125.1511 222.63452 144.70776
131.11081 222.63452 144.70776
137.0703 222.63452 144.70776
143.03001 222.63452 144.70776
148.9895 222.63452 144.70776
154.94899 222.63452 144.70776
160.90871 222.63452 144.70776
166.86819 222.63452 144.70776
172.82793 222.63452 144.70776
178.7874 222.63452 144.70776
186.59491 202.65503 173.16309
192.61424 202.65503 173.16309
200.65845 182.08789 202.45532
-155.12617 134.65405 259.45264
-148.9211 134.65405 259.45264
-142.71603 134.65405 259.45264
-135.12244 155.86694 229.3479
-128.98048 155.86694 229.3479
-122.83854 155.86694 229.3479
-116.69659 155.86694 229.3479
-110.55464 155.86694 229.3479
-104.4128 155.86694 229.3479
-98.270851 155.86694 229.3479
-92.128906 155.86694 229.3479
-85.986954 155.86694 229.3479
-79.845009 155.86694 229.3479
-73.703171 155.86694 229.3479
-67.561218 155.86694 229.3479
-61.41927 155.86694 229.3479
-55.277321 155.86694 229.3479
-49.135365 155.86694 229.3479
-42.993538 155.86694 229.3479
-36.851585 155.86694 229.3479
-30.709635 155.86694 229.3479
-24.567682 155.86694 229.3479
-18.809711 112.85181 290.39331
-12.539888 112.85181 290.39331
17.531536 256.03894 87.187256
23.37553 256.03894 87.187256
29.219301 256.03894 87.187256
35.063072 256.03894 87.187256
40.907066 256.03894 87.187256
46.750835 256.03894 87.187256
52.59483 256.03894 87.187256
58.438602 256.03894 87.187256
64.282372 256.03894 87.187256
70.799652 237.18311 113.94678
76.699524 237.18311 113.94678
82.599632 237.18311 113.94678
88.499504 237.18311 113.94678
94.399376 237.18311 113.94678
100.29948 237.18311 113.94678
106.19936 237.18311 113.94678
112.09946 237.18311 113.94678
117.99934 237.18311 113.94678
125.1511 217.14868 142.37915
131.11081 217.14868 142.37915
137.0703 217.14868 142.37915
143.03001 217.14868 142.37915
148.9895 217.14868 142.37915
154.94899 217.14868 142.37915
160.90871 217.14868 142.37915
166.86819 217.14868 142.37915
172.82793 217.14868 142.37915
178.7874 217.14868 142.37915
186.59491 197.11426 170.81128
192.61424 197.11426 170.81128
200.65845 176.4906 200.07959
-158.41367 84.62793 319.69482
-148.9211 128.94238 257.02808
-142.71603 128.94238 257.02808
-136.51108 128.94238 257.02808
-130.30602 128.94238 257.02808
-124.10094 128.94238 257.02808
-116.69659 150.21338 226.94824
-110.55464 150.21338 226.94824
-104.4128 150.21338 226.94824
-98.270851 150.21338 226.94824
-92.128906 150.21338 226.94824
-85.986954 150.21338 226.94824
-79.845009 150.21338 226.94824
-73.703171 150.21338 226.94824
-67.561218 150.21338 226.94824
-61.41927 150.21338 226.94824
-55.277321 150.21338 226.94824
-49.135365 150.21338 226.94824
-42.993538 150.21338 226.94824
-36.851585 150.21338 226.94824
-30.709635 150.21338 226.94824
-24.567682 150.21338 226.94824
-18.809711 107.08057 287.9436
-12.539888 107.08057 287.9436
29.219301 250.65967 84.903809
35.063072 250.65967 84.903809
40.907066 250.65967 84.903809
46.750835 250.65967 84.903809
52.59483 250.65967 84.903809
58.438602 250.65967 84.903809
64.282372 250.65967 84.903809
70.799652 231.75232 111.6416
76.699524 231.75232 111.6416
82.599632 231.75232 111.6416
88.499504 231.75232 111.6416
94.399376 231.75232 111.6416
100.29948 231.75232 111.6416
106.19936 231.75232 111.6416
112.09946 231.75232 111.6416
117.99934 231.75232 111.6416
125.1511 211.66296 140.05054
131.11081 211.66296 140.05054
137.0703 211.66296 140.05054
143.03001 211.66296 140.05054
148.9895 211.66296 140.05054
154.94899 211.66296 140.05054
160.90871 211.66296 140.05054
166.86819 211.66296 140.05054
172.82793 211.66296 140.05054
178.7874 211.66296 140.05054
186.59491 191.57361 168.45947
192.61424 191.57361 168.45947
200.65845 170.89355 197.70361
210.97169 128.94238 257.02808
217.17664 128.94238 257.02808
-158.41367 78.794922 317.21875
-150.47806 101.30908 285.49365
-144.20811 101.30908 285.49365
-136.51108 123.23047 254.60352
-130.30602 123.23047 254.60352
-124.10094 123.23047 254.60352
-117.89587 123.23047 254.60352
-110.55464 144.55981 224.54834
-104.4128 144.55981 224.54834
-98.270851 144.55981 224.54834
-92.128906 144.55981 224.54834
-85.986954 144.55981 224.54834
-79.845009 144.55981 224.54834
-73.703171 144.55981 224.54834
-67.561218 144.55981 224.54834
-61.41927 144.55981 224.54834
-55.277321 144.55981 224.54834
-49.135365 144.55981 224.54834
-42.993538 144.55981 224.54834
-36.851585 144.55981 224.54834
-30.709635 144.55981 224.54834
-24.567682 144.55981 224.54834
-18.809711 101.30908 285.49365
-12.539888 101.30908 285.49365
35.063072 245.2804 82.620361
40.907066 245.2804 82.620361
47.199688 226.32129 109.33618
52.59483 245.2804 82.620361
58.438602 245.2804 82.620361
64.282372 245.2804 82.620361
70.799652 226.32129 109.33618
76.699524 226.32129 109.33618
82.599632 226.32129 109.33618
88.499504 226.32129 109.33618
94.399376 226.32129 109.33618
100.29948 226.32129 109.33618
106.19936 226.32129 109.33618
112.09946 226.32129 109.33618
117.99934 226.32129 109.33618
123.89921 226.32129 109.33618
131.11081 206.177 137.72192
137.0703 206.177 137.72192
143.03001 206.177 137.72192
148.9895 206.177 137.72192
154.94899 206.177 137.72192
160.90871 206.177 137.72192
166.86819 206.177 137.72192
172.82793 206.177 137.72192
178.7874 206.177 137.72192
186.59491 186.03284 166.10742
192.61424 186.03284 166.10742
200.65845 165.29639 195.32764
208.82561 144.55981 224.54834
217.17664 123.23047 254.60352
223.38159 123.23047 254.60352
-158.41367 72.962158 314.74292
-150.47806 95.537598 283.04395
-144.20811 95.537598 283.04395
-136.51108 117.5188 252.1792
-130.30602 117.5188 252.1792
-124.10094 117.5188 252.1792
-117.89587 117.5188 252.1792
-111.6908 117.5188 252.1792
-104.4128 138.90601 222.14844
-98.270851 138.90601 222.14844
-92.128906 138.90601 222.14844
-85.986954 138.90601 222.14844
-79.845009 138.90601 222.14844
-73.703171 138.90601 222.14844
-67.561218 138.90601 222.14844
-61.41927 138.90601 222.14844
-55.277321 138.90601 222.14844
-49.135365 138.90601 222.14844
-42.993538 138.90601 222.14844
-36.851585 138.90601 222.14844
-30.709635 138.90601 222.14844
-24.567682 138.90601 222.14844
-18.809711 95.537598 283.04395
-12.539888 95.537598 283.04395
35.399712 220.89038 107.03101
41.299816 220.89038 107.03101
47.199688 220.89038 107.03101
53.099792 220.89038 107.03101
58.999668 220.89038 107.03101
64.899544 220.89038 107.03101
70.799652 220.89038 107.03101
76.699524 220.89038 107.03101
82.599632 220.89038 107.03101
88.499504 220.89038 107.03101
94.399376 220.89038 107.03101
100.29948 220.89038 107.03101
106.19936 220.89038 107.03101
112.09946 220.89038 107.03101
117.99934 220.89038 107.03101
123.89921 220.89038 107.03101
131.11081 200.69141 135.39331
137.0703 200.69141 135.39331
143.03001 200.69141 135.39331
148.9895 200.69141 135.39331
154.94899 200.69141 135.39331
160.90871 200.69141 135.39331
166.86819 200.69141 135.39331
172.82793 200.69141 135.39331
178.7874 200.69141 135.39331
184.74689 200.69141 135.39331
192.61424 180.49219 163.75562
198.63335 180.49219 163.75562
206.73914 159.69922 192.9519
212.81961 159.69922 192.9519
221.10928 138.90601 222.14844
229.58678 117.5188 252.1792
-158.41367 67.129395 312.26709
-150.47806 89.765869 280.59399
-144.20811 89.765869 280.59399
-136.51108 111.80713 249.75464
-130.30602 111.80713 249.75464
-124.10094 111.80713 249.75464
-117.89587 111.80713 249.75464
-111.6908 111.80713 249.75464
-105.48585 111.80713 249.75464
-98.270851 133.25244 219.74854
-92.128906 133.25244 219.74854
-85.986954 133.25244 219.74854
-79.845009 133.25244 219.74854
-73.703171 133.25244 219.74854
-67.561218 133.25244 219.74854
-61.41927 133.25244 219.74854
-55.277321 133.25244 219.74854
-49.135365 133.25244 219.74854
-42.993538 133.25244 219.74854
-36.851585 133.25244 219.74854
-30.709635 133.25244 219.74854
-24.567682 133.25244 219.74854
-18.809711 89.765869 280.59399
-12.539888 89.765869 280.59399
47.199688 215.45935 104.72559
53.099792 215.45935 104.72559
58.999668 215.45935 104.72559
64.899544 215.45935 104.72559
70.799652 215.45935 104.72559
76.699524 215.45935 104.72559
82.599632 215.45935 104.72559
88.499504 215.45935 104.72559
94.399376 215.45935 104.72559
100.29948 215.45935 104.72559
106.19936 215.45935 104.72559
112.09946 215.45935 104.72559
117.99934 215.45935 104.72559
123.89921 215.45935 104.72559
131.11081 195.20544 133.0647
137.0703 195.20544 133.0647
143.03001 195.20544 133.0647
148.9895 195.20544 133.0647
154.94899 195.20544 133.0647
160.90871 195.20544 133.0647
166.86819 195.20544 133.0647
172.82793 195.20544 133.0647
178.7874 195.20544 133.0647
184.74689 195.20544 133.0647
192.61424 174.95142 161.40381
198.63335 174.95142 161.40381
204.65266 174.95142 161.40381
212.81961 154.10181 190.57593
218.90009 154.10181 190.57593
224.98077 154.10181 190.57593
233.39317 133.25244 219.74854
239.53523 133.25244 219.74854
248.20187 111.80713 249.75464
-158.41367 61.296387 309.79126
-152.0771 61.296387 309.79126
-144.20811 83.994629 278.14429
-137.93829 83.994629 278.14429
-130.30602 106.09521 247.33008
-124.10094 106.09521 247.33008
-117.89587 106.09521 247.33008
-111.6908 106.09521 247.33008
-105.48585 106.09521 247.33008
-98.270851 127.59863 217.34888
-92.128906 127.59863 217.34888
-85.986954 127.59863 217.34888
-79.845009 127.59863 217.34888
-73.703171 127.59863 217.34888
-67.561218 127.59863 217.34888
-61.41927 127.59863 217.34888
-55.277321 127.59863 217.34888
-49.135365 127.59863 217.34888
-42.993538 127.59863 217.34888
-36.851585 127.59863 217.34888
-31.025234 106.09521 247.33008
-24.820164 106.09521 247.33008
-19.009592 61.296387 309.79126
-12.673141 61.296387 309.79126
53.099792 210.02856 102.42041
58.999668 210.02856 102.42041
64.899544 210.02856 102.42041
70.799652 210.02856 102.42041
76.699524 210.02856 102.42041
82.599632 210.02856 102.42041
88.499504 210.02856 102.42041
95.353195 189.71973 130.73608
101.31291 189.71973 130.73608
107.27239 189.71973 130.73608
112.09946 210.02856 102.42041
117.99934 210.02856 102.42041
123.89921 210.02856 102.42041
131.11081 189.71973 130.73608
137.0703 189.71973 130.73608
143.03001 189.71973 130.73608
148.9895 189.71973 130.73608
154.94899 189.71973 130.73608
160.90871 189.71973 130.73608
166.86819 189.71973 130.73608
172.82793 189.71973 130.73608
178.7874 189.71973 130.73608
184.74689 189.71973 130.73608
192.61424 169.41089 159.05176
198.63335 169.41089 159.05176
204.65266 169.41089 159.05176
210.67177 169.41089 159.05176
216.69087 169.41089 159.05176
224.98077 148.50488 188.2002
233.39317 127.59863 217.34888
239.53523 127.59863 217.34888
245.67708 127.59863 217.34888
-145.74052 55.463623 307.31519
-137.93829 78.223145 275.69434
-130.30602 100.3833 244.90552
-124.10094 100.3833 244.90552
-117.89587 100.3833 244.90552
-111.6908 100.3833 244.90552
-105.48585 100.3833 244.90552
-98.270851 121.94507 214.94897
-92.128906 121.94507 214.94897
-85.986954 121.94507 214.94897
-79.845009 121.94507 214.94897
-73.703171 121.94507 214.94897
-67.561218 121.94507 214.94897
-61.41927 121.94507 214.94897
-55.277321 121.94507 214.94897
-49.135365 121.94507 214.94897
-42.993538 121.94507 214.94897
-36.851585 121.94507 214.94897
-31.025234 100.3833 244.90552
-24.820164 100.3833 244.90552
-19.009592 55.463623 307.31519
58.999668 204.59741 100.11499
64.899544 204.59741 100.11499
70.799652 204.59741 100.11499
76.699524 204.59741 100.11499
82.599632 204.59741 100.11499
88.499504 204.59741 100.11499
94.399376 204.59741 100.11499
100.29948 204.59741 100.11499
107.27239 184.23389 128.40771
112.09946 204.59741 100.11499
117.99934 204.59741 100.11499
125.1511 184.23389 128.40771
131.11081 184.23389 128.40771
137.0703 184.23389 128.40771
143.03001 184.23389 128.40771
148.9895 184.23389 128.40771
154.94899 184.23389 128.40771
160.90871 184.23389 128.40771
166.86819 184.23389 128.40771
172.82793 184.23389 128.40771
178.7874 184.23389 128.40771
184.74689 184.23389 128.40771
192.61424 163.87012 156.69995
198.63335 163.87012 156.69995
204.65266 163.87012 156.69995
210.67177 163.87012 156.69995
216.69087 163.87012 156.69995
224.98077 142.90747 185.82422
233.39317 121.94507 214.94897
239.53523 121.94507 214.94897
245.67708 121.94507 214.94897
-166.52814 26.209717 337.26562
-158.41367 49.630859 304.83936
-152.0771 49.630859 304.83936
-144.20811 72.45166 273.24438
-136.51108 94.671875 242.4812
-130.30602 94.671875 242.4812
-124.10094 94.671875 242.4812
-117.89587 94.671875 242.4812
-111.6908 94.671875 242.4812
-105.48585 94.671875 242.4812
-98.270851 116.2915 212.54907
-92.128906 116.2915 212.54907
-85.986954 116.2915 212.54907
-79.845009 116.2915 212.54907
-73.703171 116.2915 212.54907
-67.561218 116.2915 212.54907
-61.41927 116.2915 212.54907
-55.277321 116.2915 212.54907
-49.135365 116.2915 212.54907
-42.993538 116.2915 212.54907
-36.851585 116.2915 212.54907
-30.709635 116.2915 212.54907
-24.820164 94.671875 242.4812
-19.009592 49.630859 304.83936
-12.673141 49.630859 304.83936
65.55529 178.74805 126.0791
70.799652 199.16663 97.809814
76.699524 199.16663 97.809814
82.599632 199.16663 97.809814
88.499504 199.16663 97.809814
94.399376 199.16663 97.809814
100.29948 199.16663 97.809814
107.27239 178.74805 126.0791
112.09946 199.16663 97.809814
117.99934 199.16663 97.809814
125.1511 178.74805 126.0791
131.11081 178.74805 126.0791
137.0703 178.74805 126.0791
143.03001 178.74805 126.0791
148.9895 178.74805 126.0791
154.94899 178.74805 126.0791
160.90871 178.74805 126.0791
166.86819 178.74805 126.0791
172.82793 178.74805 126.0791
178.7874 178.74805 126.0791
184.74689 178.74805 126.0791
192.61424 158.32959 154.34814
198.63335 158.32959 154.34814
204.65266 158.32959 154.34814
210.67177 158.32959 154.34814
216.69087 158.32959 154.34814
224.98077 137.31055 183.44849
231.06125 137.31055 183.44849
239.53523 116.2915 212.54907
245.67708 116.2915 212.54907
254.40683 94.671875 242.4812
-164.75024 43.797852 302.36353
-156.748 66.679932 270.79468
-150.47806 66.679932 270.79468
-144.20811 66.679932 270.79468
-136.51108 88.959961 240.05664
-130.30602 88.959961 240.05664
-124.10094 88.959961 240.05664
-117.89587 88.959961 240.05664
-111.6908 88.959961 240.05664
-105.48585 88.959961 240.05664
-98.270851 110.6377 210.14917
-92.128906 110.6377 210.14917
-85.986954 110.6377 210.14917
-79.845009 110.6377 210.14917
-73.703171 110.6377 210.14917
-67.561218 110.6377 210.14917
-61.41927 110.6377 210.14917
-55.277321 110.6377 210.14917
-49.135365 110.6377 210.14917
-42.993538 110.6377 210.14917
-36.851585 110.6377 210.14917
-30.709635 110.6377 210.14917
-24.820164 88.959961 240.05664
-19.009592 43.797852 302.36353
-12.673141 43.797852 302.36353
66.211037 152.78857 151.99609
71.515007 173.26221 123.75049
77.474495 173.26221 123.75049
83.434212 173.26221 123.75049
89.3937 173.26221 123.75049
95.353195 173.26221 123.75049
101.31291 173.26221 123.75049
107.27239 173.26221 123.75049
112.09946 193.7356 95.504395
117.99934 193.7356 95.504395
125.1511 173.26221 123.75049
131.11081 173.26221 123.75049
137.0703 173.26221 123.75049
143.03001 173.26221 123.75049
148.9895 173.26221 123.75049
154.94899 173.26221 123.75049
160.90871 173.26221 123.75049
166.86819 173.26221 123.75049
172.82793 173.26221 123.75049
178.7874 173.26221 123.75049
184.74689 173.26221 123.75049
192.61424 152.78857 151.99609
198.63335 152.78857 151.99609
204.65266 152.78857 151.99609
210.67177 152.78857 151.99609
216.69087 152.78857 151.99609
224.98077 131.71313 181.07251
231.06125 131.71313 181.07251
237.14194 131.71313 181.07251
245.67708 110.6377 210.14917
254.40683 88.959961 240.05664
-179.33791 14.417969 332.2605
-171.08681 37.965332 299.8877
-161.33124 83.248047 237.63208
-155.12617 83.248047 237.63208
-148.9211 83.248047 237.63208
-142.71603 83.248047 237.63208
-136.51108 83.248047 237.63208
-130.30602 83.248047 237.63208
-124.10094 83.248047 237.63208
-117.89587 83.248047 237.63208
-111.6908 83.248047 237.63208
-105.48585 83.248047 237.63208
-98.270851 104.98413 207.74951
-92.128906 104.98413 207.74951
-86.870636 83.248047 237.63208
-79.845009 104.98413 207.74951
-73.703171 104.98413 207.74951
-67.561218 104.98413 207.74951
-61.41927 104.98413 207.74951
-55.277321 104.98413 207.74951
-49.135365 104.98413 207.74951
-42.993538 104.98413 207.74951
-36.851585 104.98413 207.74951
-30.709635 104.98413 207.74951
-24.820164 83.248047 237.63208
-18.809711 60.908691 268.34473
-12.673141 37.965332 299.8877
71.515007 167.77637 121.42188
77.474495 167.77637 121.42188
83.434212 167.77637 121.42188
89.3937 167.77637 121.42188
95.353195 167.77637 121.42188
101.31291 167.77637 121.42188
106.19936 188.30469 93.199219
112.09946 188.30469 93.199219
117.99934 188.30469 93.199219
125.1511 167.77637 121.42188
131.11081 167.77637 121.42188
137.0703 167.77637 121.42188
143.03001 167.77637 121.42188
148.9895 167.77637 121.42188
154.94899 167.77637 121.42188
160.90871 167.77637 121.42188
166.86819 167.77637 121.42188
172.82793 167.77637 121.42188
178.7874 167.77637 121.42188
184.74689 167.77637 121.42188
192.61424 147.24805 149.64429
198.63335 147.24805 149.64429
204.65266 147.24805 149.64429
210.67177 147.24805 149.64429
216.69087 147.24805 149.64429
222.71021 147.24805 149.64429
231.06125 126.11621 178.69678
237.14194 126.11621 178.69678
243.22241 126.11621 178.69678
254.40683 83.248047 237.63208
-185.74284 8.5222168 329.75781
-179.33791 8.5222168 329.75781
-171.08681 32.132324 297.41162
-161.33124 77.536377 235.20752
-155.12617 77.536377 235.20752
-148.9211 77.536377 235.20752
-142.71603 77.536377 235.20752
-136.51108 77.536377 235.20752
-130.30602 77.536377 235.20752
-124.10094 77.536377 235.20752
-117.89587 77.536377 235.20752
-111.6908 77.536377 235.20752
-105.48585 77.536377 235.20752
-98.270851 99.330322 205.34961
-92.128906 99.330322 205.34961
-85.986954 99.330322 205.34961
-79.845009 99.330322 205.34961
-73.703171 99.330322 205.34961
-67.561218 99.330322 205.34961
-61.41927 99.330322 205.34961
-55.277321 99.330322 205.34961
-49.135365 99.330322 205.34961
-42.993538 99.330322 205.34961
-36.851585 99.330322 205.34961
-30.709635 99.330322 205.34961
-24.820164 77.536377 235.20752
-18.809711 55.136963 265.89502
-12.539888 55.136963 265.89502
-6.3365707 32.132324 297.41162
77.474495 162.29053 119.09326
83.434212 162.29053 119.09326
89.3937 162.29053 119.09326
95.353195 162.29053 119.09326
101.31291 162.29053 119.09326
106.19936 182.87378 90.893799
112.09946 182.87378 90.893799
117.99934 182.87378 90.893799
125.1511 162.29053 119.09326
131.11081 162.29053 119.09326
137.0703 162.29053 119.09326
143.03001 162.29053 119.09326
148.9895 162.29053 119.09326
154.94899 162.29053 119.09326
160.90871 162.29053 119.09326
166.86819 162.29053 119.09326
172.82793 162.29053 119.09326
178.7874 162.29053 119.09326
186.59491 141.70728 147.29248
192.61424 141.70728 147.29248
198.63335 141.70728 147.29248
204.65266 141.70728 147.29248
210.67177 141.70728 147.29248
216.69087 141.70728 147.29248
222.71021 141.70728 147.29248
228.72931 141.70728 147.29248
234.74864 141.70728 147.29248
240.76775 141.70728 147.29248
254.40683 77.536377 235.20752
-204.9577 2.6264648 327.25537
-198.55276 2.6264648 327.25537
-192.14781 2.6264648 327.25537
-185.74284 2.6264648 327.25537
-177.42326 26.299561 294.93579
-169.2879 49.365723 263.44507
-161.33124 71.824707 232.7832
-155.12617 71.824707 232.7832
-148.9211 71.824707 232.7832
-142.71603 71.824707 232.7832
-136.51108 71.824707 232.7832
-130.30602 71.824707 232.7832
