ply
format ascii 1.0
comment PCL generated
element vertex 1576
property float x
property float y
property float z
element camera 0
property float view_px
property float view_py
property float view_pz
property float x_axisx
property float x_axisy
property float x_axisz
property float y_axisx
property float y_axisy
property float y_axisz
property float z_axisx
property float z_axisy
property float z_axisz
property float focal
property float scalex
property float scaley
property float centerx
property float centery
property int viewportx
property int viewporty
property float k1
property float k2
end_header
245.17221 1101.3558 277.61719
250.7442 1101.3558 277.61719
256.31622 1101.3558 277.61719
261.88843 1101.3558 277.61719
269.98526 1090.7959 305.72559
275.61008 1090.7959 305.72559
281.23468 1090.7959 305.72559
286.85928 1090.7959 305.72559
292.4841 1090.7959 305.72559
298.10873 1090.7959 305.72559
303.73355 1090.7959 305.72559
-295.47174 1136.5382 168.70605
-290.09952 1136.5382 168.70605
-287.32922 1126.6372 194.92139
-281.90799 1126.6372 194.92139
-276.48666 1126.6372 194.92139
-268.61069 1136.5382 168.70605
-263.23843 1136.5382 168.70605
-257.86621 1136.5382 168.70605
-252.49408 1136.5382 168.70605
-249.38014 1126.6372 194.92139
-243.9588 1126.6372 194.92139
-238.53748 1126.6372 194.92139
-233.11615 1126.6372 194.92139
-227.69493 1126.6372 194.92139
-222.27361 1126.6372 194.92139
-216.85228 1126.6372 194.92139
-211.43095 1126.6372 194.92139
-206.00961 1126.6372 194.92139
-200.58839 1126.6372 194.92139
-195.16707 1126.6372 194.92139
-189.74574 1126.6372 194.92139
-184.32442 1126.6372 194.92139
-177.283 1136.5382 168.70605
-170.396 1146.0858 143.427
-165.07111 1146.0858 143.427
-158.326 1155.6332 118.14795
-153.04846 1155.6332 118.14795
-147.7709 1155.6332 118.14795
-142.49345 1155.6332 118.14795
-137.21588 1155.6332 118.14795
-131.93834 1155.6332 118.14795
-125.5667 1164.8271 93.805176
-120.33474 1164.8271 93.805176
-115.10287 1164.8271 93.805176
-109.87091 1164.8271 93.805176
-104.63894 1164.8271 93.805176
-99.406967 1164.8271 93.805176
-94.175003 1164.8271 93.805176
-88.943138 1164.8271 93.805176
-83.711174 1164.8271 93.805176
-78.479202 1164.8271 93.805176
-73.247231 1164.8271 93.805176
-68.015266 1164.8271 93.805176
-63.330441 1155.6332 118.14795
-57.551434 1164.8271 93.805176
-52.319469 1164.8271 93.805176
-47.49778 1155.6332 118.14795
-42.22023 1155.6332 118.14795
-36.942772 1155.6332 118.14795
-31.66522 1155.6332 118.14795
-26.387667 1155.6332 118.14795
-21.110115 1155.6332 118.14795
-15.83256 1155.6332 118.14795
-10.649788 1146.0858 143.427
-5.324894 1146.0858 143.427
0 1146.0858 143.427
5.3247924 1146.0858 143.427
10.649788 1146.0858 143.427
15.97458 1146.0858 143.427
21.299576 1146.0858 143.427
26.624367 1146.0858 143.427
31.94916 1146.0858 143.427
37.274155 1146.0858 143.427
42.598946 1146.0858 143.427
47.923943 1146.0858 143.427
53.248734 1146.0858 143.427
58.573528 1146.0858 143.427
63.898525 1146.0858 143.427
69.223312 1146.0858 143.427
75.211067 1136.5382 168.70605
80.583206 1136.5382 168.70605
85.955338 1136.5382 168.70605
90.522888 1146.0858 143.427
95.847679 1146.0858 143.427
102.07214 1136.5382 168.70605
107.44427 1136.5382 168.70605
112.81641 1136.5382 168.70605
117.14725 1146.0858 143.427
122.47205 1146.0858 143.427
127.79705 1146.0858 143.427
133.12184 1146.0858 143.427
139.67747 1136.5382 168.70605
145.04982 1136.5382 168.70605
150.42194 1136.5382 168.70605
155.79427 1136.5382 168.70605
162.63921 1126.6372 194.92139
168.06042 1126.6372 194.92139
175.05284 1116.7362 221.13647
182.2011 1106.4813 248.28833
187.72247 1106.4813 248.28833
193.24364 1106.4813 248.28833
198.7648 1106.4813 248.28833
206.16751 1096.2267 275.43994
211.73952 1096.2267 275.43994
215.3287 1106.4813 248.28833
220.84987 1106.4813 248.28833
226.37105 1106.4813 248.28833
234.02797 1096.2267 275.43994
239.59998 1096.2267 275.43994
245.17221 1096.2267 275.43994
250.7442 1096.2267 275.43994
256.31622 1096.2267 275.43994
261.88843 1096.2267 275.43994
269.98526 1085.6184 303.52783
275.61008 1085.6184 303.52783
281.23468 1085.6184 303.52783
286.85928 1085.6184 303.52783
292.4841 1085.6184 303.52783
298.10873 1085.6184 303.52783
303.73355 1085.6184 303.52783
312.25116 1075.0101 331.61548
-295.47174 1131.593 166.60693
-290.09952 1131.593 166.60693
-287.32922 1121.6469 192.80322
-281.90799 1121.6469 192.80322
-276.48666 1121.6469 192.80322
-268.61069 1131.593 166.60693
-263.23843 1131.593 166.60693
-257.86621 1131.593 166.60693
-252.49408 1131.593 166.60693
-249.38014 1121.6469 192.80322
-243.9588 1121.6469 192.80322
-238.53748 1121.6469 192.80322
-233.11615 1121.6469 192.80322
-227.69493 1121.6469 192.80322
-222.27361 1121.6469 192.80322
-216.85228 1121.6469 192.80322
-211.43095 1121.6469 192.80322
-206.00961 1121.6469 192.80322
-200.58839 1121.6469 192.80322
-195.16707 1121.6469 192.80322
-189.74574 1121.6469 192.80322
-184.32442 1121.6469 192.80322
-177.283 1131.593 166.60693
-171.91087 1131.593 166.60693
-165.07111 1141.1842 141.34619
-158.326 1150.7751 116.08594
-153.04846 1150.7751 116.08594
-147.7709 1150.7751 116.08594
-142.49345 1150.7751 116.08594
-137.21588 1150.7751 116.08594
-131.93834 1150.7751 116.08594
-126.66079 1150.7751 116.08594
-120.33474 1160.011 91.760986
-115.10287 1160.011 91.760986
-109.87091 1160.011 91.760986
-104.63894 1160.011 91.760986
-99.406967 1160.011 91.760986
-94.175003 1160.011 91.760986
-88.943138 1160.011 91.760986
-83.711174 1160.011 91.760986
-78.479202 1160.011 91.760986
-73.247231 1160.011 91.760986
-68.015266 1160.011 91.760986
-63.330441 1150.7751 116.08594
-58.052891 1150.7751 116.08594
-52.775333 1150.7751 116.08594
-47.49778 1150.7751 116.08594
-41.855534 1160.011 91.760986
-36.623669 1160.011 91.760986
-31.66522 1150.7751 116.08594
-26.387667 1150.7751 116.08594
-21.110115 1150.7751 116.08594
-15.83256 1150.7751 116.08594
-10.649788 1141.1842 141.34619
-5.324894 1141.1842 141.34619
0 1141.1842 141.34619
5.3247924 1141.1842 141.34619
10.649788 1141.1842 141.34619
15.97458 1141.1842 141.34619
21.299576 1141.1842 141.34619
26.624367 1141.1842 141.34619
31.94916 1141.1842 141.34619
37.274155 1141.1842 141.34619
42.598946 1141.1842 141.34619
47.923943 1141.1842 141.34619
53.248734 1141.1842 141.34619
58.573528 1141.1842 141.34619
63.898525 1141.1842 141.34619
69.223312 1141.1842 141.34619
75.211067 1131.593 166.60693
80.583206 1131.593 166.60693
85.955338 1131.593 166.60693
91.327667 1131.593 166.60693
96.699806 1131.593 166.60693
102.07214 1131.593 166.60693
107.44427 1131.593 166.60693
112.81641 1131.593 166.60693
117.14725 1141.1842 141.34619
122.47205 1141.1842 141.34619
127.79705 1141.1842 141.34619
133.12184 1141.1842 141.34619
139.67747 1131.593 166.60693
145.04982 1131.593 166.60693
150.42194 1131.593 166.60693
157.21799 1121.6469 192.80322
162.63921 1121.6469 192.80322
169.58232 1111.7006 218.99902
176.67995 1101.3989 246.1311
182.2011 1101.3989 246.1311
187.72247 1101.3989 246.1311
193.24364 1101.3989 246.1311
198.7648 1101.3989 246.1311
206.16751 1091.0975 273.2627
211.73952 1091.0975 273.2627
215.3287 1101.3989 246.1311
220.84987 1101.3989 246.1311
226.37105 1101.3989 246.1311
234.02797 1091.0975 273.2627
239.59998 1091.0975 273.2627
245.17221 1091.0975 273.2627
250.7442 1091.0975 273.2627
256.31622 1091.0975 273.2627
261.88843 1091.0975 273.2627
269.98526 1080.4408 301.33008
275.61008 1080.4408 301.33008
281.23468 1080.4408 301.33008
286.85928 1080.4408 301.33008
292.4841 1080.4408 301.33008
300.89655 1069.7841 329.39722
303.73355 1080.4408 301.33008
309.35815 1080.4408 301.33008
-303.5932 1116.6565 190.68481
-295.47174 1126.6479 164.50781
-290.09952 1126.6479 164.50781
-287.32922 1116.6565 190.68481
-281.90799 1116.6565 190.68481
-276.48666 1116.6565 190.68481
-271.06534 1116.6565 190.68481
-265.64401 1116.6565 190.68481
-260.22269 1116.6565 190.68481
-254.80147 1116.6565 190.68481
-249.38014 1116.6565 190.68481
-243.9588 1116.6565 190.68481
-238.53748 1116.6565 190.68481
-233.11615 1116.6565 190.68481
-227.69493 1116.6565 190.68481
-222.27361 1116.6565 190.68481
-216.85228 1116.6565 190.68481
-211.43095 1116.6565 190.68481
-206.00961 1116.6565 190.68481
-200.58839 1116.6565 190.68481
-195.16707 1116.6565 190.68481
-189.74574 1116.6565 190.68481
-184.32442 1116.6565 190.68481
-177.283 1126.6479 164.50781
-171.91087 1126.6479 164.50781
-165.07111 1136.2826 139.26562
-158.326 1145.9171 114.02368
-153.04846 1145.9171 114.02368
-147.7709 1145.9171 114.02368
-142.49345 1145.9171 114.02368
-137.21588 1145.9171 114.02368
-131.93834 1145.9171 114.02368
-126.66079 1145.9171 114.02368
-120.33474 1155.1949 89.716553
-115.10287 1155.1949 89.716553
-109.87091 1155.1949 89.716553
-104.63894 1155.1949 89.716553
-99.406967 1155.1949 89.716553
-94.175003 1155.1949 89.716553
-88.943138 1155.1949 89.716553
-83.711174 1155.1949 89.716553
-78.479202 1155.1949 89.716553
-73.247231 1155.1949 89.716553
-68.015266 1155.1949 89.716553
-63.330441 1145.9171 114.02368
-58.052891 1145.9171 114.02368
-52.775333 1145.9171 114.02368
-47.49778 1145.9171 114.02368
-41.855534 1155.1949 89.716553
-36.623669 1155.1949 89.716553
-31.66522 1145.9171 114.02368
-26.387667 1145.9171 114.02368
-21.110115 1145.9171 114.02368
-15.83256 1145.9171 114.02368
-10.649788 1136.2826 139.26562
-5.324894 1136.2826 139.26562
0 1136.2826 139.26562
5.3247924 1136.2826 139.26562
10.649788 1136.2826 139.26562
15.97458 1136.2826 139.26562
21.299576 1136.2826 139.26562
26.624367 1136.2826 139.26562
31.94916 1136.2826 139.26562
37.274155 1136.2826 139.26562
42.598946 1136.2826 139.26562
47.923943 1136.2826 139.26562
53.248734 1136.2826 139.26562
58.573528 1136.2826 139.26562
63.898525 1136.2826 139.26562
69.223312 1136.2826 139.26562
75.211067 1126.6479 164.50781
80.583206 1126.6479 164.50781
85.955338 1126.6479 164.50781
91.327667 1126.6479 164.50781
96.699806 1126.6479 164.50781
102.07214 1126.6479 164.50781
107.44427 1126.6479 164.50781
111.82227 1136.2826 139.26562
117.14725 1136.2826 139.26562
122.47205 1136.2826 139.26562
127.79705 1136.2826 139.26562
133.12184 1136.2826 139.26562
139.67747 1126.6479 164.50781
145.04982 1126.6479 164.50781
150.42194 1126.6479 164.50781
157.21799 1116.6565 190.68481
164.112 1106.665 216.86157
169.58232 1106.665 216.86157
176.67995 1096.3167 243.97363
182.2011 1096.3167 243.97363
187.72247 1096.3167 243.97363
193.24364 1096.3167 243.97363
200.59528 1085.9684 271.08545
206.16751 1085.9684 271.08545
211.73952 1085.9684 271.08545
215.3287 1096.3167 243.97363
220.84987 1096.3167 243.97363
226.37105 1096.3167 243.97363
234.02797 1085.9684 271.08545
239.59998 1085.9684 271.08545
245.17221 1085.9684 271.08545
250.7442 1085.9684 271.08545
256.31622 1085.9684 271.08545
261.88843 1085.9684 271.08545
269.98526 1075.2632 299.13232
275.61008 1075.2632 299.13232
281.23468 1075.2632 299.13232
286.85928 1075.2632 299.13232
292.4841 1075.2632 299.13232
300.89655 1064.5581 327.17896
303.73355 1075.2632 299.13232
309.35815 1075.2632 299.13232
314.98276 1075.2632 299.13232
-303.5932 1111.6661 188.56665
-295.47174 1121.7028 162.40869
-290.09952 1121.7028 162.40869
-287.32922 1111.6661 188.56665
-281.90799 1111.6661 188.56665
-276.48666 1111.6661 188.56665
-271.06534 1111.6661 188.56665
-265.64401 1111.6661 188.56665
-260.22269 1111.6661 188.56665
-254.80147 1111.6661 188.56665
-249.38014 1111.6661 188.56665
-243.9588 1111.6661 188.56665
-238.53748 1111.6661 188.56665
-233.11615 1111.6661 188.56665
-227.69493 1111.6661 188.56665
-222.27361 1111.6661 188.56665
-216.85228 1111.6661 188.56665
-211.43095 1111.6661 188.56665
-206.00961 1111.6661 188.56665
-200.58839 1111.6661 188.56665
-195.16707 1111.6661 188.56665
-189.74574 1111.6661 188.56665
-184.32442 1111.6661 188.56665
-177.283 1121.7028 162.40869
-171.91087 1121.7028 162.40869
-165.07111 1131.381 137.18506
-159.7462 1131.381 137.18506
-153.04846 1141.0592 111.96167
-147.7709 1141.0592 111.96167
-142.49345 1141.0592 111.96167
-137.21588 1141.0592 111.96167
-131.93834 1141.0592 111.96167
-126.66079 1141.0592 111.96167
-120.33474 1150.379 87.672363
-115.10287 1150.379 87.672363
-109.87091 1150.379 87.672363
-104.63894 1150.379 87.672363
-99.406967 1150.379 87.672363
-94.175003 1150.379 87.672363
-88.943138 1150.379 87.672363
-83.711174 1150.379 87.672363
-78.479202 1150.379 87.672363
-73.247231 1150.379 87.672363
-68.607895 1141.0592 111.96167
-63.330441 1141.0592 111.96167
-58.052891 1141.0592 111.96167
-52.775333 1141.0592 111.96167
-47.49778 1141.0592 111.96167
-41.855534 1150.379 87.672363
-36.623669 1150.379 87.672363
-31.66522 1141.0592 111.96167
-26.387667 1141.0592 111.96167
-21.110115 1141.0592 111.96167
-15.83256 1141.0592 111.96167
-10.649788 1131.381 137.18506
-5.324894 1131.381 137.18506
0 1131.381 137.18506
5.3247924 1131.381 137.18506
10.649788 1131.381 137.18506
15.97458 1131.381 137.18506
21.299576 1131.381 137.18506
26.624367 1131.381 137.18506
31.94916 1131.381 137.18506
37.274155 1131.381 137.18506
42.598946 1131.381 137.18506
48.350006 1121.7028 162.40869
53.722134 1121.7028 162.40869
59.094265 1121.7028 162.40869
63.898525 1131.381 137.18506
69.223312 1131.381 137.18506
75.211067 1121.7028 162.40869
80.583206 1121.7028 162.40869
85.955338 1121.7028 162.40869
91.327667 1121.7028 162.40869
96.699806 1121.7028 162.40869
102.07214 1121.7028 162.40869
107.44427 1121.7028 162.40869
111.82227 1131.381 137.18506
117.14725 1131.381 137.18506
122.47205 1131.381 137.18506
127.79705 1131.381 137.18506
133.12184 1131.381 137.18506
139.67747 1121.7028 162.40869
145.04982 1121.7028 162.40869
150.42194 1121.7028 162.40869
157.21799 1111.6661 188.56665
162.63921 1111.6661 188.56665
169.58232 1101.6295 214.72412
176.67995 1091.2343 241.81641
182.2011 1091.2343 241.81641
187.72247 1091.2343 241.81641
193.24364 1091.2343 241.81641
200.59528 1080.8392 268.9082
206.16751 1080.8392 268.9082
211.73952 1080.8392 268.9082
215.3287 1091.2343 241.81641
220.84987 1091.2343 241.81641
226.37105 1091.2343 241.81641
234.02797 1080.8392 268.9082
239.59998 1080.8392 268.9082
245.17221 1080.8392 268.9082
250.7442 1080.8392 268.9082
256.31622 1080.8392 268.9082
261.88843 1080.8392 268.9082
269.98526 1070.0857 296.93457
275.61008 1070.0857 296.93457
281.23468 1070.0857 296.93457
286.85928 1070.0857 296.93457
292.4841 1070.0857 296.93457
300.89655 1059.3322 324.96069
303.73355 1070.0857 296.93457
309.35815 1070.0857 296.93457
314.98276 1070.0857 296.93457
-311.81284 1096.594 212.58667
-303.5932 1106.6758 186.44824
-295.47174 1116.7576 160.30981
-290.09952 1116.7576 160.30981
-287.32922 1106.6758 186.44824
-281.90799 1106.6758 186.44824
-276.48666 1106.6758 186.44824
-271.06534 1106.6758 186.44824
-265.64401 1106.6758 186.44824
-260.22269 1106.6758 186.44824
-254.80147 1106.6758 186.44824
-249.38014 1106.6758 186.44824
-243.9588 1106.6758 186.44824
-238.53748 1106.6758 186.44824
-233.11615 1106.6758 186.44824
-227.69493 1106.6758 186.44824
-222.27361 1106.6758 186.44824
-216.85228 1106.6758 186.44824
-211.43095 1106.6758 186.44824
-207.87517 1096.594 212.58667
-202.40485 1096.594 212.58667
-195.16707 1106.6758 186.44824
-189.74574 1106.6758 186.44824
-184.32442 1106.6758 186.44824
-177.283 1116.7576 160.30981
-171.91087 1116.7576 160.30981
-165.07111 1126.4795 135.10449
-159.7462 1126.4795 135.10449
-153.04846 1136.2012 109.89966
-147.7709 1136.2012 109.89966
-142.49345 1136.2012 109.89966
-137.21588 1136.2012 109.89966
-131.93834 1136.2012 109.89966
-126.66079 1136.2012 109.89966
-120.33474 1145.563 85.62793
-115.10287 1145.563 85.62793
-109.87091 1145.563 85.62793
-104.63894 1145.563 85.62793
-99.406967 1145.563 85.62793
-94.175003 1145.563 85.62793
-88.943138 1145.563 85.62793
-83.711174 1145.563 85.62793
-78.479202 1145.563 85.62793
-73.247231 1145.563 85.62793
-68.607895 1136.2012 109.89966
-63.330441 1136.2012 109.89966
-58.052891 1136.2012 109.89966
-52.775333 1136.2012 109.89966
-47.49778 1136.2012 109.89966
-41.855534 1145.563 85.62793
-36.623669 1145.563 85.62793
-31.391701 1145.563 85.62793
-26.159735 1145.563 85.62793
-20.927767 1145.563 85.62793
-15.83256 1136.2012 109.89966
-10.649788 1126.4795 135.10449
-5.324894 1126.4795 135.10449
0 1126.4795 135.10449
5.3247924 1126.4795 135.10449
10.649788 1126.4795 135.10449
15.97458 1126.4795 135.10449
21.299576 1126.4795 135.10449
26.624367 1126.4795 135.10449
31.94916 1126.4795 135.10449
37.274155 1126.4795 135.10449
42.598946 1126.4795 135.10449
48.350006 1116.7576 160.30981
53.722134 1116.7576 160.30981
59.094265 1116.7576 160.30981
63.898525 1126.4795 135.10449
69.223312 1126.4795 135.10449
75.211067 1116.7576 160.30981
80.583206 1116.7576 160.30981
85.955338 1116.7576 160.30981
91.327667 1116.7576 160.30981
96.699806 1116.7576 160.30981
102.07214 1116.7576 160.30981
106.49747 1126.4795 135.10449
111.82227 1126.4795 135.10449
117.14725 1126.4795 135.10449
122.47205 1126.4795 135.10449
127.79705 1126.4795 135.10449
133.12184 1126.4795 135.10449
139.67747 1116.7576 160.30981
145.04982 1116.7576 160.30981
150.42194 1116.7576 160.30981
157.21799 1106.6758 186.44824
162.63921 1106.6758 186.44824
169.58232 1096.594 212.58667
176.67995 1086.152 239.65894
183.87904 1075.7101 266.7312
189.45126 1075.7101 266.7312
195.02327 1075.7101 266.7312
200.59528 1075.7101 266.7312
206.16751 1075.7101 266.7312
211.73952 1075.7101 266.7312
217.31174 1075.7101 266.7312
220.84987 1086.152 239.65894
226.37105 1086.152 239.65894
234.02797 1075.7101 266.7312
239.59998 1075.7101 266.7312
245.17221 1075.7101 266.7312
250.7442 1075.7101 266.7312
256.31622 1075.7101 266.7312
261.88843 1075.7101 266.7312
269.98526 1064.9081 294.73682
275.61008 1064.9081 294.73682
281.23468 1064.9081 294.73682
286.85928 1064.9081 294.73682
292.4841 1064.9081 294.73682
298.10873 1064.9081 294.73682
303.73355 1064.9081 294.73682
309.35815 1064.9081 294.73682
314.98276 1064.9081 294.73682
320.60754 1064.9081 294.73682
329.28299 1054.1062 322.74243
-311.81284 1091.5585 210.44922
-306.34244 1091.5585 210.44922
-298.17188 1101.6854 184.33008
-292.75055 1101.6854 184.33008
-287.32922 1101.6854 184.33008
-281.90799 1101.6854 184.33008
-276.48666 1101.6854 184.33008
-271.06534 1101.6854 184.33008
-265.64401 1101.6854 184.33008
-260.22269 1101.6854 184.33008
-254.80147 1101.6854 184.33008
-249.38014 1101.6854 184.33008
-243.9588 1101.6854 184.33008
-238.53748 1101.6854 184.33008
-233.11615 1101.6854 184.33008
-227.69493 1101.6854 184.33008
-222.27361 1101.6854 184.33008
-216.85228 1101.6854 184.33008
-213.3456 1091.5585 210.44922
-207.87517 1091.5585 210.44922
-202.40485 1091.5585 210.44922
-196.93442 1091.5585 210.44922
-189.74574 1101.6854 184.33008
-182.65524 1111.8125 158.21069
-177.283 1111.8125 158.21069
-171.91087 1111.8125 158.21069
-165.07111 1121.5779 133.02393
-159.7462 1121.5779 133.02393
-153.04846 1131.3431 107.8374
-147.7709 1131.3431 107.8374
-142.49345 1131.3431 107.8374
-137.21588 1131.3431 107.8374
-131.93834 1131.3431 107.8374
-126.66079 1131.3431 107.8374
-121.38322 1131.3431 107.8374
-116.10578 1131.3431 107.8374
-109.87091 1140.7469 83.58374
-104.63894 1140.7469 83.58374
-99.406967 1140.7469 83.58374
-94.175003 1140.7469 83.58374
-88.943138 1140.7469 83.58374
-83.711174 1140.7469 83.58374
-78.479202 1140.7469 83.58374
-73.247231 1140.7469 83.58374
-68.607895 1131.3431 107.8374
-62.783401 1140.7469 83.58374
-57.551434 1140.7469 83.58374
-52.319469 1140.7469 83.58374
-47.087502 1140.7469 83.58374
-41.855534 1140.7469 83.58374
-36.623669 1140.7469 83.58374
-31.391701 1140.7469 83.58374
-26.159735 1140.7469 83.58374
-20.927767 1140.7469 83.58374
-15.83256 1131.3431 107.8374
-10.649788 1121.5779 133.02393
-5.324894 1121.5779 133.02393
0 1121.5779 133.02393
5.3247924 1121.5779 133.02393
10.649788 1121.5779 133.02393
15.97458 1121.5779 133.02393
21.299576 1121.5779 133.02393
26.624367 1121.5779 133.02393
31.94916 1121.5779 133.02393
37.274155 1121.5779 133.02393
42.977669 1111.8125 158.21069
48.350006 1111.8125 158.21069
53.722134 1111.8125 158.21069
59.094265 1111.8125 158.21069
64.466599 1111.8125 158.21069
69.838737 1111.8125 158.21069
75.211067 1111.8125 158.21069
80.583206 1111.8125 158.21069
85.955338 1111.8125 158.21069
91.327667 1111.8125 158.21069
96.699806 1111.8125 158.21069
102.07214 1111.8125 158.21069
106.49747 1121.5779 133.02393
111.82227 1121.5779 133.02393
117.14725 1121.5779 133.02393
122.47205 1121.5779 133.02393
127.79705 1121.5779 133.02393
133.12184 1121.5779 133.02393
138.44662 1121.5779 133.02393
145.04982 1111.8125 158.21069
150.42194 1111.8125 158.21069
157.21799 1101.6854 184.33008
162.63921 1101.6854 184.33008
169.58232 1091.5585 210.44922
176.67995 1081.0697 237.50171
183.87904 1070.5809 264.55396
189.45126 1070.5809 264.55396
196.86427 1059.7306 292.53906
202.48888 1059.7306 292.53906
208.11371 1059.7306 292.53906
211.73952 1070.5809 264.55396
217.31174 1070.5809 264.55396
220.84987 1081.0697 237.50171
226.37105 1081.0697 237.50171
234.02797 1070.5809 264.55396
239.59998 1070.5809 264.55396
245.17221 1070.5809 264.55396
250.7442 1070.5809 264.55396
256.31622 1070.5809 264.55396
261.88843 1070.5809 264.55396
269.98526 1059.7306 292.53906
275.61008 1059.7306 292.53906
281.23468 1059.7306 292.53906
286.85928 1059.7306 292.53906
292.4841 1059.7306 292.53906
298.10873 1059.7306 292.53906
303.73355 1059.7306 292.53906
309.35815 1059.7306 292.53906
314.98276 1059.7306 292.53906
320.60754 1059.7306 292.53906
329.28299 1048.8801 320.52393
-311.81284 1086.5229 208.31177
-306.34244 1086.5229 208.31177
-298.17188 1096.6952 182.21191
-292.75055 1096.6952 182.21191
-287.32922 1096.6952 182.21191
-281.90799 1096.6952 182.21191
-276.48666 1096.6952 182.21191
-271.06534 1096.6952 182.21191
-265.64401 1096.6952 182.21191
-260.22269 1096.6952 182.21191
-254.80147 1096.6952 182.21191
-249.38014 1096.6952 182.21191
-243.9588 1096.6952 182.21191
-238.53748 1096.6952 182.21191
-233.11615 1096.6952 182.21191
-227.69493 1096.6952 182.21191
-222.27361 1096.6952 182.21191
-218.81601 1086.5229 208.31177
-213.3456 1086.5229 208.31177
-207.87517 1086.5229 208.31177
-202.40485 1086.5229 208.31177
-196.93442 1086.5229 208.31177
-189.74574 1096.6952 182.21191
-182.65524 1106.8673 156.11157
-177.283 1106.8673 156.11157
-171.91087 1106.8673 156.11157
-165.07111 1116.6763 130.94336
-159.7462 1116.6763 130.94336
-153.04846 1126.4852 105.77539
-147.7709 1126.4852 105.77539
-142.49345 1126.4852 105.77539
-137.21588 1126.4852 105.77539
-131.93834 1126.4852 105.77539
-126.66079 1126.4852 105.77539
-121.38322 1126.4852 105.77539
-116.10578 1126.4852 105.77539
-110.82822 1126.4852 105.77539
-105.55067 1126.4852 105.77539
-100.27312 1126.4852 105.77539
-94.99556 1126.4852 105.77539
-88.943138 1135.9309 81.539551
-83.711174 1135.9309 81.539551
-78.479202 1135.9309 81.539551
-73.247231 1135.9309 81.539551
-68.607895 1126.4852 105.77539
-62.783401 1135.9309 81.539551
-57.551434 1135.9309 81.539551
-52.319469 1135.9309 81.539551
-47.087502 1135.9309 81.539551
-41.855534 1135.9309 81.539551
-36.623669 1135.9309 81.539551
-31.391701 1135.9309 81.539551
-26.159735 1135.9309 81.539551
-20.927767 1135.9309 81.539551
-15.83256 1126.4852 105.77539
-10.649788 1116.6763 130.94336
-5.324894 1116.6763 130.94336
0 1116.6763 130.94336
5.3247924 1116.6763 130.94336
10.649788 1116.6763 130.94336
15.97458 1116.6763 130.94336
21.299576 1116.6763 130.94336
26.624367 1116.6763 130.94336
31.94916 1116.6763 130.94336
37.605534 1106.8673 156.11157
42.977669 1106.8673 156.11157
48.350006 1106.8673 156.11157
53.722134 1106.8673 156.11157
59.094265 1106.8673 156.11157
64.466599 1106.8673 156.11157
69.838737 1106.8673 156.11157
75.211067 1106.8673 156.11157
80.583206 1106.8673 156.11157
85.955338 1106.8673 156.11157
91.327667 1106.8673 156.11157
96.699806 1106.8673 156.11157
102.07214 1106.8673 156.11157
106.49747 1116.6763 130.94336
111.82227 1116.6763 130.94336
117.14725 1116.6763 130.94336
122.47205 1116.6763 130.94336
127.79705 1116.6763 130.94336
133.12184 1116.6763 130.94336
138.44662 1116.6763 130.94336
145.04982 1106.8673 156.11157
150.42194 1106.8673 156.11157
157.21799 1096.6952 182.21191
162.63921 1096.6952 182.21191
169.58232 1086.5229 208.31177
176.67995 1075.9873 235.34448
183.87904 1065.4518 262.37671
189.45126 1065.4518 262.37671
196.86427 1054.553 290.34131
202.48888 1054.553 290.34131
208.11371 1054.553 290.34131
211.73952 1065.4518 262.37671
217.31174 1065.4518 262.37671
222.88374 1065.4518 262.37671
228.45575 1065.4518 262.37671
234.02797 1065.4518 262.37671
239.59998 1065.4518 262.37671
245.17221 1065.4518 262.37671
250.7442 1065.4518 262.37671
256.31622 1065.4518 262.37671
261.88843 1065.4518 262.37671
269.98526 1054.553 290.34131
275.61008 1054.553 290.34131
281.23468 1054.553 290.34131
286.85928 1054.553 290.34131
292.4841 1054.553 290.34131
298.10873 1054.553 290.34131
303.73355 1054.553 290.34131
312.25116 1043.6542 318.30566
317.92834 1043.6542 318.30566
323.60577 1043.6542 318.30566
329.28299 1043.6542 318.30566
334.96042 1043.6542 318.30566
-317.28317 1081.4874 206.17432
-311.81284 1081.4874 206.17432
-306.34244 1081.4874 206.17432
-298.17188 1091.7048 180.09351
-292.75055 1091.7048 180.09351
-287.32922 1091.7048 180.09351
-281.90799 1091.7048 180.09351
-276.48666 1091.7048 180.09351
-271.06534 1091.7048 180.09351
-265.64401 1091.7048 180.09351
-260.22269 1091.7048 180.09351
-254.80147 1091.7048 180.09351
-249.38014 1091.7048 180.09351
-243.9588 1091.7048 180.09351
-238.53748 1091.7048 180.09351
-233.11615 1091.7048 180.09351
-227.69493 1091.7048 180.09351
-224.28642 1081.4874 206.17432
-218.81601 1081.4874 206.17432
-213.3456 1081.4874 206.17432
-207.87517 1081.4874 206.17432
-202.40485 1081.4874 206.17432
-196.93442 1081.4874 206.17432
-189.74574 1091.7048 180.09351
-182.65524 1101.9221 154.01245
-177.283 1101.9221 154.01245
-171.91087 1101.9221 154.01245
-165.07111 1111.7748 128.86279
-159.7462 1111.7748 128.86279
-154.42131 1111.7748 128.86279
-147.7709 1121.6272 103.71338
-142.49345 1121.6272 103.71338
-137.21588 1121.6272 103.71338
-131.93834 1121.6272 103.71338
-126.66079 1121.6272 103.71338
-121.38322 1121.6272 103.71338
-116.10578 1121.6272 103.71338
-110.82822 1121.6272 103.71338
-105.55067 1121.6272 103.71338
-100.27312 1121.6272 103.71338
-94.99556 1121.6272 103.71338
-89.718109 1121.6272 103.71338
-84.440552 1121.6272 103.71338
-79.163002 1121.6272 103.71338
-73.885452 1121.6272 103.71338
-68.607895 1121.6272 103.71338
-63.330441 1121.6272 103.71338
-58.052891 1121.6272 103.71338
-52.775333 1121.6272 103.71338
-47.49778 1121.6272 103.71338
-42.22023 1121.6272 103.71338
-36.942772 1121.6272 103.71338
-31.391701 1131.1149 79.495117
-26.159735 1131.1149 79.495117
-20.927767 1131.1149 79.495117
-15.83256 1121.6272 103.71338
-10.649788 1111.7748 128.86279
-5.324894 1111.7748 128.86279
0 1111.7748 128.86279
5.3247924 1111.7748 128.86279
10.649788 1111.7748 128.86279
15.97458 1111.7748 128.86279
21.299576 1111.7748 128.86279
26.624367 1111.7748 128.86279
31.94916 1111.7748 128.86279
37.274155 1111.7748 128.86279
42.977669 1101.9221 154.01245
48.350006 1101.9221 154.01245
53.722134 1101.9221 154.01245
59.094265 1101.9221 154.01245
64.466599 1101.9221 154.01245
69.838737 1101.9221 154.01245
75.211067 1101.9221 154.01245
80.583206 1101.9221 154.01245
85.955338 1101.9221 154.01245
91.327667 1101.9221 154.01245
96.699806 1101.9221 154.01245
102.07214 1101.9221 154.01245
106.49747 1111.7748 128.86279
111.82227 1111.7748 128.86279
117.14725 1111.7748 128.86279
122.47205 1111.7748 128.86279
127.79705 1111.7748 128.86279
133.12184 1111.7748 128.86279
138.44662 1111.7748 128.86279
145.04982 1101.9221 154.01245
150.42194 1101.9221 154.01245
157.21799 1091.7048 180.09351
162.63921 1091.7048 180.09351
169.58232 1081.4874 206.17432
176.67995 1070.905 233.18701
183.87904 1060.3228 260.19946
189.45126 1060.3228 260.19946
196.86427 1049.3755 288.14355
204.38248 1038.4282 316.0874
208.11371 1049.3755 288.14355
213.73831 1049.3755 288.14355
217.31174 1060.3228 260.19946
222.88374 1060.3228 260.19946
228.45575 1060.3228 260.19946
234.02797 1060.3228 260.19946
239.59998 1060.3228 260.19946
245.17221 1060.3228 260.19946
250.7442 1060.3228 260.19946
256.31622 1060.3228 260.19946
261.88843 1060.3228 260.19946
269.98526 1049.3755 288.14355
275.61008 1049.3755 288.14355
281.23468 1049.3755 288.14355
286.85928 1049.3755 288.14355
292.4841 1049.3755 288.14355
298.10873 1049.3755 288.14355
303.73355 1049.3755 288.14355
312.25116 1038.4282 316.0874
317.92834 1038.4282 316.0874
323.60577 1038.4282 316.0874
329.28299 1038.4282 316.0874
334.96042 1038.4282 316.0874
-317.28317 1076.4519 204.03687
-311.81284 1076.4519 204.03687
-303.5932 1086.7145 177.97534
-298.17188 1086.7145 177.97534
-292.75055 1086.7145 177.97534
-287.32922 1086.7145 177.97534
-281.90799 1086.7145 177.97534
-276.48666 1086.7145 177.97534
-271.06534 1086.7145 177.97534
-265.64401 1086.7145 177.97534
-260.22269 1086.7145 177.97534
-254.80147 1086.7145 177.97534
-249.38014 1086.7145 177.97534
-243.9588 1086.7145 177.97534
-238.53748 1086.7145 177.97534
-233.11615 1086.7145 177.97534
-227.69493 1086.7145 177.97534
-224.28642 1076.4519 204.03687
-218.81601 1076.4519 204.03687
-215.3286 1065.8226 231.02979
-207.87517 1076.4519 204.03687
-202.40485 1076.4519 204.03687
-196.93442 1076.4519 204.03687
-189.74574 1086.7145 177.97534
-182.65524 1096.9771 151.91333
-175.72078 1106.8732 126.78223
-170.396 1106.8732 126.78223
-165.07111 1106.8732 126.78223
-159.7462 1106.8732 126.78223
-153.04846 1116.7692 101.65112
-147.7709 1116.7692 101.65112
-142.49345 1116.7692 101.65112
-137.21588 1116.7692 101.65112
-131.93834 1116.7692 101.65112
-126.66079 1116.7692 101.65112
-121.38322 1116.7692 101.65112
-116.10578 1116.7692 101.65112
-110.82822 1116.7692 101.65112
-105.55067 1116.7692 101.65112
-100.27312 1116.7692 101.65112
-94.99556 1116.7692 101.65112
-89.718109 1116.7692 101.65112
-84.440552 1116.7692 101.65112
-79.163002 1116.7692 101.65112
-73.885452 1116.7692 101.65112
-68.607895 1116.7692 101.65112
-63.330441 1116.7692 101.65112
-58.052891 1116.7692 101.65112
-52.775333 1116.7692 101.65112
-47.49778 1116.7692 101.65112
-42.22023 1116.7692 101.65112
-36.942772 1116.7692 101.65112
-31.66522 1116.7692 101.65112
-26.387667 1116.7692 101.65112
-21.110115 1116.7692 101.65112
-15.83256 1116.7692 101.65112
-10.649788 1106.8732 126.78223
-5.324894 1106.8732 126.78223
0 1106.8732 126.78223
5.3247924 1106.8732 126.78223
10.649788 1106.8732 126.78223
15.97458 1106.8732 126.78223
21.299576 1106.8732 126.78223
26.624367 1106.8732 126.78223
31.94916 1106.8732 126.78223
37.274155 1106.8732 126.78223
42.977669 1096.9771 151.91333
48.350006 1096.9771 151.91333
53.722134 1096.9771 151.91333
59.094265 1096.9771 151.91333
64.466599 1096.9771 151.91333
69.838737 1096.9771 151.91333
75.211067 1096.9771 151.91333
80.583206 1096.9771 151.91333
85.955338 1096.9771 151.91333
91.327667 1096.9771 151.91333
96.699806 1096.9771 151.91333
102.07214 1096.9771 151.91333
107.44427 1096.9771 151.91333
112.81641 1096.9771 151.91333
117.14725 1106.8732 126.78223
122.47205 1106.8732 126.78223
127.79705 1106.8732 126.78223
133.12184 1106.8732 126.78223
139.67747 1096.9771 151.91333
145.04982 1096.9771 151.91333
150.42194 1096.9771 151.91333
157.21799 1086.7145 177.97534
162.63921 1086.7145 177.97534
169.58232 1076.4519 204.03687
176.67995 1065.8226 231.02979
183.87904 1055.1936 258.02246
189.45126 1055.1936 258.02246
196.86427 1044.1979 285.9458
204.38248 1033.2023 313.86914
208.11371 1044.1979 285.9458
213.73831 1044.1979 285.9458
219.36314 1044.1979 285.9458
222.88374 1055.1936 258.02246
228.45575 1055.1936 258.02246
234.02797 1055.1936 258.02246
239.59998 1055.1936 258.02246
245.17221 1055.1936 258.02246
250.7442 1055.1936 258.02246
256.31622 1055.1936 258.02246
264.36063 1044.1979 285.9458
269.98526 1044.1979 285.9458
275.61008 1044.1979 285.9458
281.23468 1044.1979 285.9458
286.85928 1044.1979 285.9458
292.4841 1044.1979 285.9458
298.10873 1044.1979 285.9458
303.73355 1044.1979 285.9458
312.25116 1033.2023 313.86914
317.92834 1033.2023 313.86914
323.60577 1033.2023 313.86914
329.28299 1033.2023 313.86914
334.96042 1033.2023 313.86914
343.8988 1021.8401 342.72339
-322.75357 1071.4164 201.89941
-317.28317 1071.4164 201.89941
-311.81284 1071.4164 201.89941
-303.5932 1081.7241 175.85693
-298.17188 1081.7241 175.85693
-292.75055 1081.7241 175.85693
-287.32922 1081.7241 175.85693
-281.90799 1081.7241 175.85693
-276.48666 1081.7241 175.85693
-271.06534 1081.7241 175.85693
-265.64401 1081.7241 175.85693
-260.22269 1081.7241 175.85693
-254.80147 1081.7241 175.85693
-249.38014 1081.7241 175.85693
-243.9588 1081.7241 175.85693
-238.53748 1081.7241 175.85693
-233.11615 1081.7241 175.85693
-229.75684 1071.4164 201.89941
-224.28642 1071.4164 201.89941
-218.81601 1071.4164 201.89941
-215.3286 1060.7404 228.87256
-207.87517 1071.4164 201.89941
-202.40485 1071.4164 201.89941
-196.93442 1071.4164 201.89941
-191.464 1071.4164 201.89941
-182.65524 1092.0319 149.81421
-175.72078 1101.9717 124.70166
-170.396 1101.9717 124.70166
-165.07111 1101.9717 124.70166
-159.7462 1101.9717 124.70166
-153.04846 1111.9113 99.589111
-147.7709 1111.9113 99.589111
-142.49345 1111.9113 99.589111
-137.21588 1111.9113 99.589111
-131.93834 1111.9113 99.589111
-126.66079 1111.9113 99.589111
-121.38322 1111.9113 99.589111
-116.10578 1111.9113 99.589111
-110.82822 1111.9113 99.589111
-105.55067 1111.9113 99.589111
-100.27312 1111.9113 99.589111
-94.99556 1111.9113 99.589111
-89.718109 1111.9113 99.589111
-84.440552 1111.9113 99.589111
-79.163002 1111.9113 99.589111
-73.885452 1111.9113 99.589111
-68.607895 1111.9113 99.589111
-63.330441 1111.9113 99.589111
-58.052891 1111.9113 99.589111
-52.775333 1111.9113 99.589111
-47.49778 1111.9113 99.589111
-42.22023 1111.9113 99.589111
-36.942772 1111.9113 99.589111
-31.66522 1111.9113 99.589111
-26.387667 1111.9113 99.589111
-21.110115 1111.9113 99.589111
-15.83256 1111.9113 99.589111
-10.649788 1101.9717 124.70166
-5.324894 1101.9717 124.70166
0 1101.9717 124.70166
5.3247924 1101.9717 124.70166
10.649788 1101.9717 124.70166
15.97458 1101.9717 124.70166
21.299576 1101.9717 124.70166
26.624367 1101.9717 124.70166
31.94916 1101.9717 124.70166
37.274155 1101.9717 124.70166
42.977669 1092.0319 149.81421
48.350006 1092.0319 149.81421
53.722134 1092.0319 149.81421
59.094265 1092.0319 149.81421
64.466599 1092.0319 149.81421
69.838737 1092.0319 149.81421
75.211067 1092.0319 149.81421
80.583206 1092.0319 149.81421
85.955338 1092.0319 149.81421
91.327667 1092.0319 149.81421
96.699806 1092.0319 149.81421
102.07214 1092.0319 149.81421
107.44427 1092.0319 149.81421
112.81641 1092.0319 149.81421
117.14725 1101.9717 124.70166
122.47205 1101.9717 124.70166
127.79705 1101.9717 124.70166
133.12184 1101.9717 124.70166
139.67747 1092.0319 149.81421
145.04982 1092.0319 149.81421
150.42194 1092.0319 149.81421
157.21799 1081.7241 175.85693
162.63921 1081.7241 175.85693
169.58232 1071.4164 201.89941
176.67995 1060.7404 228.87256
182.2011 1060.7404 228.87256
191.23967 1039.0204 283.74805
198.70528 1027.9763 311.65088
204.38248 1027.9763 311.65088
210.05991 1027.9763 311.65088
215.73711 1027.9763 311.65088
219.36314 1039.0204 283.74805
224.98775 1039.0204 283.74805
230.61235 1039.0204 283.74805
236.23717 1039.0204 283.74805
239.59998 1050.0645 255.84521
245.17221 1050.0645 255.84521
253.11121 1039.0204 283.74805
258.73581 1039.0204 283.74805
264.36063 1039.0204 283.74805
269.98526 1039.0204 283.74805
275.61008 1039.0204 283.74805
281.23468 1039.0204 283.74805
286.85928 1039.0204 283.74805
292.4841 1039.0204 283.74805
298.10873 1039.0204 283.74805
303.73355 1039.0204 283.74805
312.25116 1027.9763 311.65088
317.92834 1027.9763 311.65088
323.60577 1027.9763 311.65088
329.28299 1027.9763 311.65088
334.96042 1027.9763 311.65088
340.6376 1027.9763 311.65088
349.63037 1016.5641 340.48389
355.36215 1016.5641 340.48389
-322.75357 1066.3809 199.76196
-314.43576 1076.7338 173.73877
-309.01453 1076.7338 173.73877
-303.5932 1076.7338 173.73877
-298.17188 1076.7338 173.73877
-292.75055 1076.7338 173.73877
-287.32922 1076.7338 173.73877
-281.90799 1076.7338 173.73877
-276.48666 1076.7338 173.73877
-271.06534 1076.7338 173.73877
-265.64401 1076.7338 173.73877
-260.22269 1076.7338 173.73877
-254.80147 1076.7338 173.73877
-249.38014 1076.7338 173.73877
-243.9588 1076.7338 173.73877
-240.69759 1066.3809 199.76196
-235.22717 1066.3809 199.76196
-229.75684 1066.3809 199.76196
-224.28642 1066.3809 199.76196
-218.81601 1066.3809 199.76196
-215.3286 1055.658 226.71509
-207.87517 1066.3809 199.76196
-202.40485 1066.3809 199.76196
-198.76491 1055.658 226.71509
-193.24364 1055.658 226.71509
-182.65524 1087.0868 147.71509
-175.72078 1097.0701 122.62085
-170.396 1097.0701 122.62085
-165.07111 1097.0701 122.62085
-158.326 1107.0532 97.5271
-153.04846 1107.0532 97.5271
-147.7709 1107.0532 97.5271
-142.49345 1107.0532 97.5271
-137.21588 1107.0532 97.5271
-131.93834 1107.0532 97.5271
-126.66079 1107.0532 97.5271
-121.38322 1107.0532 97.5271
-116.10578 1107.0532 97.5271
-110.82822 1107.0532 97.5271
-105.55067 1107.0532 97.5271
-100.27312 1107.0532 97.5271
-94.99556 1107.0532 97.5271
-89.718109 1107.0532 97.5271
-84.440552 1107.0532 97.5271
-79.163002 1107.0532 97.5271
-73.885452 1107.0532 97.5271
-68.607895 1107.0532 97.5271
-63.330441 1107.0532 97.5271
-58.052891 1107.0532 97.5271
-52.775333 1107.0532 97.5271
-47.49778 1107.0532 97.5271
-42.22023 1107.0532 97.5271
-36.942772 1107.0532 97.5271
-31.66522 1107.0532 97.5271
-26.387667 1107.0532 97.5271
-21.110115 1107.0532 97.5271
-15.83256 1107.0532 97.5271
-10.649788 1097.0701 122.62085
-5.324894 1097.0701 122.62085
0 1097.0701 122.62085
5.3247924 1097.0701 122.62085
10.649788 1097.0701 122.62085
15.97458 1097.0701 122.62085
21.299576 1097.0701 122.62085
26.624367 1097.0701 122.62085
31.94916 1097.0701 122.62085
37.274155 1097.0701 122.62085
42.598946 1097.0701 122.62085
47.923943 1097.0701 122.62085
53.248734 1097.0701 122.62085
59.094265 1087.0868 147.71509
64.466599 1087.0868 147.71509
69.838737 1087.0868 147.71509
75.211067 1087.0868 147.71509
80.583206 1087.0868 147.71509
85.955338 1087.0868 147.71509
91.327667 1087.0868 147.71509
96.699806 1087.0868 147.71509
102.07214 1087.0868 147.71509
107.44427 1087.0868 147.71509
112.81641 1087.0868 147.71509
118.18874 1087.0868 147.71509
122.47205 1097.0701 122.62085
127.79705 1097.0701 122.62085
134.30534 1087.0868 147.71509
139.67747 1087.0868 147.71509
145.04982 1087.0868 147.71509
150.42194 1087.0868 147.71509
157.21799 1076.7338 173.73877
162.63921 1076.7338 173.73877
169.58232 1066.3809 199.76196
175.05284 1066.3809 199.76196
182.2011 1055.658 226.71509
189.45126 1044.9353 253.66797
196.86427 1033.8428 281.55029
204.38248 1022.7504 309.43262
210.05991 1022.7504 309.43262
215.73711 1022.7504 309.43262
221.41454 1022.7504 309.43262
224.98775 1033.8428 281.55029
230.61235 1033.8428 281.55029
236.23717 1033.8428 281.55029
241.86177 1033.8428 281.55029
247.4866 1033.8428 281.55029
253.11121 1033.8428 281.55029
256.31622 1044.9353 253.66797
261.88843 1044.9353 253.66797
267.46045 1044.9353 253.66797
275.61008 1033.8428 281.55029
281.23468 1033.8428 281.55029
286.85928 1033.8428 281.55029
292.4841 1033.8428 281.55029
298.10873 1033.8428 281.55029
303.73355 1033.8428 281.55029
312.25116 1022.7504 309.43262
317.92834 1022.7504 309.43262
323.60577 1022.7504 309.43262
329.28299 1022.7504 309.43262
334.96042 1022.7504 309.43262
340.6376 1022.7504 309.43262
349.63037 1011.2881 338.24438
355.36215 1011.2881 338.24438
-322.75357 1061.3453 197.62451
-314.43576 1071.7434 171.62036
-309.01453 1071.7434 171.62036
-303.5932 1071.7434 171.62036
-298.17188 1071.7434 171.62036
-292.75055 1071.7434 171.62036
-287.32922 1071.7434 171.62036
-281.90799 1071.7434 171.62036
-276.48666 1071.7434 171.62036
-271.06534 1071.7434 171.62036
-265.64401 1071.7434 171.62036
-260.22269 1071.7434 171.62036
-254.80147 1071.7434 171.62036
-249.38014 1071.7434 171.62036
-243.9588 1071.7434 171.62036
-240.69759 1061.3453 197.62451
-235.22717 1061.3453 197.62451
-229.75684 1061.3453 197.62451
-224.28642 1061.3453 197.62451
-218.81601 1061.3453 197.62451
-213.3456 1061.3453 197.62451
-207.87517 1061.3453 197.62451
-202.40485 1061.3453 197.62451
-198.76491 1050.5757 224.55786
-193.24364 1050.5757 224.55786
-181.04568 1092.1685 120.54028
-175.72078 1092.1685 120.54028
-170.396 1092.1685 120.54028
-165.07111 1092.1685 120.54028
-158.326 1102.1952 95.464844
-153.04846 1102.1952 95.464844
-147.7709 1102.1952 95.464844
-142.49345 1102.1952 95.464844
-137.21588 1102.1952 95.464844
-131.93834 1102.1952 95.464844
-126.66079 1102.1952 95.464844
-121.38322 1102.1952 95.464844
-116.10578 1102.1952 95.464844
-110.82822 1102.1952 95.464844
-105.55067 1102.1952 95.464844
-100.27312 1102.1952 95.464844
-94.99556 1102.1952 95.464844
-89.718109 1102.1952 95.464844
-84.440552 1102.1952 95.464844
-79.163002 1102.1952 95.464844
-73.885452 1102.1952 95.464844
-68.607895 1102.1952 95.464844
-63.330441 1102.1952 95.464844
-58.052891 1102.1952 95.464844
-52.775333 1102.1952 95.464844
-47.49778 1102.1952 95.464844
-42.22023 1102.1952 95.464844
-36.942772 1102.1952 95.464844
-31.66522 1102.1952 95.464844
-26.387667 1102.1952 95.464844
-21.110115 1102.1952 95.464844
-15.83256 1102.1952 95.464844
-10.649788 1092.1685 120.54028
-5.324894 1092.1685 120.54028
0 1092.1685 120.54028
5.3247924 1092.1685 120.54028
10.649788 1092.1685 120.54028
15.97458 1092.1685 120.54028
21.299576 1092.1685 120.54028
26.624367 1092.1685 120.54028
31.94916 1092.1685 120.54028
37.274155 1092.1685 120.54028
42.598946 1092.1685 120.54028
47.923943 1092.1685 120.54028
53.248734 1092.1685 120.54028
59.094265 1082.1416 145.61621
64.466599 1082.1416 145.61621
69.838737 1082.1416 145.61621
75.211067 1082.1416 145.61621
81.319603 1071.7434 171.62036
86.740829 1071.7434 171.62036
91.327667 1082.1416 145.61621
96.699806 1082.1416 145.61621
102.07214 1082.1416 145.61621
107.44427 1082.1416 145.61621
112.81641 1082.1416 145.61621
118.18874 1082.1416 145.61621
122.47205 1092.1685 120.54028
127.79705 1092.1685 120.54028
134.30534 1082.1416 145.61621
139.67747 1082.1416 145.61621
145.04982 1082.1416 145.61621
150.42194 1082.1416 145.61621
157.21799 1071.7434 171.62036
162.63921 1071.7434 171.62036
169.58232 1061.3453 197.62451
175.05284 1061.3453 197.62451
182.2011 1050.5757 224.55786
189.45126 1039.8062 251.49072
196.86427 1028.6653 279.35254
204.38248 1017.5243 307.21436
210.05991 1017.5243 307.21436
215.73711 1017.5243 307.21436
221.41454 1017.5243 307.21436
224.98775 1028.6653 279.35254
230.61235 1028.6653 279.35254
236.23717 1028.6653 279.35254
241.86177 1028.6653 279.35254
247.4866 1028.6653 279.35254
253.11121 1028.6653 279.35254
256.31622 1039.8062 251.49072
261.88843 1039.8062 251.49072
267.46045 1039.8062 251.49072
275.61008 1028.6653 279.35254
281.23468 1028.6653 279.35254
286.85928 1028.6653 279.35254
292.4841 1028.6653 279.35254
298.10873 1028.6653 279.35254
303.73355 1028.6653 279.35254
312.25116 1017.5243 307.21436
317.92834 1017.5243 307.21436
323.60577 1017.5243 307.21436
329.28299 1017.5243 307.21436
334.96042 1017.5243 307.21436
340.6376 1017.5243 307.21436
349.63037 1006.0121 336.00488
355.36215 1006.0121 336.00488
-322.75357 1056.3098 195.48706
-317.28317 1056.3098 195.48706
-309.01453 1066.7532 169.5022
-303.5932 1066.7532 169.5022
-298.17188 1066.7532 169.5022
-292.75055 1066.7532 169.5022
-287.32922 1066.7532 169.5022
-281.90799 1066.7532 169.5022
-276.48666 1066.7532 169.5022
-271.06534 1066.7532 169.5022
-265.64401 1066.7532 169.5022
-262.57916 1056.3098 195.48706
-257.10886 1056.3098 195.48706
-251.63843 1056.3098 195.48706
-246.16801 1056.3098 195.48706
-240.69759 1056.3098 195.48706
-235.22717 1056.3098 195.48706
-229.75684 1056.3098 195.48706
-224.28642 1056.3098 195.48706
-218.81601 1056.3098 195.48706
-213.3456 1056.3098 195.48706
-207.87517 1056.3098 195.48706
-202.40485 1056.3098 195.48706
-191.69547 1087.267 118.45972
-186.37057 1087.267 118.45972
-181.04568 1087.267 118.45972
-175.72078 1087.267 118.45972
-170.396 1087.267 118.45972
-165.07111 1087.267 118.45972
-158.326 1097.3373 93.402832
-153.04846 1097.3373 93.402832
-147.7709 1097.3373 93.402832
-142.49345 1097.3373 93.402832
-137.21588 1097.3373 93.402832
-131.93834 1097.3373 93.402832
-126.66079 1097.3373 93.402832
-121.38322 1097.3373 93.402832
-116.10578 1097.3373 93.402832
-110.82822 1097.3373 93.402832
-105.55067 1097.3373 93.402832
-100.27312 1097.3373 93.402832
-94.99556 1097.3373 93.402832
-89.718109 1097.3373 93.402832
-84.440552 1097.3373 93.402832
-79.163002 1097.3373 93.402832
-73.885452 1097.3373 93.402832
-68.607895 1097.3373 93.402832
-63.330441 1097.3373 93.402832
-58.052891 1097.3373 93.402832
-52.775333 1097.3373 93.402832
-47.49778 1097.3373 93.402832
-42.22023 1097.3373 93.402832
-36.942772 1097.3373 93.402832
-31.66522 1097.3373 93.402832
-26.387667 1097.3373 93.402832
-21.110115 1097.3373 93.402832
-15.83256 1097.3373 93.402832
-10.649788 1087.267 118.45972
-5.324894 1087.267 118.45972
0 1087.267 118.45972
5.3247924 1087.267 118.45972
10.649788 1087.267 118.45972
15.97458 1087.267 118.45972
21.299576 1087.267 118.45972
26.624367 1087.267 118.45972
31.94916 1087.267 118.45972
37.274155 1087.267 118.45972
42.598946 1087.267 118.45972
47.923943 1087.267 118.45972
53.722134 1077.1964 143.51709
59.094265 1077.1964 143.51709
64.466599 1077.1964 143.51709
69.838737 1077.1964 143.51709
75.211067 1077.1964 143.51709
81.319603 1066.7532 169.5022
86.740829 1066.7532 169.5022
92.162254 1066.7532 169.5022
96.699806 1077.1964 143.51709
102.07214 1077.1964 143.51709
107.44427 1077.1964 143.51709
112.81641 1077.1964 143.51709
118.18874 1077.1964 143.51709
123.56087 1077.1964 143.51709
128.9332 1077.1964 143.51709
134.30534 1077.1964 143.51709
139.67747 1077.1964 143.51709
145.04982 1077.1964 143.51709
151.79655 1066.7532 169.5022
157.21799 1066.7532 169.5022
164.112 1056.3098 195.48706
169.58232 1056.3098 195.48706
176.67995 1045.4934 222.40039
182.2011 1045.4934 222.40039
189.45126 1034.677 249.31372
196.86427 1023.4877 277.15503
202.48888 1023.4877 277.15503
210.05991 1012.2983 304.99609
215.73711 1012.2983 304.99609
221.41454 1012.2983 304.99609
224.98775 1023.4877 277.15503
230.61235 1023.4877 277.15503
236.23717 1023.4877 277.15503
241.86177 1023.4877 277.15503
247.4866 1023.4877 277.15503
253.11121 1023.4877 277.15503
256.31622 1034.677 249.31372
261.88843 1034.677 249.31372
267.46045 1034.677 249.31372
275.61008 1023.4877 277.15503
281.23468 1023.4877 277.15503
286.85928 1023.4877 277.15503
292.4841 1023.4877 277.15503
298.10873 1023.4877 277.15503
303.73355 1023.4877 277.15503
312.25116 1012.2983 304.99609
317.92834 1012.2983 304.99609
323.60577 1012.2983 304.99609
329.28299 1012.2983 304.99609
334.96042 1012.2983 304.99609
340.6376 1012.2983 304.99609
346.31482 1012.2983 304.99609
351.99222 1012.2983 304.99609
361.09372 1000.7361 333.76514
-322.75357 1051.2743 193.34961
-314.43576 1061.7628 167.38403
-309.01453 1061.7628 167.38403
-303.5932 1061.7628 167.38403
-298.17188 1061.7628 167.38403
-292.75055 1061.7628 167.38403
-287.32922 1061.7628 167.38403
-281.90799 1061.7628 167.38403
-276.48666 1061.7628 167.38403
-271.06534 1061.7628 167.38403
-265.64401 1061.7628 167.38403
-262.57916 1051.2743 193.34961
-257.10886 1051.2743 193.34961
-251.63843 1051.2743 193.34961
-246.16801 1051.2743 193.34961
-240.69759 1051.2743 193.34961
-235.22717 1051.2743 193.34961
-229.75684 1051.2743 193.34961
-224.28642 1051.2743 193.34961
-218.81601 1051.2743 193.34961
-213.3456 1051.2743 193.34961
-207.87517 1051.2743 193.34961
-186.37057 1082.3654 116.37915
-181.04568 1082.3654 116.37915
-175.72078 1082.3654 116.37915
-170.396 1082.3654 116.37915
-165.07111 1082.3654 116.37915
-158.326 1092.4792 91.34082
-153.04846 1092.4792 91.34082
-147.7709 1092.4792 91.34082
-142.49345 1092.4792 91.34082
-137.21588 1092.4792 91.34082
-131.93834 1092.4792 91.34082
-126.66079 1092.4792 91.34082
-121.38322 1092.4792 91.34082
-116.10578 1092.4792 91.34082
-110.82822 1092.4792 91.34082
-105.55067 1092.4792 91.34082
-100.27312 1092.4792 91.34082
-94.99556 1092.4792 91.34082
-89.718109 1092.4792 91.34082
-84.440552 1092.4792 91.34082
