ply
format ascii 1.0
comment PCL generated
element vertex 1573
property float x
property float y
property float z
element camera 0
property float view_px
property float view_py
property float view_pz
property float x_axisx
property float x_axisy
property float x_axisz
property float y_axisx
property float y_axisy
property float y_axisz
property float z_axisx
property float z_axisy
property float z_axisz
property float focal
property float scalex
property float scaley
property float centerx
property float centery
property int viewportx
property int viewporty
property float k1
property float k2
end_header
287.10489 1106.4813 248.28833
-308.68484 1160.011 91.760986
-303.45288 1160.011 91.760986
-300.81946 1150.7751 116.08594
-295.5419 1150.7751 116.08594
-290.26434 1150.7751 116.08594
-284.98679 1150.7751 116.08594
-279.70923 1150.7751 116.08594
-274.43176 1150.7751 116.08594
-269.15424 1150.7751 116.08594
-263.87668 1150.7751 116.08594
-258.59912 1150.7751 116.08594
-253.32158 1150.7751 116.08594
-248.04411 1150.7751 116.08594
-242.76656 1150.7751 116.08594
-237.48901 1150.7751 116.08594
-232.21146 1150.7751 116.08594
-226.93391 1150.7751 116.08594
-221.65645 1150.7751 116.08594
-218.31984 1141.1842 141.34619
-212.99493 1141.1842 141.34619
-207.67004 1141.1842 141.34619
-200.54623 1150.7751 116.08594
-195.26877 1150.7751 116.08594
-188.35011 1160.011 91.760986
-183.11813 1160.011 91.760986
-176.33623 1169.2468 67.435791
-171.14984 1169.2468 67.435791
-165.96358 1169.2468 67.435791
-162.19038 1160.011 91.760986
-156.9584 1160.011 91.760986
-151.72644 1160.011 91.760986
-146.49446 1160.011 91.760986
-141.2626 1160.011 91.760986
-136.03064 1160.011 91.760986
-130.79868 1160.011 91.760986
-125.5667 1160.011 91.760986
-120.33474 1160.011 91.760986
-115.10287 1160.011 91.760986
-109.87091 1160.011 91.760986
-104.63894 1160.011 91.760986
-99.406967 1160.011 91.760986
-94.175003 1160.011 91.760986
-88.943138 1160.011 91.760986
-83.711174 1160.011 91.760986
-78.479202 1160.011 91.760986
-73.247231 1160.011 91.760986
-68.015266 1160.011 91.760986
-62.783401 1160.011 91.760986
-57.551434 1160.011 91.760986
-51.863602 1169.2468 67.435791
-46.677223 1169.2468 67.435791
-41.490841 1169.2468 67.435791
-36.304562 1169.2468 67.435791
-31.118181 1169.2468 67.435791
-25.931801 1169.2468 67.435791
-20.927767 1160.011 91.760986
-15.695801 1160.011 91.760986
-10.463933 1160.011 91.760986
-5.2319665 1160.011 91.760986
0 1160.011 91.760986
5.2318668 1160.011 91.760986
10.463933 1160.011 91.760986
15.695801 1160.011 91.760986
20.927866 1160.011 91.760986
26.159735 1160.011 91.760986
31.391602 1160.011 91.760986
36.942772 1150.7751 116.08594
41.855534 1160.011 91.760986
47.087601 1160.011 91.760986
52.775333 1150.7751 116.08594
57.551338 1160.011 91.760986
62.783401 1160.011 91.760986
68.015266 1160.011 91.760986
73.247337 1160.011 91.760986
78.479202 1160.011 91.760986
83.711067 1160.011 91.760986
88.943138 1160.011 91.760986
94.175003 1160.011 91.760986
100.27322 1150.7751 116.08594
106.49747 1141.1842 141.34619
112.81641 1131.593 166.60693
118.18874 1131.593 166.60693
123.56087 1131.593 166.60693
128.9332 1131.593 166.60693
135.53267 1121.6469 192.80322
138.44662 1141.1842 141.34619
143.77162 1141.1842 141.34619
149.09642 1141.1842 141.34619
154.42142 1141.1842 141.34619
161.16641 1131.593 166.60693
166.53854 1131.593 166.60693
171.91087 1131.593 166.60693
177.283 1131.593 166.60693
182.65533 1131.593 166.60693
188.02748 1131.593 166.60693
193.39961 1131.593 166.60693
198.77194 1131.593 166.60693
204.14407 1131.593 166.60693
209.5164 1131.593 166.60693
214.88853 1131.593 166.60693
220.26068 1131.593 166.60693
225.63301 1131.593 166.60693
231.00513 1131.593 166.60693
236.37747 1131.593 166.60693
241.7496 1131.593 166.60693
249.38004 1121.6469 192.80322
254.80147 1121.6469 192.80322
260.22269 1121.6469 192.80322
268.04968 1111.7006 218.99902
276.06235 1101.3989 246.1311
281.58353 1101.3989 246.1311
287.10489 1101.3989 246.1311
-311.37445 1145.9171 114.02368
-306.09692 1145.9171 114.02368
-300.81946 1145.9171 114.02368
-295.5419 1145.9171 114.02368
-290.26434 1145.9171 114.02368
-284.98679 1145.9171 114.02368
-279.70923 1145.9171 114.02368
-274.43176 1145.9171 114.02368
-269.15424 1145.9171 114.02368
-263.87668 1145.9171 114.02368
-258.59912 1145.9171 114.02368
-253.32158 1145.9171 114.02368
-248.04411 1145.9171 114.02368
-242.76656 1145.9171 114.02368
-237.48901 1145.9171 114.02368
-232.21146 1145.9171 114.02368
-226.93391 1145.9171 114.02368
-223.64473 1136.2826 139.26562
-218.31984 1136.2826 139.26562
-212.99493 1136.2826 139.26562
-207.67004 1136.2826 139.26562
-200.54623 1145.9171 114.02368
-195.26877 1145.9171 114.02368
-188.35011 1155.1949 89.716553
-183.11813 1155.1949 89.716553
-176.33623 1164.4727 65.409424
-171.14984 1164.4727 65.409424
-165.96358 1164.4727 65.409424
-162.19038 1155.1949 89.716553
-156.9584 1155.1949 89.716553
-151.72644 1155.1949 89.716553
-146.49446 1155.1949 89.716553
-141.2626 1155.1949 89.716553
-136.03064 1155.1949 89.716553
-130.79868 1155.1949 89.716553
-125.5667 1155.1949 89.716553
-120.33474 1155.1949 89.716553
-115.10287 1155.1949 89.716553
-109.87091 1155.1949 89.716553
-104.63894 1155.1949 89.716553
-99.406967 1155.1949 89.716553
-94.175003 1155.1949 89.716553
-88.943138 1155.1949 89.716553
-83.711174 1155.1949 89.716553
-78.479202 1155.1949 89.716553
-73.247231 1155.1949 89.716553
-68.015266 1155.1949 89.716553
-62.236362 1164.4727 65.409424
-57.04998 1164.4727 65.409424
-51.863602 1164.4727 65.409424
-46.677223 1164.4727 65.409424
-41.490841 1164.4727 65.409424
-36.304562 1164.4727 65.409424
-31.118181 1164.4727 65.409424
-25.931801 1164.4727 65.409424
-20.927767 1155.1949 89.716553
-15.695801 1155.1949 89.716553
-10.463933 1155.1949 89.716553
-5.2319665 1155.1949 89.716553
0 1155.1949 89.716553
5.2318668 1155.1949 89.716553
10.463933 1155.1949 89.716553
15.695801 1155.1949 89.716553
20.927866 1155.1949 89.716553
26.159735 1155.1949 89.716553
31.391602 1155.1949 89.716553
36.623669 1155.1949 89.716553
41.855534 1155.1949 89.716553
47.087601 1155.1949 89.716553
52.775333 1145.9171 114.02368
57.551338 1155.1949 89.716553
62.783401 1155.1949 89.716553
68.015266 1155.1949 89.716553
73.247337 1155.1949 89.716553
78.479202 1155.1949 89.716553
83.711067 1155.1949 89.716553
88.943138 1155.1949 89.716553
94.175003 1155.1949 89.716553
100.27322 1145.9171 114.02368
106.49747 1136.2826 139.26562
111.82227 1136.2826 139.26562
117.14725 1136.2826 139.26562
122.47205 1136.2826 139.26562
128.9332 1126.6479 164.50781
136.76001 1106.665 216.86157
142.23032 1106.665 216.86157
147.70084 1106.665 216.86157
149.09642 1136.2826 139.26562
154.42142 1136.2826 139.26562
161.16641 1126.6479 164.50781
166.53854 1126.6479 164.50781
171.91087 1126.6479 164.50781
178.90309 1116.6565 190.68481
184.32451 1116.6565 190.68481
189.74574 1116.6565 190.68481
195.16696 1116.6565 190.68481
200.58839 1116.6565 190.68481
206.00961 1116.6565 190.68481
209.5164 1126.6479 164.50781
214.88853 1126.6479 164.50781
220.26068 1126.6479 164.50781
225.63301 1126.6479 164.50781
231.00513 1126.6479 164.50781
236.37747 1126.6479 164.50781
241.7496 1126.6479 164.50781
249.38004 1116.6565 190.68481
254.80147 1116.6565 190.68481
260.22269 1116.6565 190.68481
268.04968 1106.665 216.86157
276.06235 1096.3167 243.97363
281.58353 1096.3167 243.97363
287.10489 1096.3167 243.97363
292.62604 1096.3167 243.97363
-316.65201 1141.0592 111.96167
-311.37445 1141.0592 111.96167
-306.09692 1141.0592 111.96167
-300.81946 1141.0592 111.96167
-295.5419 1141.0592 111.96167
-290.26434 1141.0592 111.96167
-284.98679 1141.0592 111.96167
-279.70923 1141.0592 111.96167
-274.43176 1141.0592 111.96167
-269.15424 1141.0592 111.96167
-263.87668 1141.0592 111.96167
-258.59912 1141.0592 111.96167
-253.32158 1141.0592 111.96167
-248.04411 1141.0592 111.96167
-242.76656 1141.0592 111.96167
-237.48901 1141.0592 111.96167
-232.21146 1141.0592 111.96167
-226.93391 1141.0592 111.96167
-223.64473 1131.381 137.18506
-218.31984 1131.381 137.18506
-212.99493 1131.381 137.18506
-207.67004 1131.381 137.18506
-202.34515 1131.381 137.18506
-195.26877 1141.0592 111.96167
-188.35011 1150.379 87.672363
-183.11813 1150.379 87.672363
-176.33623 1159.6986 63.383057
-171.14984 1159.6986 63.383057
-167.42235 1150.379 87.672363
-162.19038 1150.379 87.672363
-156.9584 1150.379 87.672363
-151.72644 1150.379 87.672363
-146.49446 1150.379 87.672363
-141.2626 1150.379 87.672363
-136.03064 1150.379 87.672363
-130.79868 1150.379 87.672363
-125.5667 1150.379 87.672363
-120.33474 1150.379 87.672363
-115.10287 1150.379 87.672363
-109.87091 1150.379 87.672363
-104.63894 1150.379 87.672363
-99.406967 1150.379 87.672363
-94.175003 1150.379 87.672363
-88.943138 1150.379 87.672363
-83.711174 1150.379 87.672363
-78.479202 1150.379 87.672363
-73.247231 1150.379 87.672363
-68.015266 1150.379 87.672363
-62.236362 1159.6986 63.383057
-57.04998 1159.6986 63.383057
-51.863602 1159.6986 63.383057
-46.677223 1159.6986 63.383057
-41.490841 1159.6986 63.383057
-36.304562 1159.6986 63.383057
-31.118181 1159.6986 63.383057
-25.931801 1159.6986 63.383057
-20.927767 1150.379 87.672363
-15.695801 1150.379 87.672363
-10.463933 1150.379 87.672363
-5.2319665 1150.379 87.672363
0 1150.379 87.672363
5.2318668 1150.379 87.672363
10.463933 1150.379 87.672363
15.695801 1150.379 87.672363
20.927866 1150.379 87.672363
26.159735 1150.379 87.672363
31.391602 1150.379 87.672363
36.623669 1150.379 87.672363
41.855534 1150.379 87.672363
47.087601 1150.379 87.672363
52.319469 1150.379 87.672363
57.551338 1150.379 87.672363
62.783401 1150.379 87.672363
68.015266 1150.379 87.672363
73.247337 1150.379 87.672363
78.479202 1150.379 87.672363
83.711067 1150.379 87.672363
88.943138 1150.379 87.672363
94.175003 1150.379 87.672363
100.27322 1141.0592 111.96167
106.49747 1131.381 137.18506
111.82227 1131.381 137.18506
117.14725 1131.381 137.18506
122.47205 1131.381 137.18506
127.79705 1131.381 137.18506
133.12184 1131.381 137.18506
138.44662 1131.381 137.18506
147.70084 1101.6295 214.72412
153.17117 1101.6295 214.72412
158.64169 1101.6295 214.72412
161.16641 1121.7028 162.40869
166.53854 1121.7028 162.40869
173.48186 1111.6661 188.56665
178.90309 1111.6661 188.56665
184.32451 1111.6661 188.56665
189.74574 1111.6661 188.56665
195.16696 1111.6661 188.56665
200.58839 1111.6661 188.56665
206.00961 1111.6661 188.56665
209.5164 1121.7028 162.40869
214.88853 1121.7028 162.40869
220.26068 1121.7028 162.40869
225.63301 1121.7028 162.40869
231.00513 1121.7028 162.40869
236.37747 1121.7028 162.40869
241.7496 1121.7028 162.40869
247.12175 1121.7028 162.40869
254.80147 1111.6661 188.56665
260.22269 1111.6661 188.56665
268.04968 1101.6295 214.72412
276.06235 1091.2343 241.81641
281.58353 1091.2343 241.81641
287.10489 1091.2343 241.81641
295.32092 1080.8392 268.9082
-316.65201 1136.2012 109.89966
-311.37445 1136.2012 109.89966
-308.84262 1126.4795 135.10449
-303.51782 1126.4795 135.10449
-298.19293 1126.4795 135.10449
-290.26434 1136.2012 109.89966
-284.98679 1136.2012 109.89966
-279.70923 1136.2012 109.89966
-274.43176 1136.2012 109.89966
-269.15424 1136.2012 109.89966
-263.87668 1136.2012 109.89966
-258.59912 1136.2012 109.89966
-253.32158 1136.2012 109.89966
-248.04411 1136.2012 109.89966
-242.76656 1136.2012 109.89966
-239.61931 1126.4795 135.10449
-232.21146 1136.2012 109.89966
-226.93391 1136.2012 109.89966
-223.64473 1126.4795 135.10449
-218.31984 1126.4795 135.10449
-212.99493 1126.4795 135.10449
-207.67004 1126.4795 135.10449
-202.34515 1126.4795 135.10449
-193.58208 1145.563 85.62793
-188.35011 1145.563 85.62793
-183.11813 1145.563 85.62793
-177.88617 1145.563 85.62793
-172.65421 1145.563 85.62793
-167.42235 1145.563 85.62793
-162.19038 1145.563 85.62793
-156.9584 1145.563 85.62793
-151.72644 1145.563 85.62793
-146.49446 1145.563 85.62793
-141.2626 1145.563 85.62793
-136.03064 1145.563 85.62793
-130.79868 1145.563 85.62793
-125.5667 1145.563 85.62793
-120.33474 1145.563 85.62793
-115.10287 1145.563 85.62793
-109.87091 1145.563 85.62793
-104.63894 1145.563 85.62793
-99.406967 1145.563 85.62793
-94.175003 1145.563 85.62793
-88.943138 1145.563 85.62793
-83.711174 1145.563 85.62793
-78.479202 1145.563 85.62793
-73.247231 1145.563 85.62793
-68.015266 1145.563 85.62793
-62.236362 1154.9246 61.356445
-57.04998 1154.9246 61.356445
-51.863602 1154.9246 61.356445
-46.677223 1154.9246 61.356445
-41.490841 1154.9246 61.356445
-36.304562 1154.9246 61.356445
-31.118181 1154.9246 61.356445
-25.931801 1154.9246 61.356445
-20.927767 1145.563 85.62793
-15.695801 1145.563 85.62793
-10.37276 1154.9246 61.356445
-5.1863799 1154.9246 61.356445
0 1145.563 85.62793
5.2318668 1145.563 85.62793
10.463933 1145.563 85.62793
15.695801 1145.563 85.62793
20.74552 1154.9246 61.356445
25.931801 1154.9246 61.356445
31.391602 1145.563 85.62793
36.623669 1145.563 85.62793
41.855534 1145.563 85.62793
47.087601 1145.563 85.62793
52.319469 1145.563 85.62793
57.551338 1145.563 85.62793
62.783401 1145.563 85.62793
68.015266 1145.563 85.62793
73.247337 1145.563 85.62793
78.479202 1145.563 85.62793
83.711067 1145.563 85.62793
88.943138 1145.563 85.62793
94.99556 1136.2012 109.89966
100.27322 1136.2012 109.89966
106.49747 1126.4795 135.10449
111.82227 1126.4795 135.10449
117.14725 1126.4795 135.10449
122.47205 1126.4795 135.10449
127.79705 1126.4795 135.10449
133.12184 1126.4795 135.10449
150.42194 1116.7576 160.30981
155.79427 1116.7576 160.30981
161.16641 1116.7576 160.30981
166.53854 1116.7576 160.30981
173.48186 1106.6758 186.44824
178.90309 1106.6758 186.44824
184.32451 1106.6758 186.44824
189.74574 1106.6758 186.44824
195.16696 1106.6758 186.44824
200.58839 1106.6758 186.44824
206.00961 1106.6758 186.44824
209.5164 1116.7576 160.30981
214.88853 1116.7576 160.30981
220.26068 1116.7576 160.30981
225.63301 1116.7576 160.30981
231.00513 1116.7576 160.30981
236.37747 1116.7576 160.30981
241.7496 1116.7576 160.30981
247.12175 1116.7576 160.30981
252.49408 1116.7576 160.30981
260.22269 1106.6758 186.44824
265.6441 1106.6758 186.44824
273.52002 1096.594 212.58667
281.58353 1086.152 239.65894
287.10489 1086.152 239.65894
295.32092 1075.7101 266.7312
300.89313 1075.7101 266.7312
-324.81729 1121.5779 133.02393
-319.4924 1121.5779 133.02393
-314.16751 1121.5779 133.02393
-308.84262 1121.5779 133.02393
-303.51782 1121.5779 133.02393
-298.19293 1121.5779 133.02393
-292.86804 1121.5779 133.02393
-284.98679 1131.3431 107.8374
-279.70923 1131.3431 107.8374
-274.43176 1131.3431 107.8374
-269.15424 1131.3431 107.8374
-263.87668 1131.3431 107.8374
-258.59912 1131.3431 107.8374
-253.32158 1131.3431 107.8374
-248.04411 1131.3431 107.8374
-242.76656 1131.3431 107.8374
-239.61931 1121.5779 133.02393
-232.21146 1131.3431 107.8374
-226.93391 1131.3431 107.8374
-223.64473 1121.5779 133.02393
-218.31984 1121.5779 133.02393
-212.99493 1121.5779 133.02393
-207.67004 1121.5779 133.02393
-202.34515 1121.5779 133.02393
-193.58208 1140.7469 83.58374
-188.35011 1140.7469 83.58374
-183.11813 1140.7469 83.58374
-177.88617 1140.7469 83.58374
-172.65421 1140.7469 83.58374
-167.42235 1140.7469 83.58374
-162.19038 1140.7469 83.58374
-156.9584 1140.7469 83.58374
-151.72644 1140.7469 83.58374
-146.49446 1140.7469 83.58374
-141.2626 1140.7469 83.58374
-136.03064 1140.7469 83.58374
-130.79868 1140.7469 83.58374
-125.5667 1140.7469 83.58374
-120.33474 1140.7469 83.58374
-115.10287 1140.7469 83.58374
-109.87091 1140.7469 83.58374
-104.63894 1140.7469 83.58374
-99.406967 1140.7469 83.58374
-94.175003 1140.7469 83.58374
-88.943138 1140.7469 83.58374
-83.711174 1140.7469 83.58374
-78.479202 1140.7469 83.58374
-73.247231 1140.7469 83.58374
-68.015266 1140.7469 83.58374
-62.236362 1150.1505 59.330078
-57.04998 1150.1505 59.330078
-51.863602 1150.1505 59.330078
-46.282722 1159.1925 36.009033
-41.140175 1159.1925 36.009033
-36.304562 1150.1505 59.330078
-30.855181 1159.1925 36.009033
-25.712635 1159.1925 36.009033
-20.927767 1140.7469 83.58374
-15.695801 1140.7469 83.58374
-10.37276 1150.1505 59.330078
-5.1863799 1150.1505 59.330078
0 1140.7469 83.58374
5.2318668 1140.7469 83.58374
10.463933 1140.7469 83.58374
15.695801 1140.7469 83.58374
20.74552 1150.1505 59.330078
25.931801 1150.1505 59.330078
31.391602 1140.7469 83.58374
36.623669 1140.7469 83.58374
41.855534 1140.7469 83.58374
47.087601 1140.7469 83.58374
52.319469 1140.7469 83.58374
57.551338 1140.7469 83.58374
62.783401 1140.7469 83.58374
68.015266 1140.7469 83.58374
73.247337 1140.7469 83.58374
78.479202 1140.7469 83.58374
83.711067 1140.7469 83.58374
89.718109 1131.3431 107.8374
94.99556 1131.3431 107.8374
100.27322 1131.3431 107.8374
106.49747 1121.5779 133.02393
111.82227 1121.5779 133.02393
117.14725 1121.5779 133.02393
122.47205 1121.5779 133.02393
127.79705 1121.5779 133.02393
133.12184 1121.5779 133.02393
162.63921 1101.6854 184.33008
168.06042 1101.6854 184.33008
173.48186 1101.6854 184.33008
178.90309 1101.6854 184.33008
184.32451 1101.6854 184.33008
189.74574 1101.6854 184.33008
195.16696 1101.6854 184.33008
200.58839 1101.6854 184.33008
206.00961 1101.6854 184.33008
209.5164 1111.8125 158.21069
214.88853 1111.8125 158.21069
220.26068 1111.8125 158.21069
225.63301 1111.8125 158.21069
231.00513 1111.8125 158.21069
236.37747 1111.8125 158.21069
241.7496 1111.8125 158.21069
247.12175 1111.8125 158.21069
252.49408 1111.8125 158.21069
260.22269 1101.6854 184.33008
265.6441 1101.6854 184.33008
273.52002 1091.5585 210.44922
278.99033 1091.5585 210.44922
284.46085 1091.5585 210.44922
292.62604 1081.0697 237.50171
298.14743 1081.0697 237.50171
-324.81729 1116.6763 130.94336
-319.4924 1116.6763 130.94336
-314.16751 1116.6763 130.94336
-308.84262 1116.6763 130.94336
-303.51782 1116.6763 130.94336
-298.19293 1116.6763 130.94336
-292.86804 1116.6763 130.94336
-284.98679 1126.4852 105.77539
-279.70923 1126.4852 105.77539
-274.43176 1126.4852 105.77539
-269.15424 1126.4852 105.77539
-263.87668 1126.4852 105.77539
-260.91879 1116.6763 130.94336
-253.32158 1126.4852 105.77539
-248.04411 1126.4852 105.77539
-244.9442 1116.6763 130.94336
-239.61931 1116.6763 130.94336
-234.29442 1116.6763 130.94336
-228.96953 1116.6763 130.94336
-223.64473 1116.6763 130.94336
-218.31984 1116.6763 130.94336
-212.99493 1116.6763 130.94336
-209.5163 1106.8673 156.11157
-204.14407 1106.8673 156.11157
-195.26877 1126.4852 105.77539
-188.35011 1135.9309 81.539551
-183.11813 1135.9309 81.539551
-177.88617 1135.9309 81.539551
-172.65421 1135.9309 81.539551
-167.42235 1135.9309 81.539551
-162.19038 1135.9309 81.539551
-156.9584 1135.9309 81.539551
-151.72644 1135.9309 81.539551
-146.49446 1135.9309 81.539551
-141.2626 1135.9309 81.539551
-136.03064 1135.9309 81.539551
-130.79868 1135.9309 81.539551
-125.5667 1135.9309 81.539551
-120.33474 1135.9309 81.539551
-115.10287 1135.9309 81.539551
-109.87091 1135.9309 81.539551
-104.63894 1135.9309 81.539551
-99.406967 1135.9309 81.539551
-94.175003 1135.9309 81.539551
-88.943138 1135.9309 81.539551
-83.711174 1135.9309 81.539551
-78.479202 1135.9309 81.539551
-73.247231 1135.9309 81.539551
-68.015266 1135.9309 81.539551
-62.236362 1145.3765 57.303467
-57.04998 1145.3765 57.303467
-51.863602 1145.3765 57.303467
-46.282722 1154.4589 33.999756
-41.140175 1154.4589 33.999756
-36.304562 1145.3765 57.303467
-30.855181 1154.4589 33.999756
-25.712635 1154.4589 33.999756
-20.927767 1135.9309 81.539551
-15.695801 1135.9309 81.539551
-10.463933 1135.9309 81.539551
-5.2319665 1135.9309 81.539551
0 1135.9309 81.539551
5.2318668 1135.9309 81.539551
10.463933 1135.9309 81.539551
15.695801 1135.9309 81.539551
20.927866 1135.9309 81.539551
26.159735 1135.9309 81.539551
31.391602 1135.9309 81.539551
36.623669 1135.9309 81.539551
41.855534 1135.9309 81.539551
47.087601 1135.9309 81.539551
52.319469 1135.9309 81.539551
57.551338 1135.9309 81.539551
62.783401 1135.9309 81.539551
68.015266 1135.9309 81.539551
73.247337 1135.9309 81.539551
78.479202 1135.9309 81.539551
83.711067 1135.9309 81.539551
89.718109 1126.4852 105.77539
94.99556 1126.4852 105.77539
100.27322 1126.4852 105.77539
106.49747 1116.6763 130.94336
111.82227 1116.6763 130.94336
117.14725 1116.6763 130.94336
121.38322 1126.4852 105.77539
126.66088 1126.4852 105.77539
131.93834 1126.4852 105.77539
178.90309 1096.6952 182.21191
184.32451 1096.6952 182.21191
189.74574 1096.6952 182.21191
195.16696 1096.6952 182.21191
200.58839 1096.6952 182.21191
206.00961 1096.6952 182.21191
209.5164 1106.8673 156.11157
214.88853 1106.8673 156.11157
220.26068 1106.8673 156.11157
225.63301 1106.8673 156.11157
231.00513 1106.8673 156.11157
236.37747 1106.8673 156.11157
241.7496 1106.8673 156.11157
247.12175 1106.8673 156.11157
254.80147 1096.6952 182.21191
260.22269 1096.6952 182.21191
265.6441 1096.6952 182.21191
273.52002 1086.5229 208.31177
278.99033 1086.5229 208.31177
284.46085 1086.5229 208.31177
292.62604 1075.9873 235.34448
298.14743 1075.9873 235.34448
303.66858 1075.9873 235.34448
-327.70502 1101.9221 154.01245
-322.33282 1101.9221 154.01245
-314.16751 1111.7748 128.86279
-308.84262 1111.7748 128.86279
-303.51782 1111.7748 128.86279
-298.19293 1111.7748 128.86279
-292.86804 1111.7748 128.86279
-284.98679 1121.6272 103.71338
-279.70923 1121.6272 103.71338
-274.43176 1121.6272 103.71338
-269.15424 1121.6272 103.71338
-263.87668 1121.6272 103.71338
-260.91879 1111.7748 128.86279
-255.59389 1111.7748 128.86279
-250.2691 1111.7748 128.86279
-244.9442 1111.7748 128.86279
-239.61931 1111.7748 128.86279
-234.29442 1111.7748 128.86279
-228.96953 1111.7748 128.86279
-225.63301 1101.9221 154.01245
-220.26077 1101.9221 154.01245
-214.88853 1101.9221 154.01245
-209.5163 1101.9221 154.01245
-204.14407 1101.9221 154.01245
-193.58208 1131.1149 79.495117
-188.35011 1131.1149 79.495117
-183.11813 1131.1149 79.495117
-177.88617 1131.1149 79.495117
-172.65421 1131.1149 79.495117
-167.42235 1131.1149 79.495117
-162.19038 1131.1149 79.495117
-156.9584 1131.1149 79.495117
-151.72644 1131.1149 79.495117
-146.49446 1131.1149 79.495117
-141.2626 1131.1149 79.495117
-136.03064 1131.1149 79.495117
-130.79868 1131.1149 79.495117
-125.5667 1131.1149 79.495117
-120.33474 1131.1149 79.495117
-115.10287 1131.1149 79.495117
-109.87091 1131.1149 79.495117
-104.63894 1131.1149 79.495117
-99.406967 1131.1149 79.495117
-94.175003 1131.1149 79.495117
-88.943138 1131.1149 79.495117
-83.711174 1131.1149 79.495117
-78.479202 1131.1149 79.495117
-73.247231 1131.1149 79.495117
-68.015266 1131.1149 79.495117
-62.236362 1140.6024 55.2771
-57.04998 1140.6024 55.2771
-51.863602 1140.6024 55.2771
-46.282722 1149.7251 31.990234
-41.140175 1149.7251 31.990234
-36.304562 1140.6024 55.2771
-30.855181 1149.7251 31.990234
-25.712635 1149.7251 31.990234
-20.927767 1131.1149 79.495117
-15.695801 1131.1149 79.495117
-10.463933 1131.1149 79.495117
-5.2319665 1131.1149 79.495117
0 1131.1149 79.495117
5.2318668 1131.1149 79.495117
10.463933 1131.1149 79.495117
15.695801 1131.1149 79.495117
20.927866 1131.1149 79.495117
26.159735 1131.1149 79.495117
31.391602 1131.1149 79.495117
36.623669 1131.1149 79.495117
41.855534 1131.1149 79.495117
47.087601 1131.1149 79.495117
52.319469 1131.1149 79.495117
57.551338 1131.1149 79.495117
62.783401 1131.1149 79.495117
68.015266 1131.1149 79.495117
73.247337 1131.1149 79.495117
78.479202 1131.1149 79.495117
83.711067 1131.1149 79.495117
89.718109 1121.6272 103.71338
94.99556 1121.6272 103.71338
100.27322 1121.6272 103.71338
106.49747 1111.7748 128.86279
111.82227 1111.7748 128.86279
117.14725 1111.7748 128.86279
121.38322 1121.6272 103.71338
126.66088 1121.6272 103.71338
131.93834 1121.6272 103.71338
139.67747 1101.9221 154.01245
178.90309 1091.7048 180.09351
184.32451 1091.7048 180.09351
189.74574 1091.7048 180.09351
195.16696 1091.7048 180.09351
200.58839 1091.7048 180.09351
206.00961 1091.7048 180.09351
211.43105 1091.7048 180.09351
214.88853 1101.9221 154.01245
220.26068 1101.9221 154.01245
225.63301 1101.9221 154.01245
231.00513 1101.9221 154.01245
236.37747 1101.9221 154.01245
241.7496 1101.9221 154.01245
247.12175 1101.9221 154.01245
254.80147 1091.7048 180.09351
260.22269 1091.7048 180.09351
265.6441 1091.7048 180.09351
273.52002 1081.4874 206.17432
278.99033 1081.4874 206.17432
284.46085 1081.4874 206.17432
292.62604 1070.905 233.18701
298.14743 1070.905 233.18701
303.66858 1070.905 233.18701
309.18973 1070.905 233.18701
-324.81729 1106.8732 126.78223
-319.4924 1106.8732 126.78223
-314.16751 1106.8732 126.78223
-308.84262 1106.8732 126.78223
-303.51782 1106.8732 126.78223
-298.19293 1106.8732 126.78223
-292.86804 1106.8732 126.78223
-287.54315 1106.8732 126.78223
-282.21826 1106.8732 126.78223
-276.89346 1106.8732 126.78223
-271.56857 1106.8732 126.78223
-266.24368 1106.8732 126.78223
-260.91879 1106.8732 126.78223
-255.59389 1106.8732 126.78223
-250.2691 1106.8732 126.78223
-247.12184 1096.9771 151.91333
-241.7496 1096.9771 151.91333
-236.37737 1096.9771 151.91333
-231.00513 1096.9771 151.91333
-227.69493 1086.7145 177.97534
-220.26077 1096.9771 151.91333
-214.88853 1096.9771 151.91333
-195.26877 1116.7692 101.65112
-189.99123 1116.7692 101.65112
-184.71367 1116.7692 101.65112
-179.43613 1116.7692 101.65112
-174.15857 1116.7692 101.65112
-167.42235 1126.2988 77.450928
-162.19038 1126.2988 77.450928
-156.9584 1126.2988 77.450928
-151.72644 1126.2988 77.450928
-146.49446 1126.2988 77.450928
-141.2626 1126.2988 77.450928
-136.03064 1126.2988 77.450928
-130.79868 1126.2988 77.450928
-125.5667 1126.2988 77.450928
-120.33474 1126.2988 77.450928
-115.10287 1126.2988 77.450928
-109.87091 1126.2988 77.450928
-104.63894 1126.2988 77.450928
-99.406967 1126.2988 77.450928
-94.175003 1126.2988 77.450928
-88.943138 1126.2988 77.450928
-83.711174 1126.2988 77.450928
-78.479202 1126.2988 77.450928
-73.247231 1126.2988 77.450928
-68.015266 1126.2988 77.450928
-62.236362 1135.8284 53.250488
-57.04998 1135.8284 53.250488
-51.863602 1135.8284 53.250488
-46.677223 1135.8284 53.250488
-41.490841 1135.8284 53.250488
-36.304562 1135.8284 53.250488
-31.118181 1135.8284 53.250488
-25.931801 1135.8284 53.250488
-20.927767 1126.2988 77.450928
-15.695801 1126.2988 77.450928
-10.463933 1126.2988 77.450928
-5.2319665 1126.2988 77.450928
0 1126.2988 77.450928
5.2318668 1126.2988 77.450928
10.463933 1126.2988 77.450928
15.695801 1126.2988 77.450928
20.927866 1126.2988 77.450928
26.159735 1126.2988 77.450928
31.391602 1126.2988 77.450928
36.623669 1126.2988 77.450928
41.855534 1126.2988 77.450928
47.087601 1126.2988 77.450928
52.319469 1126.2988 77.450928
57.551338 1126.2988 77.450928
62.783401 1126.2988 77.450928
68.015266 1126.2988 77.450928
73.247337 1126.2988 77.450928
78.479202 1126.2988 77.450928
84.44046 1116.7692 101.65112
89.718109 1116.7692 101.65112
94.99556 1116.7692 101.65112
100.27322 1116.7692 101.65112
106.49747 1106.8732 126.78223
111.82227 1106.8732 126.78223
117.14725 1106.8732 126.78223
122.47205 1106.8732 126.78223
127.79705 1106.8732 126.78223
134.30534 1096.9771 151.91333
139.67747 1096.9771 151.91333
184.32451 1086.7145 177.97534
189.74574 1086.7145 177.97534
195.16696 1086.7145 177.97534
200.58839 1086.7145 177.97534
206.00961 1086.7145 177.97534
211.43105 1086.7145 177.97534
216.85228 1086.7145 177.97534
222.2735 1086.7145 177.97534
227.69493 1086.7145 177.97534
231.00513 1096.9771 151.91333
236.37747 1096.9771 151.91333
241.7496 1096.9771 151.91333
247.12175 1096.9771 151.91333
254.80147 1086.7145 177.97534
260.22269 1086.7145 177.97534
265.6441 1086.7145 177.97534
273.52002 1076.4519 204.03687
278.99033 1076.4519 204.03687
284.46085 1076.4519 204.03687
292.62604 1065.8226 231.02979
295.40167 1076.4519 204.03687
300.87201 1076.4519 204.03687
306.34235 1076.4519 204.03687
-324.81729 1101.9717 124.70166
-319.4924 1101.9717 124.70166
-314.16751 1101.9717 124.70166
-308.84262 1101.9717 124.70166
-303.51782 1101.9717 124.70166
-295.5419 1111.9113 99.589111
-290.26434 1111.9113 99.589111
-284.98679 1111.9113 99.589111
-279.70923 1111.9113 99.589111
-274.43176 1111.9113 99.589111
-269.15424 1111.9113 99.589111
-263.87668 1111.9113 99.589111
-260.91879 1101.9717 124.70166
-255.59389 1101.9717 124.70166
-250.2691 1101.9717 124.70166
-247.12184 1092.0319 149.81421
-241.7496 1092.0319 149.81421
-238.53748 1081.7241 175.85693
-233.11615 1081.7241 175.85693
-227.69493 1081.7241 175.85693
-222.27361 1081.7241 175.85693
-216.85228 1081.7241 175.85693
-188.35011 1121.4828 75.406494
-183.11813 1121.4828 75.406494
-179.43613 1111.9113 99.589111
-174.15857 1111.9113 99.589111
-168.8811 1111.9113 99.589111
-162.19038 1121.4828 75.406494
-156.9584 1121.4828 75.406494
-151.72644 1121.4828 75.406494
-146.49446 1121.4828 75.406494
-141.2626 1121.4828 75.406494
-136.03064 1121.4828 75.406494
-130.79868 1121.4828 75.406494
-125.5667 1121.4828 75.406494
-120.33474 1121.4828 75.406494
-114.09996 1131.0543 51.224121
-108.91359 1131.0543 51.224121
-104.63894 1121.4828 75.406494
-99.406967 1121.4828 75.406494
-94.175003 1121.4828 75.406494
-88.943138 1121.4828 75.406494
-83.711174 1121.4828 75.406494
-78.479202 1121.4828 75.406494
-73.247231 1121.4828 75.406494
-68.015266 1121.4828 75.406494
-62.236362 1131.0543 51.224121
-57.04998 1131.0543 51.224121
-51.863602 1131.0543 51.224121
-46.677223 1131.0543 51.224121
-41.490841 1131.0543 51.224121
-36.304562 1131.0543 51.224121
-31.118181 1131.0543 51.224121
-25.931801 1131.0543 51.224121
-20.927767 1121.4828 75.406494
-15.695801 1121.4828 75.406494
-10.463933 1121.4828 75.406494
-5.2319665 1121.4828 75.406494
0 1121.4828 75.406494
5.2318668 1121.4828 75.406494
10.463933 1121.4828 75.406494
15.695801 1121.4828 75.406494
20.927866 1121.4828 75.406494
26.159735 1121.4828 75.406494
31.391602 1121.4828 75.406494
36.623669 1121.4828 75.406494
41.855534 1121.4828 75.406494
47.087601 1121.4828 75.406494
52.319469 1121.4828 75.406494
57.551338 1121.4828 75.406494
63.330441 1111.9113 99.589111
68.015266 1121.4828 75.406494
73.247337 1121.4828 75.406494
79.163002 1111.9113 99.589111
84.44046 1111.9113 99.589111
89.718109 1111.9113 99.589111
94.99556 1111.9113 99.589111
100.27322 1111.9113 99.589111
105.55067 1111.9113 99.589111
111.82227 1101.9717 124.70166
117.14725 1101.9717 124.70166
122.47205 1101.9717 124.70166
127.79705 1101.9717 124.70166
134.30534 1092.0319 149.81421
139.67747 1092.0319 149.81421
180.52318 1071.4164 201.89941
184.32451 1081.7241 175.85693
189.74574 1081.7241 175.85693
196.93433 1071.4164 201.89941
202.40485 1071.4164 201.89941
207.87517 1071.4164 201.89941
211.43105 1081.7241 175.85693
216.85228 1081.7241 175.85693
222.2735 1081.7241 175.85693
227.69493 1081.7241 175.85693
233.11615 1081.7241 175.85693
238.53758 1081.7241 175.85693
243.9588 1081.7241 175.85693
249.38004 1081.7241 175.85693
254.80147 1081.7241 175.85693
262.57916 1071.4164 201.89941
268.04968 1071.4164 201.89941
273.52002 1071.4164 201.89941
278.99033 1071.4164 201.89941
284.46085 1071.4164 201.89941
289.93118 1071.4164 201.89941
295.40167 1071.4164 201.89941
300.87201 1071.4164 201.89941
303.59311 1081.7241 175.85693
309.01453 1081.7241 175.85693
-324.81729 1097.0701 122.62085
-319.4924 1097.0701 122.62085
-314.16751 1097.0701 122.62085
-308.84262 1097.0701 122.62085
-303.51782 1097.0701 122.62085
-295.5419 1107.0532 97.5271
-290.26434 1107.0532 97.5271
-284.98679 1107.0532 97.5271
-279.70923 1107.0532 97.5271
-274.43176 1107.0532 97.5271
-269.15424 1107.0532 97.5271
-263.87668 1107.0532 97.5271
-260.91879 1097.0701 122.62085
-255.59389 1097.0701 122.62085
-250.2691 1097.0701 122.62085
-247.12184 1087.0868 147.71509
-241.7496 1087.0868 147.71509
-238.53748 1076.7338 173.73877
-233.11615 1076.7338 173.73877
-229.75684 1066.3809 199.76196
-224.28642 1066.3809 199.76196
-218.81601 1066.3809 199.76196
-188.35011 1116.6667 73.362305
-183.11813 1116.6667 73.362305
-179.43613 1107.0532 97.5271
-174.15857 1107.0532 97.5271
-168.8811 1107.0532 97.5271
-163.60356 1107.0532 97.5271
-156.9584 1116.6667 73.362305
-151.72644 1116.6667 73.362305
-146.49446 1116.6667 73.362305
-141.2626 1116.6667 73.362305
-136.03064 1116.6667 73.362305
-130.79868 1116.6667 73.362305
-125.5667 1116.6667 73.362305
-120.33474 1116.6667 73.362305
-114.09996 1126.2802 49.197754
-108.91359 1126.2802 49.197754
-104.63894 1116.6667 73.362305
-99.406967 1116.6667 73.362305
-94.175003 1116.6667 73.362305
-88.943138 1116.6667 73.362305
-83.711174 1116.6667 73.362305
-78.479202 1116.6667 73.362305
-73.247231 1116.6667 73.362305
-68.015266 1116.6667 73.362305
-62.783401 1116.6667 73.362305
-57.551434 1116.6667 73.362305
-52.319469 1116.6667 73.362305
-46.677223 1126.2802 49.197754
-41.490841 1126.2802 49.197754
-36.304562 1126.2802 49.197754
-31.118181 1126.2802 49.197754
-25.931801 1126.2802 49.197754
-20.927767 1116.6667 73.362305
-15.695801 1116.6667 73.362305
-10.463933 1116.6667 73.362305
-5.2319665 1116.6667 73.362305
0 1116.6667 73.362305
5.2318668 1116.6667 73.362305
10.463933 1116.6667 73.362305
15.695801 1116.6667 73.362305
20.927866 1116.6667 73.362305
26.159735 1116.6667 73.362305
31.391602 1116.6667 73.362305
36.623669 1116.6667 73.362305
41.855534 1116.6667 73.362305
47.087601 1116.6667 73.362305
52.319469 1116.6667 73.362305
57.551338 1116.6667 73.362305
62.783401 1116.6667 73.362305
68.607895 1107.0532 97.5271
73.885544 1107.0532 97.5271
79.163002 1107.0532 97.5271
84.44046 1107.0532 97.5271
89.718109 1107.0532 97.5271
94.99556 1107.0532 97.5271
100.27322 1107.0532 97.5271
105.55067 1107.0532 97.5271
111.82227 1097.0701 122.62085
117.14725 1097.0701 122.62085
122.47205 1097.0701 122.62085
127.79705 1097.0701 122.62085
134.30534 1087.0868 147.71509
139.67747 1087.0868 147.71509
180.52318 1066.3809 199.76196
184.32451 1076.7338 173.73877
189.74574 1076.7338 173.73877
196.93433 1066.3809 199.76196
202.40485 1066.3809 199.76196
207.87517 1066.3809 199.76196
211.43105 1076.7338 173.73877
216.85228 1076.7338 173.73877
222.2735 1076.7338 173.73877
227.69493 1076.7338 173.73877
233.11615 1076.7338 173.73877
238.53758 1076.7338 173.73877
243.9588 1076.7338 173.73877
249.38004 1076.7338 173.73877
257.10886 1066.3809 199.76196
262.57916 1066.3809 199.76196
268.04968 1066.3809 199.76196
273.52002 1066.3809 199.76196
278.99033 1066.3809 199.76196
284.46085 1066.3809 199.76196
289.93118 1066.3809 199.76196
295.40167 1066.3809 199.76196
300.87201 1066.3809 199.76196
303.59311 1076.7338 173.73877
309.01453 1076.7338 173.73877
-324.81729 1092.1685 120.54028
-319.4924 1092.1685 120.54028
-314.16751 1092.1685 120.54028
-308.84262 1092.1685 120.54028
-303.51782 1092.1685 120.54028
-295.5419 1102.1952 95.464844
-290.26434 1102.1952 95.464844
-287.54315 1092.1685 120.54028
-279.70923 1102.1952 95.464844
-274.43176 1102.1952 95.464844
-271.56857 1092.1685 120.54028
-266.24368 1092.1685 120.54028
-260.91879 1092.1685 120.54028
-257.86621 1082.1416 145.61621
-252.49408 1082.1416 145.61621
-247.12184 1082.1416 145.61621
-241.7496 1082.1416 145.61621
-238.53748 1071.7434 171.62036
-233.11615 1071.7434 171.62036
-229.75684 1061.3453 197.62451
-224.28642 1061.3453 197.62451
-216.85228 1071.7434 171.62036
-211.43095 1071.7434 171.62036
-189.99123 1102.1952 95.464844
-184.71367 1102.1952 95.464844
-179.43613 1102.1952 95.464844
-174.15857 1102.1952 95.464844
-168.8811 1102.1952 95.464844
-163.60356 1102.1952 95.464844
-158.326 1102.1952 95.464844
-151.72644 1111.8507 71.318115
-146.49446 1111.8507 71.318115
-141.2626 1111.8507 71.318115
-136.03064 1111.8507 71.318115
-130.79868 1111.8507 71.318115
-125.5667 1111.8507 71.318115
-120.33474 1111.8507 71.318115
-114.09996 1121.5061 47.171143
-108.91359 1121.5061 47.171143
-104.63894 1111.8507 71.318115
-99.406967 1111.8507 71.318115
-94.175003 1111.8507 71.318115
-88.943138 1111.8507 71.318115
-83.711174 1111.8507 71.318115
-78.479202 1111.8507 71.318115
-73.247231 1111.8507 71.318115
-68.015266 1111.8507 71.318115
-62.783401 1111.8507 71.318115
-57.551434 1111.8507 71.318115
-52.319469 1111.8507 71.318115
-46.677223 1121.5061 47.171143
-41.490841 1121.5061 47.171143
-36.304562 1121.5061 47.171143
-31.118181 1121.5061 47.171143
-25.931801 1121.5061 47.171143
-20.927767 1111.8507 71.318115
-15.695801 1111.8507 71.318115
-10.463933 1111.8507 71.318115
-5.2319665 1111.8507 71.318115
0 1111.8507 71.318115
5.2318668 1111.8507 71.318115
10.463933 1111.8507 71.318115
15.695801 1111.8507 71.318115
20.927866 1111.8507 71.318115
26.159735 1111.8507 71.318115
31.391602 1111.8507 71.318115
36.623669 1111.8507 71.318115
41.855534 1111.8507 71.318115
47.087601 1111.8507 71.318115
52.319469 1111.8507 71.318115
57.551338 1111.8507 71.318115
62.783401 1111.8507 71.318115
68.607895 1102.1952 95.464844
73.885544 1102.1952 95.464844
79.163002 1102.1952 95.464844
84.44046 1102.1952 95.464844
89.718109 1102.1952 95.464844
94.99556 1102.1952 95.464844
100.27322 1102.1952 95.464844
106.49747 1092.1685 120.54028
111.82227 1092.1685 120.54028
117.14725 1092.1685 120.54028
122.47205 1092.1685 120.54028
127.79705 1092.1685 120.54028
134.30534 1082.1416 145.61621
140.9539 1071.7434 171.62036
146.37532 1071.7434 171.62036
180.52318 1061.3453 197.62451
185.9937 1061.3453 197.62451
191.464 1061.3453 197.62451
196.93433 1061.3453 197.62451
202.40485 1061.3453 197.62451
207.87517 1061.3453 197.62451
213.34569 1061.3453 197.62451
216.85228 1071.7434 171.62036
222.2735 1071.7434 171.62036
227.69493 1071.7434 171.62036
233.11615 1071.7434 171.62036
238.53758 1071.7434 171.62036
243.9588 1071.7434 171.62036
249.38004 1071.7434 171.62036
257.10886 1061.3453 197.62451
262.57916 1061.3453 197.62451
268.04968 1061.3453 197.62451
273.52002 1061.3453 197.62451
278.99033 1061.3453 197.62451
284.46085 1061.3453 197.62451
289.93118 1061.3453 197.62451
295.40167 1061.3453 197.62451
300.87201 1061.3453 197.62451
303.59311 1071.7434 171.62036
309.01453 1071.7434 171.62036
314.43576 1071.7434 171.62036
-333.0773 1077.1964 143.51709
-324.81729 1087.267 118.45972
-319.4924 1087.267 118.45972
-316.9606 1077.1964 143.51709
-308.84262 1087.267 118.45972
-303.51782 1087.267 118.45972
-298.19293 1087.267 118.45972
-292.86804 1087.267 118.45972
-287.54315 1087.267 118.45972
-282.21826 1087.267 118.45972
-276.89346 1087.267 118.45972
-271.56857 1087.267 118.45972
-266.24368 1087.267 118.45972
-260.91879 1087.267 118.45972
-257.86621 1077.1964 143.51709
-252.49408 1077.1964 143.51709
-249.38014 1066.7532 169.5022
-243.9588 1066.7532 169.5022
-238.53748 1066.7532 169.5022
-235.22717 1056.3098 195.48706
-229.75684 1056.3098 195.48706
-224.28642 1056.3098 195.48706
-216.85228 1066.7532 169.5022
-211.43095 1066.7532 169.5022
-189.99123 1097.3373 93.402832
-184.71367 1097.3373 93.402832
-179.43613 1097.3373 93.402832
-174.15857 1097.3373 93.402832
-168.8811 1097.3373 93.402832
-163.60356 1097.3373 93.402832
-158.326 1097.3373 93.402832
-151.72644 1107.0347 69.273682
-146.49446 1107.0347 69.273682
-141.2626 1107.0347 69.273682
-136.03064 1107.0347 69.273682
-130.79868 1107.0347 69.273682
-125.5667 1107.0347 69.273682
-120.33474 1107.0347 69.273682
-114.09996 1116.7321 45.144775
-108.91359 1116.7321 45.144775
-104.63894 1107.0347 69.273682
-99.406967 1107.0347 69.273682
-94.175003 1107.0347 69.273682
-88.943138 1107.0347 69.273682
-83.711174 1107.0347 69.273682
-78.479202 1107.0347 69.273682
-73.247231 1107.0347 69.273682
-68.015266 1107.0347 69.273682
-62.783401 1107.0347 69.273682
-57.551434 1107.0347 69.273682
-52.319469 1107.0347 69.273682
-46.677223 1116.7321 45.144775
-41.490841 1116.7321 45.144775
-36.304562 1116.7321 45.144775
-31.118181 1116.7321 45.144775
-25.931801 1116.7321 45.144775
-20.927767 1107.0347 69.273682
-15.695801 1107.0347 69.273682
-10.463933 1107.0347 69.273682
-5.2319665 1107.0347 69.273682
0 1107.0347 69.273682
5.2318668 1107.0347 69.273682
10.463933 1107.0347 69.273682
15.695801 1107.0347 69.273682
20.927866 1107.0347 69.273682
26.159735 1107.0347 69.273682
31.391602 1107.0347 69.273682
36.623669 1107.0347 69.273682
41.855534 1107.0347 69.273682
47.087601 1107.0347 69.273682
52.319469 1107.0347 69.273682
57.551338 1107.0347 69.273682
63.330441 1097.3373 93.402832
68.607895 1097.3373 93.402832
73.885544 1097.3373 93.402832
79.163002 1097.3373 93.402832
84.44046 1097.3373 93.402832
89.718109 1097.3373 93.402832
94.99556 1097.3373 93.402832
100.27322 1097.3373 93.402832
106.49747 1087.267 118.45972
111.82227 1087.267 118.45972
117.14725 1087.267 118.45972
123.56087 1077.1964 143.51709
128.9332 1077.1964 143.51709
134.30534 1077.1964 143.51709
140.9539 1066.7532 169.5022
146.37532 1066.7532 169.5022
185.9937 1056.3098 195.48706
191.464 1056.3098 195.48706
196.93433 1056.3098 195.48706
202.40485 1056.3098 195.48706
207.87517 1056.3098 195.48706
213.34569 1056.3098 195.48706
218.81601 1056.3098 195.48706
222.2735 1066.7532 169.5022
227.69493 1066.7532 169.5022
233.11615 1066.7532 169.5022
238.53758 1066.7532 169.5022
243.9588 1066.7532 169.5022
249.38004 1066.7532 169.5022
257.10886 1056.3098 195.48706
262.57916 1056.3098 195.48706
268.04968 1056.3098 195.48706
273.52002 1056.3098 195.48706
278.99033 1056.3098 195.48706
284.46085 1056.3098 195.48706
289.93118 1056.3098 195.48706
295.40167 1056.3098 195.48706
300.87201 1056.3098 195.48706
303.59311 1066.7532 169.5022
309.01453 1066.7532 169.5022
314.43576 1066.7532 169.5022
-338.4494 1072.2513 141.41797
-330.14221 1082.3654 116.37915
-324.81729 1082.3654 116.37915
-319.4924 1082.3654 116.37915
-316.9606 1072.2513 141.41797
-311.58835 1072.2513 141.41797
-303.51782 1082.3654 116.37915
-298.19293 1082.3654 116.37915
-292.86804 1082.3654 116.37915
-287.54315 1082.3654 116.37915
-282.21826 1082.3654 116.37915
-276.89346 1082.3654 116.37915
-271.56857 1082.3654 116.37915
-266.24368 1082.3654 116.37915
-260.91879 1082.3654 116.37915
-257.86621 1072.2513 141.41797
-252.49408 1072.2513 141.41797
-249.38014 1061.7628 167.38403
-243.9588 1061.7628 167.38403
-238.53748 1061.7628 167.38403
-235.22717 1051.2743 193.34961
-229.75684 1051.2743 193.34961
-224.28642 1051.2743 193.34961
-218.81601 1051.2743 193.34961
-213.3456 1051.2743 193.34961
-184.71367 1092.4792 91.34082
-179.43613 1092.4792 91.34082
-174.15857 1092.4792 91.34082
-168.8811 1092.4792 91.34082
-163.60356 1092.4792 91.34082
-158.326 1092.4792 91.34082
-151.72644 1102.2188 67.229492
-146.49446 1102.2188 67.229492
-141.2626 1102.2188 67.229492
-136.03064 1102.2188 67.229492
-130.79868 1102.2188 67.229492
-125.5667 1102.2188 67.229492
-120.33474 1102.2188 67.229492
-115.10287 1102.2188 67.229492
-109.87091 1102.2188 67.229492
-104.63894 1102.2188 67.229492
-99.406967 1102.2188 67.229492
-94.175003 1102.2188 67.229492
-88.943138 1102.2188 67.229492
-83.711174 1102.2188 67.229492
-78.479202 1102.2188 67.229492
-73.247231 1102.2188 67.229492
-68.015266 1102.2188 67.229492
-62.783401 1102.2188 67.229492
-57.551434 1102.2188 67.229492
-52.319469 1102.2188 67.229492
-47.087502 1102.2188 67.229492
-41.855534 1102.2188 67.229492
-36.304562 1111.958 43.118164
-31.118181 1111.958 43.118164
-25.931801 1111.958 43.118164
-20.927767 1102.2188 67.229492
-15.695801 1102.2188 67.229492
-10.463933 1102.2188 67.229492
-5.2319665 1102.2188 67.229492
0 1102.2188 67.229492
5.2318668 1102.2188 67.229492
10.463933 1102.2188 67.229492
15.695801 1102.2188 67.229492
20.927866 1102.2188 67.229492
26.159735 1102.2188 67.229492
31.118082 1111.958 43.118164
36.304562 1111.958 43.118164
41.855534 1102.2188 67.229492
47.087601 1102.2188 67.229492
52.319469 1102.2188 67.229492
58.052788 1092.4792 91.34082
63.330441 1092.4792 91.34082
68.607895 1092.4792 91.34082
73.885544 1092.4792 91.34082
79.163002 1092.4792 91.34082
84.44046 1092.4792 91.34082
89.718109 1092.4792 91.34082
95.847679 1082.3654 116.37915
101.17268 1082.3654 116.37915
106.49747 1082.3654 116.37915
111.82227 1082.3654 116.37915
117.14725 1082.3654 116.37915
123.56087 1072.2513 141.41797
128.9332 1072.2513 141.41797
135.53267 1061.7628 167.38403
142.23032 1051.2743 193.34961
149.07372 1040.411 220.24316
191.464 1051.2743 193.34961
196.93433 1051.2743 193.34961
202.40485 1051.2743 193.34961
207.87517 1051.2743 193.34961
213.34569 1051.2743 193.34961
218.81601 1051.2743 193.34961
222.2735 1061.7628 167.38403
227.69493 1061.7628 167.38403
235.22717 1051.2743 193.34961
240.69769 1051.2743 193.34961
246.16801 1051.2743 193.34961
251.63832 1051.2743 193.34961
257.10886 1051.2743 193.34961
262.57916 1051.2743 193.34961
268.04968 1051.2743 193.34961
273.52002 1051.2743 193.34961
278.99033 1051.2743 193.34961
284.46085 1051.2743 193.34961
289.93118 1051.2743 193.34961
295.40167 1051.2743 193.34961
300.87201 1051.2743 193.34961
306.34235 1051.2743 193.34961
309.01453 1061.7628 167.38403
314.43576 1061.7628 167.38403
322.75369 1051.2743 193.34961
-346.96362 1056.7725 165.26562
-338.4494 1067.3062 139.31885
-330.14221 1077.4637 114.29858
-324.81729 1077.4637 114.29858
-319.4924 1077.4637 114.29858
-316.9606 1067.3062 139.31885
-311.58835 1067.3062 139.31885
-303.51782 1077.4637 114.29858
-298.19293 1077.4637 114.29858
-292.86804 1077.4637 114.29858
-287.54315 1077.4637 114.29858
-282.21826 1077.4637 114.29858
-276.89346 1077.4637 114.29858
-271.56857 1077.4637 114.29858
-266.24368 1077.4637 114.29858
-260.91879 1077.4637 114.29858
-257.86621 1067.3062 139.31885
-252.49408 1067.3062 139.31885
-249.38014 1056.7725 165.26562
-243.9588 1056.7725 165.26562
-238.53748 1056.7725 165.26562
-235.22717 1046.2388 191.21216
-229.75684 1046.2388 191.21216
-224.28642 1046.2388 191.21216
-218.81601 1046.2388 191.21216
-184.71367 1087.6213 89.278564
-179.43613 1087.6213 89.278564
-174.15857 1087.6213 89.278564
-168.8811 1087.6213 89.278564
-163.60356 1087.6213 89.278564
-158.326 1087.6213 89.278564
-151.72644 1097.4027 65.185303
-146.49446 1097.4027 65.185303
-141.2626 1097.4027 65.185303
-136.03064 1097.4027 65.185303
-130.79868 1097.4027 65.185303
-125.5667 1097.4027 65.185303
-120.33474 1097.4027 65.185303
-115.10287 1097.4027 65.185303
-109.87091 1097.4027 65.185303
-104.63894 1097.4027 65.185303
-99.406967 1097.4027 65.185303
-94.175003 1097.4027 65.185303
-88.943138 1097.4027 65.185303
-83.711174 1097.4027 65.185303
-78.479202 1097.4027 65.185303
-73.247231 1097.4027 65.185303
-68.015266 1097.4027 65.185303
-62.783401 1097.4027 65.185303
-57.551434 1097.4027 65.185303
-52.319469 1097.4027 65.185303
-47.087502 1097.4027 65.185303
-41.855534 1097.4027 65.185303
-36.623669 1097.4027 65.185303
-31.391701 1097.4027 65.185303
-26.159735 1097.4027 65.185303
-20.927767 1097.4027 65.185303
-15.695801 1097.4027 65.185303
-10.463933 1097.4027 65.185303
-5.2319665 1097.4027 65.185303
0 1097.4027 65.185303
5.1862807 1107.184 41.091797
10.37276 1107.184 41.091797
15.695801 1097.4027 65.185303
20.927866 1097.4027 65.185303
26.159735 1097.4027 65.185303
31.118082 1107.184 41.091797
36.304562 1107.184 41.091797
41.855534 1097.4027 65.185303
47.087601 1097.4027 65.185303
52.319469 1097.4027 65.185303
58.052788 1087.6213 89.278564
63.330441 1087.6213 89.278564
68.607895 1087.6213 89.278564
73.885544 1087.6213 89.278564
79.163002 1087.6213 89.278564
84.44046 1087.6213 89.278564
90.522888 1077.4637 114.29858
95.847679 1077.4637 114.29858
101.17268 1077.4637 114.29858
106.49747 1077.4637 114.29858
111.82227 1077.4637 114.29858
117.14725 1077.4637 114.29858
123.56087 1067.3062 139.31885
128.9332 1067.3062 139.31885
135.53267 1056.7725 165.26562
142.23032 1046.2388 191.21216
149.07372 1035.3287 218.08594
154.59486 1035.3287 218.08594
191.464 1046.2388 191.21216
196.93433 1046.2388 191.21216
202.40485 1046.2388 191.21216
207.87517 1046.2388 191.21216
213.34569 1046.2388 191.21216
218.81601 1046.2388 191.21216
224.28632 1046.2388 191.21216
229.75684 1046.2388 191.21216
235.22717 1046.2388 191.21216
240.69769 1046.2388 191.21216
246.16801 1046.2388 191.21216
251.63832 1046.2388 191.21216
257.10886 1046.2388 191.21216
262.57916 1046.2388 191.21216
268.04968 1046.2388 191.21216
273.52002 1046.2388 191.21216
278.99033 1046.2388 191.21216
284.46085 1046.2388 191.21216
289.93118 1046.2388 191.21216
295.40167 1046.2388 191.21216
300.87201 1046.2388 191.21216
306.34235 1046.2388 191.21216
311.81284 1046.2388 191.21216
317.28317 1046.2388 191.21216
322.75369 1046.2388 191.21216
-346.96362 1051.7821 163.14746
-338.4494 1062.3611 137.21973
-333.0773 1062.3611 137.21973
-324.81729 1072.5623 112.21802
