ply
format ascii 1.0
comment PCL generated
element vertex 1585
property float x
property float y
property float z
element camera 0
property float view_px
property float view_py
property float view_pz
property float x_axisx
property float x_axisy
property float x_axisz
property float y_axisx
property float y_axisy
property float y_axisz
property float z_axisx
property float z_axisy
property float z_axisz
property float focal
property float scalex
property float scaley
property float centerx
property float centery
property int viewportx
property int viewporty
property float k1
property float k2
end_header
59.634293 737.39075 29.696289
65.055725 737.39075 29.696289
70.476952 737.39075 29.696289
75.898376 737.39075 29.696289
81.319603 737.39075 29.696289
86.740829 737.39075 29.696289
92.162254 737.39075 29.696289
97.583481 737.39075 29.696289
103.00491 737.39075 29.696289
108.42614 737.39075 29.696289
113.84736 737.39075 29.696289
119.26879 737.39075 29.696289
124.69002 737.39075 29.696289
130.11145 737.39075 29.696289
135.53267 737.39075 29.696289
140.9539 737.39075 29.696289
146.37532 737.39075 29.696289
151.79655 737.39075 29.696289
157.21799 737.39075 29.696289
162.63921 737.39075 29.696289
168.06042 737.39075 29.696289
173.48186 737.39075 29.696289
180.52318 723.96484 54.415039
185.9937 723.96484 54.415039
193.24364 710.05933 80.01709
198.7648 710.05933 80.01709
340.6376 667.38403 158.58838
343.10623 681.76892 132.104
348.73102 681.76892 132.104
357.66946 667.38403 158.58838
363.34686 667.38403 158.58838
369.02408 667.38403 158.58838
374.70129 667.38403 158.58838
380.37869 667.38403 158.58838
386.05594 667.38403 158.58838
391.73334 667.38403 158.58838
397.41055 667.38403 158.58838
403.08774 667.38403 158.58838
408.76517 667.38403 158.58838
-392.00854 704.97693 77.859863
-382.92801 718.9292 52.277588
-377.45758 718.9292 52.277588
-375.44473 704.97693 77.859863
-369.92358 704.97693 77.859863
-364.40231 704.97693 77.859863
-358.88104 704.97693 77.859863
-353.3598 704.97693 77.859863
-347.8385 704.97693 77.859863
-342.31735 704.97693 77.859863
-336.79605 704.97693 77.859863
-334.32562 691.02466 103.44189
-328.75351 691.02466 103.44189
-187.72237 704.97693 77.859863
-180.52318 718.9292 52.277588
-175.05284 718.9292 52.277588
-169.58243 718.9292 52.277588
-164.112 718.9292 52.277588
-158.64159 718.9292 52.277588
-151.79655 732.40039 27.577881
-146.37532 732.40039 27.577881
-140.95399 732.40039 27.577881
-135.53267 732.40039 27.577881
-130.11134 732.40039 27.577881
-125.81916 718.9292 52.277588
-120.34885 718.9292 52.277588
-114.87842 718.9292 52.277588
-109.408 718.9292 52.277588
-103.93758 718.9292 52.277588
-98.467163 718.9292 52.277588
-92.162254 732.40039 27.577881
-86.740929 732.40039 27.577881
-81.319603 732.40039 27.577881
-75.898277 732.40039 27.577881
-70.476952 732.40039 27.577881
-65.055725 732.40039 27.577881
-59.634396 732.40039 27.577881
-54.704002 718.9292 52.277588
-49.233582 718.9292 52.277588
-43.763157 718.9292 52.277588
-37.949188 732.40039 27.577881
-32.527863 732.40039 27.577881
-27.352001 718.9292 52.277588
-21.685207 732.40039 27.577881
-16.26388 732.40039 27.577881
-10.842655 732.40039 27.577881
-5.4213276 732.40039 27.577881
0 732.40039 27.577881
5.4212241 732.40039 27.577881
10.842655 732.40039 27.577881
16.26388 732.40039 27.577881
21.68531 732.40039 27.577881
27.106535 732.40039 27.577881
32.52776 732.40039 27.577881
37.949188 732.40039 27.577881
43.370415 732.40039 27.577881
48.791843 732.40039 27.577881
54.21307 732.40039 27.577881
59.634293 732.40039 27.577881
65.055725 732.40039 27.577881
70.476952 732.40039 27.577881
75.898376 732.40039 27.577881
81.319603 732.40039 27.577881
86.740829 732.40039 27.577881
92.162254 732.40039 27.577881
97.583481 732.40039 27.577881
103.00491 732.40039 27.577881
108.42614 732.40039 27.577881
113.84736 732.40039 27.577881
119.26879 732.40039 27.577881
125.81916 718.9292 52.277588
130.11145 732.40039 27.577881
135.53267 732.40039 27.577881
140.9539 732.40039 27.577881
146.37532 732.40039 27.577881
151.79655 732.40039 27.577881
157.21799 732.40039 27.577881
162.63921 732.40039 27.577881
168.06042 732.40039 27.577881
175.05284 718.9292 52.277588
180.52318 718.9292 52.277588
187.72247 704.97693 77.859863
193.24364 704.97693 77.859863
200.59528 691.02466 103.44189
340.6376 662.15796 156.37012
343.10623 676.59131 129.90625
348.73102 676.59131 129.90625
357.66946 662.15796 156.37012
363.34686 662.15796 156.37012
369.02408 662.15796 156.37012
374.70129 662.15796 156.37012
380.37869 662.15796 156.37012
389.75195 647.24341 183.71655
391.73334 662.15796 156.37012
397.41055 662.15796 156.37012
403.08774 662.15796 156.37012
408.76517 662.15796 156.37012
-392.00854 699.89465 75.702637
-386.48727 699.89465 75.702637
-380.96603 699.89465 75.702637
-375.44473 699.89465 75.702637
-369.92358 699.89465 75.702637
-364.40231 699.89465 75.702637
-358.88104 699.89465 75.702637
-353.3598 699.89465 75.702637
-347.8385 699.89465 75.702637
-342.31735 699.89465 75.702637
-336.79605 699.89465 75.702637
-334.32562 685.89563 101.26465
-328.75351 685.89563 101.26465
-180.52318 713.8938 50.140137
-175.05284 713.8938 50.140137
-169.58243 713.8938 50.140137
-164.112 713.8938 50.140137
-158.64159 713.8938 50.140137
-151.79655 727.41016 25.459717
-146.37532 727.41016 25.459717
-140.95399 727.41016 25.459717
-135.53267 727.41016 25.459717
-130.11134 727.41016 25.459717
-125.81916 713.8938 50.140137
-120.34885 713.8938 50.140137
-114.87842 713.8938 50.140137
-109.408 713.8938 50.140137
-103.93758 713.8938 50.140137
-98.467163 713.8938 50.140137
-92.162254 727.41016 25.459717
-86.740929 727.41016 25.459717
-82.056 713.8938 50.140137
-76.585587 713.8938 50.140137
-71.115158 713.8938 50.140137
-65.055725 727.41016 25.459717
-59.634396 727.41016 25.459717
-54.704002 713.8938 50.140137
-49.233582 713.8938 50.140137
-43.763157 713.8938 50.140137
-38.292843 713.8938 50.140137
-32.822422 713.8938 50.140137
-27.352001 713.8938 50.140137
-21.685207 727.41016 25.459717
-16.26388 727.41016 25.459717
-10.842655 727.41016 25.459717
-5.4213276 727.41016 25.459717
0 727.41016 25.459717
5.4212241 727.41016 25.459717
10.842655 727.41016 25.459717
16.26388 727.41016 25.459717
21.68531 727.41016 25.459717
27.106535 727.41016 25.459717
32.52776 727.41016 25.459717
37.949188 727.41016 25.459717
43.370415 727.41016 25.459717
49.233688 713.8938 50.140137
54.704002 713.8938 50.140137
59.634293 727.41016 25.459717
65.055725 727.41016 25.459717
70.476952 727.41016 25.459717
75.898376 727.41016 25.459717
81.319603 727.41016 25.459717
86.740829 727.41016 25.459717
92.162254 727.41016 25.459717
97.583481 727.41016 25.459717
103.00491 727.41016 25.459717
108.42614 727.41016 25.459717
113.84736 727.41016 25.459717
120.34885 713.8938 50.140137
125.81916 713.8938 50.140137
130.11145 727.41016 25.459717
135.53267 727.41016 25.459717
140.9539 727.41016 25.459717
146.37532 727.41016 25.459717
151.79655 727.41016 25.459717
157.21799 727.41016 25.459717
162.63921 727.41016 25.459717
168.06042 727.41016 25.459717
175.05284 713.8938 50.140137
180.52318 713.8938 50.140137
187.72247 699.89465 75.702637
195.02327 685.89563 101.26465
202.48888 671.41382 127.7085
343.10623 671.41382 127.7085
348.73102 671.41382 127.7085
357.66946 656.93201 154.15186
363.34686 656.93201 154.15186
372.55704 641.96753 181.47705
378.2886 641.96753 181.47705
384.02039 641.96753 181.47705
389.75195 641.96753 181.47705
395.48373 641.96753 181.47705
397.41055 656.93201 154.15186
403.08774 656.93201 154.15186
408.76517 656.93201 154.15186
-392.00854 694.81226 73.545166
-386.48727 694.81226 73.545166
-380.96603 694.81226 73.545166
-375.44473 694.81226 73.545166
-369.92358 694.81226 73.545166
-364.40231 694.81226 73.545166
-358.88104 694.81226 73.545166
-353.3598 694.81226 73.545166
-347.8385 694.81226 73.545166
-342.31735 694.81226 73.545166
-336.79605 694.81226 73.545166
-334.32562 680.76636 99.087402
-328.75351 680.76636 99.087402
-175.05284 708.85815 48.002686
-169.58243 708.85815 48.002686
-164.112 708.85815 48.002686
-158.64159 708.85815 48.002686
-151.79655 722.41968 23.341309
-146.37532 722.41968 23.341309
-140.95399 722.41968 23.341309
-135.53267 722.41968 23.341309
-131.28958 708.85815 48.002686
-125.81916 708.85815 48.002686
-120.34885 708.85815 48.002686
-114.87842 708.85815 48.002686
-109.408 708.85815 48.002686
-103.00481 722.41968 23.341309
-97.583481 722.41968 23.341309
-92.162254 722.41968 23.341309
-86.740929 722.41968 23.341309
-82.056 708.85815 48.002686
-76.585587 708.85815 48.002686
-71.115158 708.85815 48.002686
-65.644844 708.85815 48.002686
-60.174423 708.85815 48.002686
-54.704002 708.85815 48.002686
-49.233582 708.85815 48.002686
-43.763157 708.85815 48.002686
-38.292843 708.85815 48.002686
-32.822422 708.85815 48.002686
-27.352001 708.85815 48.002686
-21.685207 722.41968 23.341309
-16.26388 722.41968 23.341309
-10.842655 722.41968 23.341309
-5.4213276 722.41968 23.341309
0 722.41968 23.341309
5.4212241 722.41968 23.341309
10.842655 722.41968 23.341309
16.26388 722.41968 23.341309
21.68531 722.41968 23.341309
27.106535 722.41968 23.341309
32.52776 722.41968 23.341309
37.949188 722.41968 23.341309
43.370415 722.41968 23.341309
49.233688 708.85815 48.002686
54.704002 708.85815 48.002686
59.634293 722.41968 23.341309
65.055725 722.41968 23.341309
70.476952 722.41968 23.341309
75.898376 722.41968 23.341309
81.319603 722.41968 23.341309
86.740829 722.41968 23.341309
92.162254 722.41968 23.341309
98.467163 708.85815 48.002686
103.93769 708.85815 48.002686
108.42614 722.41968 23.341309
113.84736 722.41968 23.341309
120.34885 708.85815 48.002686
125.81916 708.85815 48.002686
131.28969 708.85815 48.002686
135.53267 722.41968 23.341309
140.9539 722.41968 23.341309
146.37532 722.41968 23.341309
151.79655 722.41968 23.341309
157.21799 722.41968 23.341309
162.63921 722.41968 23.341309
168.06042 722.41968 23.341309
175.05284 708.85815 48.002686
182.2011 694.81226 73.545166
189.45126 680.76636 99.087402
196.86427 666.23621 125.51074
202.48888 666.23621 125.51074
346.31482 651.70605 151.93359
351.99222 651.70605 151.93359
357.66946 651.70605 151.93359
363.34686 651.70605 151.93359
372.55704 636.69141 179.23755
378.2886 636.69141 179.23755
384.02039 636.69141 179.23755
389.75195 636.69141 179.23755
395.48373 636.69141 179.23755
397.41055 651.70605 151.93359
403.08774 651.70605 151.93359
-393.72855 661.05872 123.31299
-388.10385 661.05872 123.31299
-375.44473 689.72998 71.387939
-369.92358 689.72998 71.387939
-364.40231 689.72998 71.387939
-358.88104 689.72998 71.387939
-353.3598 689.72998 71.387939
-347.8385 689.72998 71.387939
-342.31735 689.72998 71.387939
-336.79605 689.72998 71.387939
-334.32562 675.63733 96.9104
-328.75351 675.63733 96.9104
-176.67995 689.72998 71.387939
-171.15868 689.72998 71.387939
-165.63741 689.72998 71.387939
-158.64159 703.82275 45.865234
-153.17117 703.82275 45.865234
-146.37532 717.42944 21.223145
-140.95399 717.42944 21.223145
-135.53267 717.42944 21.223145
-131.28958 703.82275 45.865234
-125.81916 703.82275 45.865234
-120.34885 703.82275 45.865234
-114.87842 703.82275 45.865234
-109.408 703.82275 45.865234
-103.00481 717.42944 21.223145
-97.583481 717.42944 21.223145
-92.162254 717.42944 21.223145
-86.740929 717.42944 21.223145
-82.056 703.82275 45.865234
-76.585587 703.82275 45.865234
-71.115158 703.82275 45.865234
-65.644844 703.82275 45.865234
-60.174423 703.82275 45.865234
-54.704002 703.82275 45.865234
-49.233582 703.82275 45.865234
-43.763157 703.82275 45.865234
-38.292843 703.82275 45.865234
-32.822422 703.82275 45.865234
-27.352001 703.82275 45.865234
-21.685207 717.42944 21.223145
-16.26388 717.42944 21.223145
-10.842655 717.42944 21.223145
-5.4213276 717.42944 21.223145
0 717.42944 21.223145
5.4212241 717.42944 21.223145
10.842655 717.42944 21.223145
16.26388 717.42944 21.223145
21.68531 717.42944 21.223145
27.106535 717.42944 21.223145
32.52776 717.42944 21.223145
37.949188 717.42944 21.223145
43.763157 703.82275 45.865234
49.233688 703.82275 45.865234
54.704002 703.82275 45.865234
59.634293 717.42944 21.223145
65.055725 717.42944 21.223145
70.476952 717.42944 21.223145
75.898376 717.42944 21.223145
81.319603 717.42944 21.223145
86.740829 717.42944 21.223145
92.162254 717.42944 21.223145
98.467163 703.82275 45.865234
103.93769 703.82275 45.865234
108.42614 717.42944 21.223145
113.84736 717.42944 21.223145
120.34885 703.82275 45.865234
125.81916 703.82275 45.865234
131.28969 703.82275 45.865234
135.53267 717.42944 21.223145
140.9539 717.42944 21.223145
146.37532 717.42944 21.223145
151.79655 717.42944 21.223145
157.21799 717.42944 21.223145
164.112 703.82275 45.865234
169.58232 703.82275 45.865234
175.05284 703.82275 45.865234
182.2011 689.72998 71.387939
189.45126 675.63733 96.9104
196.86427 661.05872 123.31299
204.38248 646.4801 149.71533
348.73102 661.05872 123.31299
354.35565 661.05872 123.31299
363.34686 646.4801 149.71533
372.55704 631.41553 176.99805
378.2886 631.41553 176.99805
380.37869 646.4801 149.71533
386.05594 646.4801 149.71533
391.73334 646.4801 149.71533
401.21527 631.41553 176.99805
-401.19077 670.50818 94.733154
-395.61865 670.50818 94.733154
-390.04654 670.50818 94.733154
-388.10385 655.8811 121.11523
-375.44473 684.64758 69.230469
-369.92358 684.64758 69.230469
-364.40231 684.64758 69.230469
-358.88104 684.64758 69.230469
-353.3598 684.64758 69.230469
-347.8385 684.64758 69.230469
-342.31735 684.64758 69.230469
-336.79605 684.64758 69.230469
-334.32562 670.50818 94.733154
-328.75351 670.50818 94.733154
-176.67995 684.64758 69.230469
-171.15868 684.64758 69.230469
-165.63741 684.64758 69.230469
-158.64159 698.78711 43.727783
-153.17117 698.78711 43.727783
-147.70084 698.78711 43.727783
-142.23042 698.78711 43.727783
-136.76001 698.78711 43.727783
-131.28958 698.78711 43.727783
-125.81916 698.78711 43.727783
-120.34885 698.78711 43.727783
-114.87842 698.78711 43.727783
-109.408 698.78711 43.727783
-103.93758 698.78711 43.727783
-98.467163 698.78711 43.727783
-92.996849 698.78711 43.727783
-87.526421 698.78711 43.727783
-82.056 698.78711 43.727783
-76.585587 698.78711 43.727783
-71.115158 698.78711 43.727783
-65.644844 698.78711 43.727783
-60.174423 698.78711 43.727783
-54.704002 698.78711 43.727783
-49.233582 698.78711 43.727783
-43.763157 698.78711 43.727783
-38.292843 698.78711 43.727783
-32.822422 698.78711 43.727783
-27.352001 698.78711 43.727783
-21.685207 712.43896 19.104736
-16.26388 712.43896 19.104736
-10.842655 712.43896 19.104736
-5.4213276 712.43896 19.104736
0 712.43896 19.104736
5.4212241 712.43896 19.104736
10.842655 712.43896 19.104736
16.26388 712.43896 19.104736
21.68531 712.43896 19.104736
27.106535 712.43896 19.104736
32.52776 712.43896 19.104736
37.949188 712.43896 19.104736
43.763157 698.78711 43.727783
49.233688 698.78711 43.727783
54.704002 698.78711 43.727783
59.634293 712.43896 19.104736
65.055725 712.43896 19.104736
70.476952 712.43896 19.104736
76.585686 698.78711 43.727783
81.319603 712.43896 19.104736
86.740829 712.43896 19.104736
92.162254 712.43896 19.104736
98.467163 698.78711 43.727783
103.93769 698.78711 43.727783
109.408 698.78711 43.727783
114.87832 698.78711 43.727783
120.34885 698.78711 43.727783
125.81916 698.78711 43.727783
131.28969 698.78711 43.727783
136.76001 698.78711 43.727783
142.23032 698.78711 43.727783
147.70084 698.78711 43.727783
153.17117 698.78711 43.727783
158.64169 698.78711 43.727783
164.112 698.78711 43.727783
169.58232 698.78711 43.727783
176.67995 684.64758 69.230469
183.87904 670.50818 94.733154
189.45126 670.50818 94.733154
196.86427 655.8811 121.11523
202.48888 655.8811 121.11523
348.73102 655.8811 121.11523
354.35565 655.8811 121.11523
363.34686 641.25403 147.49707
372.55704 626.1394 174.7583
378.2886 626.1394 174.7583
380.37869 641.25403 147.49707
386.05594 641.25403 147.49707
391.73334 641.25403 147.49707
-401.19077 665.37891 92.555908
-395.61865 665.37891 92.555908
-390.04654 665.37891 92.555908
-388.10385 650.70349 118.91748
-382.47913 650.70349 118.91748
-373.33029 665.37891 92.555908
-367.75818 665.37891 92.555908
-362.18607 665.37891 92.555908
-353.3598 679.56519 67.073242
-347.8385 679.56519 67.073242
-342.31735 679.56519 67.073242
-336.79605 679.56519 67.073242
-331.27481 679.56519 67.073242
-176.67995 679.56519 67.073242
-171.15868 679.56519 67.073242
-165.63741 679.56519 67.073242
-160.11613 679.56519 67.073242
-154.59486 679.56519 67.073242
-147.70084 693.75159 41.590332
-142.23042 693.75159 41.590332
-136.76001 693.75159 41.590332
-132.5099 679.56519 67.073242
-125.81916 693.75159 41.590332
-120.34885 693.75159 41.590332
-114.87842 693.75159 41.590332
-109.408 693.75159 41.590332
-103.93758 693.75159 41.590332
-98.467163 693.75159 41.590332
-92.996849 693.75159 41.590332
-87.526421 693.75159 41.590332
-82.056 693.75159 41.590332
-76.585587 693.75159 41.590332
-71.115158 693.75159 41.590332
-65.644844 693.75159 41.590332
-60.174423 693.75159 41.590332
-54.704002 693.75159 41.590332
-49.233582 693.75159 41.590332
-43.763157 693.75159 41.590332
-38.292843 693.75159 41.590332
-32.822422 693.75159 41.590332
-27.352001 693.75159 41.590332
-21.685207 707.44861 16.986572
-16.26388 707.44861 16.986572
-10.842655 707.44861 16.986572
-5.4213276 707.44861 16.986572
0 707.44861 16.986572
5.4212241 707.44861 16.986572
10.842655 707.44861 16.986572
16.26388 707.44861 16.986572
21.68531 707.44861 16.986572
27.106535 707.44861 16.986572
32.52776 707.44861 16.986572
38.292843 693.75159 41.590332
43.763157 693.75159 41.590332
49.233688 693.75159 41.590332
54.704002 693.75159 41.590332
60.174316 693.75159 41.590332
65.644844 693.75159 41.590332
71.115158 693.75159 41.590332
76.585686 693.75159 41.590332
82.056 693.75159 41.590332
87.526314 693.75159 41.590332
92.996849 693.75159 41.590332
98.467163 693.75159 41.590332
103.93769 693.75159 41.590332
109.408 693.75159 41.590332
114.87832 693.75159 41.590332
120.34885 693.75159 41.590332
125.81916 693.75159 41.590332
131.28969 693.75159 41.590332
136.76001 693.75159 41.590332
142.23032 693.75159 41.590332
147.70084 693.75159 41.590332
153.17117 693.75159 41.590332
158.64169 693.75159 41.590332
164.112 693.75159 41.590332
171.15857 679.56519 67.073242
176.67995 679.56519 67.073242
183.87904 665.37891 92.555908
189.45126 665.37891 92.555908
196.86427 650.70349 118.91748
202.48888 650.70349 118.91748
369.02408 636.02808 145.27881
374.70129 636.02808 145.27881
380.37869 636.02808 145.27881
386.05594 636.02808 145.27881
391.73334 636.02808 145.27881
-404.97797 645.526 116.71973
-399.35324 645.526 116.71973
-393.72855 645.526 116.71973
-388.10385 645.526 116.71973
-382.47913 645.526 116.71973
-376.85449 645.526 116.71973
-371.2298 645.526 116.71973
-365.60507 645.526 116.71973
-359.98038 645.526 116.71973
-354.35565 645.526 116.71973
-176.67995 674.48291 64.916016
-171.15868 674.48291 64.916016
-165.63741 674.48291 64.916016
-160.11613 674.48291 64.916016
-154.59486 674.48291 64.916016
-149.07372 674.48291 64.916016
-143.55244 674.48291 64.916016
-138.03117 674.48291 64.916016
-132.5099 674.48291 64.916016
-126.98864 674.48291 64.916016
-120.34885 688.71606 39.452881
-114.87842 688.71606 39.452881
-109.408 688.71606 39.452881
-103.93758 688.71606 39.452881
-98.467163 688.71606 39.452881
-92.996849 688.71606 39.452881
-87.526421 688.71606 39.452881
-82.056 688.71606 39.452881
-76.585587 688.71606 39.452881
-71.115158 688.71606 39.452881
-65.644844 688.71606 39.452881
-60.174423 688.71606 39.452881
-54.704002 688.71606 39.452881
-49.233582 688.71606 39.452881
-43.763157 688.71606 39.452881
-38.292843 688.71606 39.452881
-32.822422 688.71606 39.452881
-27.352001 688.71606 39.452881
-21.685207 702.45837 14.868164
-16.26388 702.45837 14.868164
-10.842655 702.45837 14.868164
-5.4213276 702.45837 14.868164
0 702.45837 14.868164
5.4212241 702.45837 14.868164
10.842655 702.45837 14.868164
16.26388 702.45837 14.868164
21.68531 702.45837 14.868164
27.352001 688.71606 39.452881
32.822319 688.71606 39.452881
38.292843 688.71606 39.452881
43.763157 688.71606 39.452881
49.233688 688.71606 39.452881
54.704002 688.71606 39.452881
60.174316 688.71606 39.452881
65.644844 688.71606 39.452881
71.115158 688.71606 39.452881
76.585686 688.71606 39.452881
82.056 688.71606 39.452881
87.526314 688.71606 39.452881
92.162254 702.45837 14.868164
97.583481 702.45837 14.868164
103.93769 688.71606 39.452881
109.408 688.71606 39.452881
114.87832 688.71606 39.452881
120.34885 688.71606 39.452881
125.81916 688.71606 39.452881
131.28969 688.71606 39.452881
136.76001 688.71606 39.452881
142.23032 688.71606 39.452881
147.70084 688.71606 39.452881
153.17117 688.71606 39.452881
158.64169 688.71606 39.452881
164.112 688.71606 39.452881
171.15857 674.48291 64.916016
176.67995 674.48291 64.916016
183.87904 660.24988 90.378662
189.45126 660.24988 90.378662
196.86427 645.526 116.71973
202.48888 645.526 116.71973
-404.97797 640.34839 114.52197
-399.35324 640.34839 114.52197
-393.72855 640.34839 114.52197
-391.73325 625.57605 140.84204
-386.05594 625.57605 140.84204
-380.37869 625.57605 140.84204
-374.70139 625.57605 140.84204
-369.02408 625.57605 140.84204
-363.34677 625.57605 140.84204
-178.30704 655.12061 88.201416
-172.73491 655.12061 88.201416
-167.16281 655.12061 88.201416
-161.5907 655.12061 88.201416
-154.59486 669.40051 62.758545
-149.07372 669.40051 62.758545
-143.55244 669.40051 62.758545
-138.03117 669.40051 62.758545
-132.5099 669.40051 62.758545
-126.98864 669.40051 62.758545
-121.46747 669.40051 62.758545
-115.94621 669.40051 62.758545
-110.42493 669.40051 62.758545
-103.93758 683.68054 37.31543
-98.467163 683.68054 37.31543
-92.996849 683.68054 37.31543
-87.526421 683.68054 37.31543
-82.056 683.68054 37.31543
-76.585587 683.68054 37.31543
-71.115158 683.68054 37.31543
-65.644844 683.68054 37.31543
-60.174423 683.68054 37.31543
-54.704002 683.68054 37.31543
-49.233582 683.68054 37.31543
-43.763157 683.68054 37.31543
-38.292843 683.68054 37.31543
-32.822422 683.68054 37.31543
-27.352001 683.68054 37.31543
-21.685207 697.46802 12.75
-16.26388 697.46802 12.75
-10.842655 697.46802 12.75
-5.4213276 697.46802 12.75
0 697.46802 12.75
5.4703169 683.68054 37.31543
10.940842 683.68054 37.31543
16.41116 683.68054 37.31543
21.881683 683.68054 37.31543
27.352001 683.68054 37.31543
32.822319 683.68054 37.31543
38.292843 683.68054 37.31543
43.763157 683.68054 37.31543
49.233688 683.68054 37.31543
54.704002 683.68054 37.31543
60.174316 683.68054 37.31543
65.644844 683.68054 37.31543
71.115158 683.68054 37.31543
76.585686 683.68054 37.31543
82.056 683.68054 37.31543
87.526314 683.68054 37.31543
92.162254 697.46802 12.75
97.583481 697.46802 12.75
103.93769 683.68054 37.31543
109.408 683.68054 37.31543
114.87832 683.68054 37.31543
120.34885 683.68054 37.31543
125.81916 683.68054 37.31543
131.28969 683.68054 37.31543
136.76001 683.68054 37.31543
142.23032 683.68054 37.31543
147.70084 683.68054 37.31543
153.17117 683.68054 37.31543
158.64169 683.68054 37.31543
165.63741 669.40051 62.758545
171.15857 669.40051 62.758545
176.67995 669.40051 62.758545
183.87904 655.12061 88.201416
189.45126 655.12061 88.201416
196.86427 640.34839 114.52197
202.48888 640.34839 114.52197
208.11371 640.34839 114.52197
-404.97797 635.1709 112.32422
-399.35324 635.1709 112.32422
-393.72855 635.1709 112.32422
-391.73325 620.35022 138.62378
-386.05594 620.35022 138.62378
-380.37869 620.35022 138.62378
-374.70139 620.35022 138.62378
-369.02408 620.35022 138.62378
-363.34677 620.35022 138.62378
-176.67995 664.31824 60.601318
-171.15868 664.31824 60.601318
-165.63741 664.31824 60.601318
-160.11613 664.31824 60.601318
-156.01857 649.99158 86.024414
-150.44656 649.99158 86.024414
-143.55244 664.31824 60.601318
-138.03117 664.31824 60.601318
-132.5099 664.31824 60.601318
-126.98864 664.31824 60.601318
-121.46747 664.31824 60.601318
-115.94621 664.31824 60.601318
-110.42493 664.31824 60.601318
-104.90366 664.31824 60.601318
-98.467163 678.64502 35.177979
-92.996849 678.64502 35.177979
-88.339973 664.31824 60.601318
-82.818703 664.31824 60.601318
-77.297432 664.31824 60.601318
-71.776169 664.31824 60.601318
-66.255005 664.31824 60.601318
-60.733734 664.31824 60.601318
-55.212467 664.31824 60.601318
-49.6912 664.31824 60.601318
-44.16993 664.31824 60.601318
-38.648773 664.31824 60.601318
-33.127502 664.31824 60.601318
-27.352001 678.64502 35.177979
-21.685207 692.47766 10.631592
-16.26388 692.47766 10.631592
-10.842655 692.47766 10.631592
-5.4213276 692.47766 10.631592
0 692.47766 10.631592
5.4703169 678.64502 35.177979
10.940842 678.64502 35.177979
16.41116 678.64502 35.177979
21.881683 678.64502 35.177979
27.352001 678.64502 35.177979
32.822319 678.64502 35.177979
38.292843 678.64502 35.177979
43.763157 678.64502 35.177979
49.233688 678.64502 35.177979
54.704002 678.64502 35.177979
60.174316 678.64502 35.177979
65.644844 678.64502 35.177979
71.115158 678.64502 35.177979
76.585686 678.64502 35.177979
82.056 678.64502 35.177979
87.526314 678.64502 35.177979
92.996849 678.64502 35.177979
98.467163 678.64502 35.177979
103.93769 678.64502 35.177979
109.408 678.64502 35.177979
114.87832 678.64502 35.177979
120.34885 678.64502 35.177979
125.81916 678.64502 35.177979
131.28969 678.64502 35.177979
138.03117 664.31824 60.601318
143.55234 664.31824 60.601318
149.07372 664.31824 60.601318
154.59486 664.31824 60.601318
160.11624 664.31824 60.601318
165.63741 664.31824 60.601318
171.15857 664.31824 60.601318
176.67995 664.31824 60.601318
183.87904 649.99158 86.024414
189.45126 649.99158 86.024414
196.86427 635.1709 112.32422
202.48888 635.1709 112.32422
208.11371 635.1709 112.32422
-403.08786 615.12415 136.40552
-397.41055 615.12415 136.40552
-391.73325 615.12415 136.40552
-386.05594 615.12415 136.40552
-380.37869 615.12415 136.40552
-176.67995 659.23584 58.443848
-171.15868 659.23584 58.443848
-165.63741 659.23584 58.443848
-160.11613 659.23584 58.443848
-156.01857 644.86243 83.847168
-150.44656 644.86243 83.847168
-143.55244 659.23584 58.443848
-138.03117 659.23584 58.443848
-132.5099 659.23584 58.443848
-126.98864 659.23584 58.443848
-121.46747 659.23584 58.443848
-115.94621 659.23584 58.443848
-110.42493 659.23584 58.443848
-104.90366 659.23584 58.443848
-99.382401 659.23584 58.443848
-93.861237 659.23584 58.443848
-88.339973 659.23584 58.443848
-82.818703 659.23584 58.443848
-77.297432 659.23584 58.443848
-71.776169 659.23584 58.443848
-66.255005 659.23584 58.443848
-60.733734 659.23584 58.443848
-55.212467 659.23584 58.443848
-49.6912 659.23584 58.443848
-44.16993 659.23584 58.443848
-38.648773 659.23584 58.443848
-33.127502 659.23584 58.443848
-27.352001 673.6095 33.040527
-21.881578 673.6095 33.040527
-16.26388 687.4873 8.5134277
-10.842655 687.4873 8.5134277
-5.4213276 687.4873 8.5134277
0 687.4873 8.5134277
5.4703169 673.6095 33.040527
10.940842 673.6095 33.040527
16.41116 673.6095 33.040527
21.881683 673.6095 33.040527
27.352001 673.6095 33.040527
32.822319 673.6095 33.040527
38.292843 673.6095 33.040527
43.763157 673.6095 33.040527
49.691303 659.23584 58.443848
55.212467 659.23584 58.443848
60.174316 673.6095 33.040527
65.644844 673.6095 33.040527
71.115158 673.6095 33.040527
76.585686 673.6095 33.040527
82.056 673.6095 33.040527
87.526314 673.6095 33.040527
92.996849 673.6095 33.040527
98.467163 673.6095 33.040527
103.93769 673.6095 33.040527
109.408 673.6095 33.040527
114.87832 673.6095 33.040527
121.46747 659.23584 58.443848
126.98864 659.23584 58.443848
132.51001 659.23584 58.443848
138.03117 659.23584 58.443848
143.55234 659.23584 58.443848
149.07372 659.23584 58.443848
154.59486 659.23584 58.443848
160.11624 659.23584 58.443848
165.63741 659.23584 58.443848
171.15857 659.23584 58.443848
178.30704 644.86243 83.847168
183.87904 644.86243 83.847168
191.23967 629.99329 110.12646
196.86427 629.99329 110.12646
202.48888 629.99329 110.12646
208.11371 629.99329 110.12646
-403.08786 609.89819 134.18726
-397.41055 609.89819 134.18726
-391.73325 609.89819 134.18726
-386.05594 609.89819 134.18726
-171.15868 654.15356 56.286621
-165.63741 654.15356 56.286621
-160.11613 654.15356 56.286621
-156.01857 639.73328 81.669922
-150.44656 639.73328 81.669922
-144.87445 639.73328 81.669922
-139.30234 639.73328 81.669922
-132.5099 654.15356 56.286621
-126.98864 654.15356 56.286621
-121.46747 654.15356 56.286621
-115.94621 654.15356 56.286621
-110.42493 654.15356 56.286621
-104.90366 654.15356 56.286621
-99.382401 654.15356 56.286621
-93.861237 654.15356 56.286621
-88.339973 654.15356 56.286621
-82.818703 654.15356 56.286621
-77.297432 654.15356 56.286621
-71.776169 654.15356 56.286621
-66.255005 654.15356 56.286621
-60.733734 654.15356 56.286621
-55.212467 654.15356 56.286621
-49.6912 654.15356 56.286621
-44.16993 654.15356 56.286621
-38.648773 654.15356 56.286621
-33.127502 654.15356 56.286621
-27.352001 668.57397 30.903076
-21.881578 668.57397 30.903076
-16.41116 668.57397 30.903076
-10.940842 668.57397 30.903076
-5.4704208 668.57397 30.903076
0 668.57397 30.903076
5.4703169 668.57397 30.903076
10.940842 668.57397 30.903076
16.41116 668.57397 30.903076
21.881683 668.57397 30.903076
27.352001 668.57397 30.903076
32.822319 668.57397 30.903076
38.648773 654.15356 56.286621
44.16993 654.15356 56.286621
49.691303 654.15356 56.286621
55.212467 654.15356 56.286621
60.174316 668.57397 30.903076
65.644844 668.57397 30.903076
71.115158 668.57397 30.903076
76.585686 668.57397 30.903076
82.056 668.57397 30.903076
87.526314 668.57397 30.903076
92.996849 668.57397 30.903076
98.467163 668.57397 30.903076
103.93769 668.57397 30.903076
109.408 668.57397 30.903076
115.9461 654.15356 56.286621
121.46747 654.15356 56.286621
126.98864 654.15356 56.286621
132.51001 654.15356 56.286621
138.03117 654.15356 56.286621
143.55234 654.15356 56.286621
149.07372 654.15356 56.286621
154.59486 654.15356 56.286621
160.11624 654.15356 56.286621
165.63741 654.15356 56.286621
172.73482 639.73328 81.669922
178.30704 639.73328 81.669922
183.87904 639.73328 81.669922
191.23967 624.8158 107.92871
196.86427 624.8158 107.92871
202.48888 624.8158 107.92871
208.11371 624.8158 107.92871
215.73711 609.89819 134.18726
221.41454 609.89819 134.18726
227.09174 609.89819 134.18726
-174.36551 619.63818 105.73096
-168.7408 619.63818 105.73096
-163.1161 619.63818 105.73096
-157.49138 619.63818 105.73096
-151.86678 619.63818 105.73096
-144.87445 634.60413 79.492676
-139.30234 634.60413 79.492676
-132.5099 649.07117 54.12915
-126.98864 649.07117 54.12915
-121.46747 649.07117 54.12915
-115.94621 649.07117 54.12915
-110.42493 649.07117 54.12915
-104.90366 649.07117 54.12915
-99.382401 649.07117 54.12915
-93.861237 649.07117 54.12915
-88.339973 649.07117 54.12915
-82.818703 649.07117 54.12915
-77.297432 649.07117 54.12915
-71.776169 649.07117 54.12915
-66.255005 649.07117 54.12915
-60.733734 649.07117 54.12915
-55.212467 649.07117 54.12915
-49.6912 649.07117 54.12915
-44.16993 649.07117 54.12915
-38.648773 649.07117 54.12915
-33.127502 649.07117 54.12915
-27.352001 663.53833 28.765625
-21.881578 663.53833 28.765625
-16.41116 663.53833 28.765625
-10.940842 663.53833 28.765625
-5.4704208 663.53833 28.765625
0 663.53833 28.765625
5.521163 649.07117 54.12915
10.940842 663.53833 28.765625
16.41116 663.53833 28.765625
21.881683 663.53833 28.765625
27.352001 663.53833 28.765625
32.822319 663.53833 28.765625
38.292843 663.53833 28.765625
43.763157 663.53833 28.765625
49.691303 649.07117 54.12915
55.212467 649.07117 54.12915
60.733631 649.07117 54.12915
65.644844 663.53833 28.765625
71.115158 663.53833 28.765625
76.585686 663.53833 28.765625
82.056 663.53833 28.765625
87.526314 663.53833 28.765625
92.996849 663.53833 28.765625
98.467163 663.53833 28.765625
103.93769 663.53833 28.765625
109.408 663.53833 28.765625
115.9461 649.07117 54.12915
121.46747 649.07117 54.12915
126.98864 649.07117 54.12915
132.51001 649.07117 54.12915
138.03117 649.07117 54.12915
143.55234 649.07117 54.12915
149.07372 649.07117 54.12915
154.59486 649.07117 54.12915
160.11624 649.07117 54.12915
165.63741 649.07117 54.12915
172.73482 634.60413 79.492676
178.30704 634.60413 79.492676
183.87904 634.60413 79.492676
191.23967 619.63818 105.73096
196.86427 619.63818 105.73096
204.38248 604.67212 131.96899
210.05991 604.67212 131.96899
215.73711 604.67212 131.96899
221.41454 604.67212 131.96899
227.09174 604.67212 131.96899
-168.7408 614.46069 103.5332
-163.1161 614.46069 103.5332
-157.49138 614.46069 103.5332
-151.86678 614.46069 103.5332
-144.87445 629.4751 77.315674
-139.30234 629.4751 77.315674
-132.5099 643.98901 51.971924
-126.98864 643.98901 51.971924
-121.46747 643.98901 51.971924
-115.94621 643.98901 51.971924
-110.42493 643.98901 51.971924
-104.90366 643.98901 51.971924
-99.382401 643.98901 51.971924
-93.861237 643.98901 51.971924
-88.339973 643.98901 51.971924
-82.818703 643.98901 51.971924
-77.297432 643.98901 51.971924
-71.776169 643.98901 51.971924
-66.255005 643.98901 51.971924
-60.733734 643.98901 51.971924
-55.212467 643.98901 51.971924
-49.6912 643.98901 51.971924
-44.16993 643.98901 51.971924
-38.648773 643.98901 51.971924
-33.127502 643.98901 51.971924
-27.606234 643.98901 51.971924
-22.084965 643.98901 51.971924
-16.563698 643.98901 51.971924
-11.042537 643.98901 51.971924
-5.5212684 643.98901 51.971924
0 643.98901 51.971924
5.521163 643.98901 51.971924
11.042537 643.98901 51.971924
16.41116 658.50293 26.628174
21.881683 658.50293 26.628174
27.352001 658.50293 26.628174
32.822319 658.50293 26.628174
38.292843 658.50293 26.628174
43.763157 658.50293 26.628174
49.691303 643.98901 51.971924
55.212467 643.98901 51.971924
60.733631 643.98901 51.971924
65.644844 658.50293 26.628174
71.115158 658.50293 26.628174
76.585686 658.50293 26.628174
82.056 658.50293 26.628174
87.526314 658.50293 26.628174
92.996849 658.50293 26.628174
98.467163 658.50293 26.628174
103.93769 658.50293 26.628174
109.408 658.50293 26.628174
115.9461 643.98901 51.971924
121.46747 643.98901 51.971924
126.98864 643.98901 51.971924
132.51001 643.98901 51.971924
139.30234 629.4751 77.315674
144.87434 629.4751 77.315674
149.07372 643.98901 51.971924
154.59486 643.98901 51.971924
160.11624 643.98901 51.971924
165.63741 643.98901 51.971924
172.73482 629.4751 77.315674
178.30704 629.4751 77.315674
183.87904 629.4751 77.315674
191.23967 614.46069 103.5332
196.86427 614.46069 103.5332
202.48888 614.46069 103.5332
210.05991 599.44629 129.75073
215.73711 599.44629 129.75073
221.41454 599.44629 129.75073
227.09174 599.44629 129.75073
-168.7408 609.28308 101.33545
-163.1161 609.28308 101.33545
-157.49138 609.28308 101.33545
-150.44656 624.34583 75.138428
-144.87445 624.34583 75.138428
-139.30234 624.34583 75.138428
-132.5099 638.90649 49.814697
-126.98864 638.90649 49.814697
-121.46747 638.90649 49.814697
-115.94621 638.90649 49.814697
-110.42493 638.90649 49.814697
-104.90366 638.90649 49.814697
-99.382401 638.90649 49.814697
-93.861237 638.90649 49.814697
-88.339973 638.90649 49.814697
-82.818703 638.90649 49.814697
-77.297432 638.90649 49.814697
-71.776169 638.90649 49.814697
-66.255005 638.90649 49.814697
-60.733734 638.90649 49.814697
-55.212467 638.90649 49.814697
-49.6912 638.90649 49.814697
-44.16993 638.90649 49.814697
-38.648773 638.90649 49.814697
-33.127502 638.90649 49.814697
-27.606234 638.90649 49.814697
-22.084965 638.90649 49.814697
-16.563698 638.90649 49.814697
-11.042537 638.90649 49.814697
-5.5212684 638.90649 49.814697
0 638.90649 49.814697
5.5720086 624.34583 75.138428
16.41116 653.46741 24.490723
21.881683 653.46741 24.490723
27.352001 653.46741 24.490723
32.822319 653.46741 24.490723
38.648773 638.90649 49.814697
44.16993 638.90649 49.814697
49.691303 638.90649 49.814697
55.212467 638.90649 49.814697
60.733631 638.90649 49.814697
66.255005 638.90649 49.814697
71.776169 638.90649 49.814697
76.585686 653.46741 24.490723
82.056 653.46741 24.490723
87.526314 653.46741 24.490723
92.996849 653.46741 24.490723
98.467163 653.46741 24.490723
103.93769 653.46741 24.490723
110.42493 638.90649 49.814697
115.9461 638.90649 49.814697
121.46747 638.90649 49.814697
126.98864 638.90649 49.814697
132.51001 638.90649 49.814697
136.76001 653.46741 24.490723
142.23032 653.46741 24.490723
147.70084 653.46741 24.490723
156.01857 624.34583 75.138428
161.59081 624.34583 75.138428
167.16281 624.34583 75.138428
172.73482 624.34583 75.138428
178.30704 624.34583 75.138428
185.61484 609.28308 101.33545
191.23967 609.28308 101.33545
196.86427 609.28308 101.33545
202.48888 609.28308 101.33545
208.11371 609.28308 101.33545
213.73831 609.28308 101.33545
221.41454 594.22021 127.53223
227.09174 594.22021 127.53223
-168.7408 604.10559 99.137695
-163.1161 604.10559 99.137695
-156.01857 619.2168 72.961182
-150.44656 619.2168 72.961182
-144.87445 619.2168 72.961182
-139.30234 619.2168 72.961182
-132.5099 633.82422 47.657227
-126.98864 633.82422 47.657227
-121.46747 633.82422 47.657227
-115.94621 633.82422 47.657227
-110.42493 633.82422 47.657227
-104.90366 633.82422 47.657227
-99.382401 633.82422 47.657227
-93.861237 633.82422 47.657227
-88.339973 633.82422 47.657227
-83.581406 619.2168 72.961182
-77.297432 633.82422 47.657227
-71.776169 633.82422 47.657227
-66.255005 633.82422 47.657227
-60.733734 633.82422 47.657227
-55.212467 633.82422 47.657227
-49.6912 633.82422 47.657227
-44.16993 633.82422 47.657227
-38.648773 633.82422 47.657227
-33.127502 633.82422 47.657227
-27.860468 619.2168 72.961182
-22.288351 619.2168 72.961182
-16.716238 619.2168 72.961182
-11.14423 619.2168 72.961182
-5.5721149 619.2168 72.961182
0 619.2168 72.961182
5.5720086 619.2168 72.961182
21.881683 648.43188 22.353271
27.352001 648.43188 22.353271
32.822319 648.43188 22.353271
38.648773 633.82422 47.657227
44.16993 633.82422 47.657227
49.691303 633.82422 47.657227
55.212467 633.82422 47.657227
61.292946 619.2168 72.961182
66.255005 633.82422 47.657227
71.776169 633.82422 47.657227
76.585686 648.43188 22.353271
82.056 648.43188 22.353271
87.526314 648.43188 22.353271
92.996849 648.43188 22.353271
98.467163 648.43188 22.353271
103.93769 648.43188 22.353271
109.408 648.43188 22.353271
114.87832 648.43188 22.353271
121.46747 633.82422 47.657227
126.98864 633.82422 47.657227
132.51001 633.82422 47.657227
136.76001 648.43188 22.353271
142.23032 648.43188 22.353271
147.70084 648.43188 22.353271
154.59486 633.82422 47.657227
160.11624 633.82422 47.657227
167.16281 619.2168 72.961182
172.73482 619.2168 72.961182
178.30704 619.2168 72.961182
185.61484 604.10559 99.137695
191.23967 604.10559 99.137695
196.86427 604.10559 99.137695
202.48888 604.10559 99.137695
208.11371 604.10559 99.137695
213.73831 604.10559 99.137695
221.41454 588.99438 125.31396
-172.73491 614.08765 70.783936
-167.16281 614.08765 70.783936
-163.1161 598.92798 96.939941
-156.01857 614.08765 70.783936
-150.44656 614.08765 70.783936
-144.87445 614.08765 70.783936
-139.30234 614.08765 70.783936
-132.5099 628.74194 45.5
-126.98864 628.74194 45.5
-121.46747 628.74194 45.5
-115.94621 628.74194 45.5
-110.42493 628.74194 45.5
-104.90366 628.74194 45.5
-99.382401 628.74194 45.5
-93.861237 628.74194 45.5
-88.339973 628.74194 45.5
-83.581406 614.08765 70.783936
-77.297432 628.74194 45.5
-71.776169 628.74194 45.5
-66.255005 628.74194 45.5
-60.733734 628.74194 45.5
-55.212467 628.74194 45.5
-49.6912 628.74194 45.5
-44.16993 628.74194 45.5
-38.648773 628.74194 45.5
-33.127502 628.74194 45.5
-27.860468 614.08765 70.783936
-22.288351 614.08765 70.783936
-16.874039 598.92798 96.939941
-11.24943 598.92798 96.939941
-5.6247149 598.92798 96.939941
27.352001 643.39624 20.21582
32.822319 643.39624 20.21582
38.648773 628.74194 45.5
44.16993 628.74194 45.5
49.691303 628.74194 45.5
55.212467 628.74194 45.5
61.292946 614.08765 70.783936
66.255005 628.74194 45.5
71.776169 628.74194 45.5
76.585686 643.39624 20.21582
82.056 643.39624 20.21582
87.526314 643.39624 20.21582
92.996849 643.39624 20.21582
98.467163 643.39624 20.21582
103.93769 643.39624 20.21582
109.408 643.39624 20.21582
114.87832 643.39624 20.21582
121.46747 628.74194 45.5
126.98864 628.74194 45.5
132.51001 628.74194 45.5
138.03117 628.74194 45.5
143.55234 628.74194 45.5
149.07372 628.74194 45.5
154.59486 628.74194 45.5
160.11624 628.74194 45.5
167.16281 614.08765 70.783936
172.73482 614.08765 70.783936
178.30704 614.08765 70.783936
185.61484 598.92798 96.939941
191.23967 598.92798 96.939941
196.86427 598.92798 96.939941
202.48888 598.92798 96.939941
208.11371 598.92798 96.939941
215.73711 583.76831 123.0957
223.53432 568.10327 150.12354
-172.73491 608.9585 68.606934
-167.16281 608.9585 68.606934
-161.5907 608.9585 68.606934
-156.01857 608.9585 68.606934
-150.44656 608.9585 68.606934
-144.87445 608.9585 68.606934
-139.30234 608.9585 68.606934
-133.73022 608.9585 68.606934
-126.98864 623.65967 43.342773
-121.46747 623.65967 43.342773
-117.01398 608.9585 68.606934
-111.44187 608.9585 68.606934
-105.86976 608.9585 68.606934
-100.29764 608.9585 68.606934
-93.861237 623.65967 43.342773
-88.339973 623.65967 43.342773
-83.581406 608.9585 68.606934
-77.297432 623.65967 43.342773
-71.776169 623.65967 43.342773
-66.255005 623.65967 43.342773
-60.733734 623.65967 43.342773
-55.212467 623.65967 43.342773
-49.6912 623.65967 43.342773
-44.576702 608.9585 68.606934
-39.0047 608.9585 68.606934
-33.432583 608.9585 68.606934
-27.860468 608.9585 68.606934
-22.288351 608.9585 68.606934
-16.874039 593.75049 94.742188
-11.24943 593.75049 94.742188
-5.6247149 593.75049 94.742188
39.0047 608.9585 68.606934
44.576702 608.9585 68.606934
50.148926 608.9585 68.606934
55.720936 608.9585 68.606934
61.292946 608.9585 68.606934
66.865166 608.9585 68.606934
72.437172 608.9585 68.606934
77.297546 623.65967 43.342773
82.818703 623.65967 43.342773
87.526314 638.36084 18.078369
92.996849 638.36084 18.078369
99.382401 623.65967 43.342773
103.93769 638.36084 18.078369
109.408 638.36084 18.078369
114.87832 638.36084 18.078369
120.34885 638.36084 18.078369
126.98864 623.65967 43.342773
132.51001 623.65967 43.342773
138.03117 623.65967 43.342773
143.55234 623.65967 43.342773
149.07372 623.65967 43.342773
154.59486 623.65967 43.342773
161.59081 608.9585 68.606934
167.16281 608.9585 68.606934
172.73482 608.9585 68.606934
178.30704 608.9585 68.606934
185.61484 593.75049 94.742188
191.23967 593.75049 94.742188
198.70528 578.54248 120.87744
202.48888 593.75049 94.742188
208.11371 593.75049 94.742188
215.73711 578.54248 120.87744
223.53432 562.82739 147.88403
-179.99023 588.57288 92.544434
-174.36551 588.57288 92.544434
-168.7408 588.57288 92.544434
-161.5907 603.82935 66.429688
-156.01857 603.82935 66.429688
-150.44656 603.82935 66.429688
-144.87445 603.82935 66.429688
-139.30234 603.82935 66.429688
-133.73022 603.82935 66.429688
-128.15811 603.82935 66.429688
-122.58611 603.82935 66.429688
-117.01398 603.82935 66.429688
-111.44187 603.82935 66.429688
-105.86976 603.82935 66.429688
-100.29764 603.82935 66.429688
-94.725632 603.82935 66.429688
-89.153519 603.82935 66.429688
-83.581406 603.82935 66.429688
-78.009285 603.82935 66.429688
-72.437172 603.82935 66.429688
-66.255005 618.57715 41.185303
-60.733734 618.57715 41.185303
-55.212467 618.57715 41.185303
-50.148819 603.82935 66.429688
-44.576702 603.82935 66.429688
-39.0047 603.82935 66.429688
-33.432583 603.82935 66.429688
-28.123468 588.57288 92.544434
-22.498753 588.57288 92.544434
-16.874039 588.57288 92.544434
-11.24943 588.57288 92.544434
-5.6247149 588.57288 92.544434
39.372898 588.57288 92.544434
44.576702 603.82935 66.429688
50.148926 603.82935 66.429688
55.720936 603.82935 66.429688
61.292946 603.82935 66.429688
66.865166 603.82935 66.429688
72.437172 603.82935 66.429688
77.297546 618.57715 41.185303
82.818703 618.57715 41.185303
88.339859 618.57715 41.185303
93.861237 618.57715 41.185303
99.382401 618.57715 41.185303
103.93769 633.3252 15.940918
109.408 633.3252 15.940918
114.87832 633.3252 15.940918
120.34885 633.3252 15.940918
126.98864 618.57715 41.185303
132.51001 618.57715 41.185303
138.03117 618.57715 41.185303
143.55234 618.57715 41.185303
149.07372 618.57715 41.185303
154.59486 618.57715 41.185303
161.59081 603.82935 66.429688
167.16281 603.82935 66.429688
172.73482 603.82935 66.429688
178.30704 603.82935 66.429688
185.61484 588.57288 92.544434
191.23967 588.57288 92.544434
196.86427 588.57288 92.544434
204.38248 573.31641 118.65918
210.05991 573.31641 118.65918
215.73711 573.31641 118.65918
221.41454 573.31641 118.65918
-179.99023 583.39539 90.34668
-174.36551 583.39539 90.34668
-168.7408 583.39539 90.34668
-163.1161 583.39539 90.34668
-157.49138 583.39539 90.34668
-151.86678 583.39539 90.34668
-146.24205 583.39539 90.34668
-140.61734 583.39539 90.34668
-133.73022 598.7002 64.252441
-128.15811 598.7002 64.252441
-122.58611 598.7002 64.252441
-117.01398 598.7002 64.252441
-112.49387 583.39539 90.34668
-105.86976 598.7002 64.252441
-100.29764 598.7002 64.252441
-94.725632 598.7002 64.252441
-89.153519 598.7002 64.252441
-83.581406 598.7002 64.252441
-78.009285 598.7002 64.252441
-72.437172 598.7002 64.252441
-66.865166 598.7002 64.252441
-61.293053 598.7002 64.252441
-55.720936 598.7002 64.252441
-50.148819 598.7002 64.252441
-44.576702 598.7002 64.252441
-39.0047 598.7002 64.252441
-33.748184 583.39539 90.34668
-28.123468 583.39539 90.34668
-22.498753 583.39539 90.34668
-16.874039 583.39539 90.34668
-11.24943 583.39539 90.34668
44.997505 583.39539 90.34668
50.622326 583.39539 90.34668
55.720936 598.7002 64.252441
61.292946 598.7002 64.252441
66.865166 598.7002 64.252441
72.437172 598.7002 64.252441
77.297546 613.495 39.028076
82.818703 613.495 39.028076
88.339859 613.495 39.028076
93.861237 613.495 39.028076
99.382401 613.495 39.028076
103.93769 628.28979 13.803467
109.408 628.28979 13.803467
114.87832 628.28979 13.803467
120.34885 628.28979 13.803467
126.98864 613.495 39.028076
132.51001 613.495 39.028076
138.03117 613.495 39.028076
143.55234 613.495 39.028076
149.07372 613.495 39.028076
154.59486 613.495 39.028076
161.59081 598.7002 64.252441
167.16281 598.7002 64.252441
172.73482 598.7002 64.252441
178.30704 598.7002 64.252441
185.61484 583.39539 90.34668
191.23967 583.39539 90.34668
196.86427 583.39539 90.34668
204.38248 568.09045 116.44092
210.05991 568.09045 116.44092
215.73711 568.09045 116.44092
221.41454 568.09045 116.44092
-181.67343 562.86438 114.22266
-175.99611 562.86438 114.22266
-168.7408 578.21777 88.148926
-163.1161 578.21777 88.148926
-157.49138 578.21777 88.148926
-151.86678 578.21777 88.148926
-146.24205 578.21777 88.148926
-140.61734 578.21777 88.148926
-134.99263 578.21777 88.148926
-129.3679 578.21777 88.148926
-123.7433 578.21777 88.148926
-118.11858 578.21777 88.148926
-112.49387 578.21777 88.148926
-106.86916 578.21777 88.148926
-101.24444 578.21777 88.148926
-94.725632 593.57104 62.075195
-89.153519 593.57104 62.075195
-84.370399 578.21777 88.148926
-78.745689 578.21777 88.148926
-72.437172 593.57104 62.075195
-66.865166 593.57104 62.075195
-61.293053 593.57104 62.075195
-55.720936 593.57104 62.075195
-50.148819 593.57104 62.075195
-44.997505 578.21777 88.148926
-39.372898 578.21777 88.148926
-33.748184 578.21777 88.148926
-28.123468 578.21777 88.148926
-22.498753 578.21777 88.148926
-16.874039 578.21777 88.148926
-11.35463 562.86438 114.22266
50.622326 578.21777 88.148926
56.246937 578.21777 88.148926
61.871544 578.21777 88.148926
67.496368 578.21777 88.148926
73.120972 578.21777 88.148926
78.009399 593.57104 62.075195
82.818703 608.4126 36.870605
88.339859 608.4126 36.870605
93.861237 608.4126 36.870605
99.382401 608.4126 36.870605
104.90378 608.4126 36.870605
109.408 623.25415 11.666016
114.87832 623.25415 11.666016
120.34885 623.25415 11.666016
126.98864 608.4126 36.870605
132.51001 608.4126 36.870605
138.03117 608.4126 36.870605
143.55234 608.4126 36.870605
149.07372 608.4126 36.870605
154.59486 608.4126 36.870605
161.59081 593.57104 62.075195
167.16281 593.57104 62.075195
172.73482 593.57104 62.075195
179.99023 578.21777 88.148926
185.61484 578.21777 88.148926
191.23967 578.21777 88.148926
196.86427 578.21777 88.148926
204.38248 562.86438 114.22266
210.05991 562.86438 114.22266
215.73711 562.86438 114.22266
223.53432 546.99927 141.16553
-181.67343 557.63843 112.00415
-175.99611 557.63843 112.00415
-167.16281 588.44189 59.897949
-161.5907 588.44189 59.897949
