ply
format ascii 1.0
comment PCL generated
element vertex 1568
property float x
property float y
property float z
element camera 0
property float view_px
property float view_py
property float view_pz
property float x_axisx
property float x_axisy
property float x_axisz
property float y_axisx
property float y_axisy
property float y_axisz
property float z_axisx
property float z_axisy
property float z_axisz
property float focal
property float scalex
property float scaley
property float centerx
property float centery
property int viewportx
property int viewporty
property float k1
property float k2
end_header
141.5993 378.38782 173.88452
147.49918 378.38782 173.88452
154.94899 359.78003 202.92261
160.90871 359.78003 202.92261
166.86819 359.78003 202.92261
172.82793 359.78003 202.92261
178.7874 359.78003 202.92261
184.74689 359.78003 202.92261
192.61424 341.17236 231.96021
198.63335 341.17236 231.96021
204.65266 341.17236 231.96021
212.81961 322.01746 261.85205
218.90009 322.01746 261.85205
224.98077 322.01746 261.85205
231.06125 322.01746 261.85205
237.14194 322.01746 261.85205
243.22241 322.01746 261.85205
-192.84734 390.52161 144.27173
-187.00357 390.52161 144.27173
-182.89899 372.95703 171.57935
-176.99901 372.95703 171.57935
-171.09903 372.95703 171.57935
-165.19902 372.95703 171.57935
-159.29916 372.95703 171.57935
-151.9404 390.52161 144.27173
-146.09651 390.52161 144.27173
-140.25262 390.52161 144.27173
-134.40874 390.52161 144.27173
-128.56497 390.52161 144.27173
-122.72108 390.52161 144.27173
-116.8772 390.52161 144.27173
-111.03333 390.52161 144.27173
-105.18944 390.52161 144.27173
-99.345665 390.52161 144.27173
-94.399498 372.95703 171.57935
-87.657906 390.52161 144.27173
-81.814018 390.52161 144.27173
-76.699524 372.95703 171.57935
123.89921 372.95703 171.57935
129.79932 372.95703 171.57935
137.0703 354.29431 200.59399
143.03001 354.29431 200.59399
148.9895 354.29431 200.59399
154.94899 354.29431 200.59399
160.90871 354.29431 200.59399
166.86819 354.29431 200.59399
174.5567 335.63171 229.6084
178.7874 354.29431 200.59399
184.74689 354.29431 200.59399
192.61424 335.63171 229.6084
198.63335 335.63171 229.6084
206.73914 316.42041 259.47607
212.81961 316.42041 259.47607
218.90009 316.42041 259.47607
224.98077 316.42041 259.47607
231.06125 316.42041 259.47607
237.14194 316.42041 259.47607
243.22241 316.42041 259.47607
-194.69885 367.52588 169.27393
-188.799 367.52588 169.27393
-182.89899 367.52588 169.27393
-176.99901 367.52588 169.27393
-171.09903 367.52588 169.27393
-165.19902 367.52588 169.27393
-159.29916 367.52588 169.27393
-151.9404 385.14221 141.98828
-146.09651 385.14221 141.98828
-140.25262 385.14221 141.98828
-134.40874 385.14221 141.98828
-128.56497 385.14221 141.98828
-122.72108 385.14221 141.98828
-116.8772 385.14221 141.98828
-111.03333 385.14221 141.98828
-105.18944 385.14221 141.98828
-99.345665 385.14221 141.98828
-94.399498 367.52588 169.27393
-87.657906 385.14221 141.98828
-81.814018 385.14221 141.98828
131.11081 348.80847 198.26538
137.0703 348.80847 198.26538
143.03001 348.80847 198.26538
148.9895 348.80847 198.26538
154.94899 348.80847 198.26538
160.90871 348.80847 198.26538
166.86819 348.80847 198.26538
174.5567 330.09106 227.25659
180.57581 330.09106 227.25659
186.59491 330.09106 227.25659
192.61424 330.09106 227.25659
198.63335 330.09106 227.25659
206.73914 310.82312 257.10034
212.81961 310.82312 257.10034
221.10928 291.55518 286.94409
227.25134 291.55518 286.94409
233.39317 291.55518 286.94409
239.53523 291.55518 286.94409
245.67708 291.55518 286.94409
-194.69885 362.09497 166.96875
-188.799 362.09497 166.96875
-182.89899 362.09497 166.96875
-176.99901 362.09497 166.96875
-171.09903 362.09497 166.96875
-165.19902 362.09497 166.96875
-159.29916 362.09497 166.96875
-153.39915 362.09497 166.96875
-146.09651 379.76294 139.70508
-140.25262 379.76294 139.70508
-135.69919 362.09497 166.96875
-128.56497 379.76294 139.70508
-122.72108 379.76294 139.70508
-116.8772 379.76294 139.70508
-112.09934 362.09497 166.96875
-106.19936 362.09497 166.96875
-100.29948 362.09497 166.96875
-94.399498 362.09497 166.96875
-88.499504 362.09497 166.96875
-82.59951 362.09497 166.96875
131.11081 343.32275 195.93677
137.0703 343.32275 195.93677
143.03001 343.32275 195.93677
150.47984 324.55042 224.90479
156.49895 324.55042 224.90479
162.51826 324.55042 224.90479
168.53737 324.55042 224.90479
174.5567 324.55042 224.90479
180.57581 324.55042 224.90479
186.59491 324.55042 224.90479
192.61424 324.55042 224.90479
198.63335 324.55042 224.90479
206.73914 305.22595 254.72437
212.81961 305.22595 254.72437
218.90009 305.22595 254.72437
227.25134 285.90161 284.54443
231.06125 305.22595 254.72437
237.14194 305.22595 254.72437
-194.69885 356.66406 164.66333
-188.799 356.66406 164.66333
-182.89899 356.66406 164.66333
-176.99901 356.66406 164.66333
-171.09903 356.66406 164.66333
-165.19902 356.66406 164.66333
-159.29916 356.66406 164.66333
-153.39915 356.66406 164.66333
-147.49918 356.66406 164.66333
-141.59918 356.66406 164.66333
-135.69919 356.66406 164.66333
-129.79932 356.66406 164.66333
-123.89933 356.66406 164.66333
-117.99934 356.66406 164.66333
-112.09934 356.66406 164.66333
-106.19936 356.66406 164.66333
-100.29948 356.66406 164.66333
-94.399498 356.66406 164.66333
-88.499504 356.66406 164.66333
-82.59951 356.66406 164.66333
131.11081 337.83691 193.60815
137.0703 337.83691 193.60815
144.46074 319.00952 222.55273
150.47984 319.00952 222.55273
156.49895 319.00952 222.55273
162.51826 319.00952 222.55273
168.53737 319.00952 222.55273
174.5567 319.00952 222.55273
180.57581 319.00952 222.55273
186.59491 319.00952 222.55273
192.61424 319.00952 222.55273
198.63335 319.00952 222.55273
204.65266 319.00952 222.55273
212.81961 299.62866 252.34863
218.90009 299.62866 252.34863
227.25134 280.24792 282.14453
231.06125 299.62866 252.34863
237.14194 299.62866 252.34863
-194.69885 351.23315 162.35815
-188.799 351.23315 162.35815
-182.89899 351.23315 162.35815
-176.99901 351.23315 162.35815
-171.09903 351.23315 162.35815
-165.19902 351.23315 162.35815
-159.29916 351.23315 162.35815
-153.39915 351.23315 162.35815
-147.49918 351.23315 162.35815
-141.59918 351.23315 162.35815
-135.69919 351.23315 162.35815
-129.79932 351.23315 162.35815
-123.89933 351.23315 162.35815
-117.99934 351.23315 162.35815
-112.09934 351.23315 162.35815
-106.19936 351.23315 162.35815
-101.31291 332.35107 191.27954
-94.399498 351.23315 162.35815
-88.499504 351.23315 162.35815
123.89921 351.23315 162.35815
129.79932 351.23315 162.35815
137.0703 332.35107 191.27954
144.46074 313.46899 220.20093
150.47984 313.46899 220.20093
156.49895 313.46899 220.20093
162.51826 313.46899 220.20093
168.53737 313.46899 220.20093
174.5567 313.46899 220.20093
180.57581 313.46899 220.20093
186.59491 313.46899 220.20093
192.61424 313.46899 220.20093
198.63335 313.46899 220.20093
204.65266 313.46899 220.20093
212.81961 294.03174 249.97266
218.90009 294.03174 249.97266
227.25134 274.59424 279.74463
231.06125 294.03174 249.97266
237.14194 294.03174 249.97266
243.22241 294.03174 249.97266
-200.59886 345.80212 160.05273
-194.69885 345.80212 160.05273
-188.799 345.80212 160.05273
-182.89899 345.80212 160.05273
-176.99901 345.80212 160.05273
-171.09903 345.80212 160.05273
-165.19902 345.80212 160.05273
-159.29916 345.80212 160.05273
-153.39915 345.80212 160.05273
-147.49918 345.80212 160.05273
-141.59918 345.80212 160.05273
-135.69919 345.80212 160.05273
-129.79932 345.80212 160.05273
-123.89933 345.80212 160.05273
-117.99934 345.80212 160.05273
-112.09934 345.80212 160.05273
-106.19936 345.80212 160.05273
-101.31291 326.86523 188.95093
-94.399498 345.80212 160.05273
-88.499504 345.80212 160.05273
123.89921 345.80212 160.05273
129.79932 345.80212 160.05273
137.0703 326.86523 188.95093
144.46074 307.92822 217.84888
150.47984 307.92822 217.84888
158.09448 288.43433 247.59668
162.51826 307.92822 217.84888
168.53737 307.92822 217.84888
174.5567 307.92822 217.84888
180.57581 307.92822 217.84888
186.59491 307.92822 217.84888
194.57797 288.43433 247.59668
200.65845 288.43433 247.59668
206.73914 288.43433 247.59668
212.81961 288.43433 247.59668
218.90009 288.43433 247.59668
227.25134 268.94055 277.34473
233.39317 268.94055 277.34473
239.53523 268.94055 277.34473
245.67708 268.94055 277.34473
-200.59886 340.37134 157.74756
-194.69885 340.37134 157.74756
-188.799 340.37134 157.74756
-182.89899 340.37134 157.74756
-176.99901 340.37134 157.74756
-171.09903 340.37134 157.74756
-165.19902 340.37134 157.74756
-159.29916 340.37134 157.74756
-153.39915 340.37134 157.74756
-147.49918 340.37134 157.74756
-141.59918 340.37134 157.74756
-135.69919 340.37134 157.74756
-129.79932 340.37134 157.74756
-123.89933 340.37134 157.74756
-117.99934 340.37134 157.74756
-112.09934 340.37134 157.74756
-107.27239 321.37939 186.62256
-101.31291 321.37939 186.62256
-94.399498 340.37134 157.74756
-88.499504 340.37134 157.74756
123.89921 340.37134 157.74756
129.79932 340.37134 157.74756
137.0703 321.37939 186.62256
144.46074 302.38757 215.49707
150.47984 302.38757 215.49707
158.09448 282.83728 245.22095
164.17517 282.83728 245.22095
170.25565 282.83728 245.22095
176.33633 282.83728 245.22095
182.41681 282.83728 245.22095
188.49728 282.83728 245.22095
194.57797 282.83728 245.22095
200.65845 282.83728 245.22095
206.73914 282.83728 245.22095
212.81961 282.83728 245.22095
221.10928 263.28699 274.94507
227.25134 263.28699 274.94507
233.39317 263.28699 274.94507
239.53523 263.28699 274.94507
245.67708 263.28699 274.94507
-200.59886 334.94019 155.44214
-194.69885 334.94019 155.44214
-188.799 334.94019 155.44214
-182.89899 334.94019 155.44214
-176.99901 334.94019 155.44214
-171.09903 334.94019 155.44214
-165.19902 334.94019 155.44214
-159.29916 334.94019 155.44214
-153.39915 334.94019 155.44214
-147.49918 334.94019 155.44214
-141.59918 334.94019 155.44214
-135.69919 334.94019 155.44214
-129.79932 334.94019 155.44214
-123.89933 334.94019 155.44214
-117.99934 334.94019 155.44214
-112.09934 334.94019 155.44214
-107.27239 315.89355 184.29395
-101.31291 315.89355 184.29395
131.11081 315.89355 184.29395
137.0703 315.89355 184.29395
145.93353 277.23999 242.84497
152.01401 277.23999 242.84497
158.09448 277.23999 242.84497
164.17517 277.23999 242.84497
170.25565 277.23999 242.84497
176.33633 277.23999 242.84497
182.41681 277.23999 242.84497
188.49728 277.23999 242.84497
194.57797 277.23999 242.84497
200.65845 277.23999 242.84497
206.73914 277.23999 242.84497
212.81961 277.23999 242.84497
221.10928 257.6333 272.54517
227.25134 257.6333 272.54517
233.39317 257.6333 272.54517
239.53523 257.6333 272.54517
245.67708 257.6333 272.54517
-200.59886 329.50928 153.13696
-194.69885 329.50928 153.13696
-188.799 329.50928 153.13696
-182.89899 329.50928 153.13696
-176.99901 329.50928 153.13696
-171.09903 329.50928 153.13696
-165.19902 329.50928 153.13696
-159.29916 329.50928 153.13696
-153.39915 329.50928 153.13696
-148.9895 310.40771 181.96533
-141.59918 329.50928 153.13696
-135.69919 329.50928 153.13696
-129.79932 329.50928 153.13696
-123.89933 329.50928 153.13696
-117.99934 329.50928 153.13696
-112.09934 329.50928 153.13696
-106.19936 329.50928 153.13696
-100.29948 329.50928 153.13696
139.85284 271.64282 240.46924
144.46074 291.30615 210.79321
150.47984 291.30615 210.79321
158.09448 271.64282 240.46924
164.17517 271.64282 240.46924
170.25565 271.64282 240.46924
176.33633 271.64282 240.46924
182.41681 271.64282 240.46924
188.49728 271.64282 240.46924
194.57797 271.64282 240.46924
200.65845 271.64282 240.46924
206.73914 271.64282 240.46924
212.81961 271.64282 240.46924
218.90009 271.64282 240.46924
224.98077 271.64282 240.46924
233.39317 251.97949 270.14526
239.53523 251.97949 270.14526
245.67708 251.97949 270.14526
-206.49884 324.07837 150.83154
-200.59886 324.07837 150.83154
-194.69885 324.07837 150.83154
-188.799 324.07837 150.83154
-182.89899 324.07837 150.83154
-176.99901 324.07837 150.83154
-171.09903 324.07837 150.83154
-165.19902 324.07837 150.83154
-159.29916 324.07837 150.83154
-153.39915 324.07837 150.83154
-148.9895 304.92188 179.63672
-143.02991 304.92188 179.63672
-135.69919 324.07837 150.83154
-129.79932 324.07837 150.83154
-123.89933 324.07837 150.83154
-119.1916 304.92188 179.63672
-113.232 304.92188 179.63672
-106.19936 324.07837 150.83154
-100.29948 324.07837 150.83154
142.71603 226.04248 298.24463
144.46074 285.7655 208.44141
150.47984 285.7655 208.44141
158.09448 266.04565 238.09326
164.17517 266.04565 238.09326
170.25565 266.04565 238.09326
176.33633 266.04565 238.09326
182.41681 266.04565 238.09326
188.49728 266.04565 238.09326
194.57797 266.04565 238.09326
200.65845 266.04565 238.09326
206.73914 266.04565 238.09326
212.81961 266.04565 238.09326
218.90009 266.04565 238.09326
224.98077 266.04565 238.09326
233.39317 246.32593 267.74561
239.53523 246.32593 267.74561
245.67708 246.32593 267.74561
-212.39882 318.64734 148.52637
-206.49884 318.64734 148.52637
-200.59886 318.64734 148.52637
-194.69885 318.64734 148.52637
-188.799 318.64734 148.52637
-182.89899 318.64734 148.52637
-176.99901 318.64734 148.52637
-171.09903 318.64734 148.52637
-165.19902 318.64734 148.52637
-159.29916 318.64734 148.52637
-154.94911 299.43604 177.30811
-148.9895 299.43604 177.30811
-143.02991 299.43604 177.30811
-137.0703 299.43604 177.30811
-131.11081 299.43604 177.30811
-125.15121 299.43604 177.30811
-119.1916 299.43604 177.30811
-113.232 299.43604 177.30811
-107.27239 299.43604 177.30811
-101.31291 299.43604 177.30811
142.71603 220.33057 295.82031
148.92122 220.33057 295.82031
152.01401 260.44836 235.71753
158.09448 260.44836 235.71753
164.17517 260.44836 235.71753
170.25565 260.44836 235.71753
176.33633 260.44836 235.71753
182.41681 260.44836 235.71753
188.49728 260.44836 235.71753
194.57797 260.44836 235.71753
200.65845 260.44836 235.71753
206.73914 260.44836 235.71753
212.81961 260.44836 235.71753
218.90009 260.44836 235.71753
227.25134 240.67212 265.3457
233.39317 240.67212 265.3457
239.53523 240.67212 265.3457
245.67708 240.67212 265.3457
-212.39882 313.21655 146.22095
-206.49884 313.21655 146.22095
-200.59886 313.21655 146.22095
-194.69885 313.21655 146.22095
-188.799 313.21655 146.22095
-182.89899 313.21655 146.22095
-178.7874 293.95032 174.97949
-172.8278 293.95032 174.97949
-165.19902 313.21655 146.22095
-159.29916 313.21655 146.22095
-154.94911 293.95032 174.97949
-148.9895 293.95032 174.97949
-143.02991 293.95032 174.97949
-137.0703 293.95032 174.97949
-131.11081 293.95032 174.97949
-125.15121 293.95032 174.97949
-119.1916 293.95032 174.97949
-114.36465 274.68408 203.73779
-108.34544 274.68408 203.73779
-102.32633 274.68408 203.73779
142.71603 214.61902 293.39575
147.40634 235.01855 262.9458
153.54817 235.01855 262.9458
159.69002 235.01855 262.9458
165.83208 235.01855 262.9458
170.25565 254.85132 233.34155
176.33633 254.85132 233.34155
182.41681 254.85132 233.34155
188.49728 254.85132 233.34155
194.57797 254.85132 233.34155
200.65845 254.85132 233.34155
206.73914 254.85132 233.34155
212.81961 254.85132 233.34155
221.10928 235.01855 262.9458
227.25134 235.01855 262.9458
233.39317 235.01855 262.9458
239.53523 235.01855 262.9458
245.67708 235.01855 262.9458
-212.39882 307.78552 143.91577
-206.49884 307.78552 143.91577
-200.59886 307.78552 143.91577
-194.69885 307.78552 143.91577
-188.799 307.78552 143.91577
-182.89899 307.78552 143.91577
-178.7874 288.46436 172.65088
-172.8278 288.46436 172.65088
-165.19902 307.78552 143.91577
-159.29916 307.78552 143.91577
-154.94911 288.46436 172.65088
-148.9895 288.46436 172.65088
-143.02991 288.46436 172.65088
-137.0703 288.46436 172.65088
-131.11081 288.46436 172.65088
-125.15121 288.46436 172.65088
-119.1916 288.46436 172.65088
-114.36465 269.14331 201.38574
-108.34544 269.14331 201.38574
-102.32633 269.14331 201.38574
147.40634 229.36487 260.5459
153.54817 229.36487 260.5459
159.69002 229.36487 260.5459
165.83208 229.36487 260.5459
170.25565 249.25415 230.96582
176.33633 249.25415 230.96582
182.41681 249.25415 230.96582
186.59491 269.14331 201.38574
192.61424 269.14331 201.38574
200.65845 249.25415 230.96582
206.73914 249.25415 230.96582
212.81961 249.25415 230.96582
221.10928 229.36487 260.5459
227.25134 229.36487 260.5459
233.39317 229.36487 260.5459
239.53523 229.36487 260.5459
245.67708 229.36487 260.5459
-212.39882 302.35461 141.61035
-206.49884 302.35461 141.61035
-200.59886 302.35461 141.61035
-194.69885 302.35461 141.61035
-188.799 302.35461 141.61035
-184.74701 282.97864 170.32227
-178.7874 282.97864 170.32227
-172.8278 282.97864 170.32227
-166.86819 282.97864 170.32227
-160.90871 282.97864 170.32227
-154.94911 282.97864 170.32227
-148.9895 282.97864 170.32227
-143.02991 282.97864 170.32227
-137.0703 282.97864 170.32227
-131.11081 282.97864 170.32227
-125.15121 282.97864 170.32227
-120.38387 263.60266 199.03394
-115.53062 243.65698 228.58984
-109.45004 243.65698 228.58984
-103.36957 243.65698 228.58984
147.40634 223.71118 258.146
153.54817 223.71118 258.146
159.69002 223.71118 258.146
164.17517 243.65698 228.58984
170.25565 243.65698 228.58984
176.33633 243.65698 228.58984
182.41681 243.65698 228.58984
186.59491 263.60266 199.03394
192.61424 263.60266 199.03394
200.65845 243.65698 228.58984
206.73914 243.65698 228.58984
212.81961 243.65698 228.58984
218.90009 243.65698 228.58984
227.25134 223.71118 258.146
233.39317 223.71118 258.146
239.53523 223.71118 258.146
248.20187 203.19543 288.54663
-216.22287 315.2113 112.30444
-210.379 315.2113 112.30444
-206.49884 296.92358 139.30518
-200.59886 296.92358 139.30518
-196.66609 277.4928 167.99365
-190.70662 277.4928 167.99365
-184.74701 277.4928 167.99365
-178.7874 277.4928 167.99365
-172.8278 277.4928 167.99365
-166.86819 277.4928 167.99365
-160.90871 277.4928 167.99365
-154.94911 277.4928 167.99365
-148.9895 277.4928 167.99365
-144.46062 258.06189 196.68188
-138.44141 258.06189 196.68188
-132.4223 258.06189 196.68188
-126.40308 258.06189 196.68188
-121.61121 238.05969 226.21387
-115.53062 238.05969 226.21387
-109.45004 238.05969 226.21387
-103.36957 238.05969 226.21387
142.71603 197.48364 286.12207
147.40634 218.0575 255.74634
153.54817 218.0575 255.74634
159.69002 218.0575 255.74634
164.17517 238.05969 226.21387
170.25565 238.05969 226.21387
176.33633 238.05969 226.21387
182.41681 238.05969 226.21387
188.49728 238.05969 226.21387
194.57797 238.05969 226.21387
200.65845 238.05969 226.21387
206.73914 238.05969 226.21387
212.81961 238.05969 226.21387
218.90009 238.05969 226.21387
227.25134 218.0575 255.74634
233.39317 218.0575 255.74634
239.53523 218.0575 255.74634
248.20187 197.48364 286.12207
-216.22287 309.83203 110.021
-210.379 309.83203 110.021
-206.49884 291.49268 136.99976
-202.6257 272.00708 165.66504
-196.66609 272.00708 165.66504
-190.70662 272.00708 165.66504
-184.74701 272.00708 165.66504
-180.57581 252.52124 194.33008
-172.8278 272.00708 165.66504
-166.86819 272.00708 165.66504
-160.90871 272.00708 165.66504
-154.94911 272.00708 165.66504
-148.9895 272.00708 165.66504
-144.46062 252.52124 194.33008
-138.44141 252.52124 194.33008
-132.4223 252.52124 194.33008
-126.40308 252.52124 194.33008
-121.61121 232.46265 223.83813
-115.53062 232.46265 223.83813
-109.45004 232.46265 223.83813
-103.36957 232.46265 223.83813
142.71603 191.77197 283.69775
148.92122 191.77197 283.69775
153.54817 212.40381 253.34644
159.69002 212.40381 253.34644
165.83208 212.40381 253.34644
171.97391 212.40381 253.34644
176.33633 232.46265 223.83813
182.41681 232.46265 223.83813
188.49728 232.46265 223.83813
194.57797 232.46265 223.83813
200.65845 232.46265 223.83813
206.73914 232.46265 223.83813
214.96744 212.40381 253.34644
221.10928 212.40381 253.34644
227.25134 212.40381 253.34644
233.39317 212.40381 253.34644
241.99692 191.77197 283.69775
248.20187 191.77197 283.69775
254.40683 191.77197 283.69775
-218.29883 286.06177 134.69458
-212.39882 286.06177 134.69458
-208.58531 266.52112 163.33643
-202.6257 266.52112 163.33643
-198.63335 246.98047 191.97827
-192.61424 246.98047 191.97827
-186.59503 246.98047 191.97827
-180.57581 246.98047 191.97827
-172.8278 266.52112 163.33643
-166.86819 266.52112 163.33643
-160.90871 266.52112 163.33643
-154.94911 266.52112 163.33643
-150.47984 246.98047 191.97827
-144.46062 246.98047 191.97827
-138.44141 246.98047 191.97827
-132.4223 246.98047 191.97827
-126.40308 246.98047 191.97827
-121.61121 226.86536 221.4624
-115.53062 226.86536 221.4624
-110.55464 206.75012 250.94653
142.71603 186.06006 281.27319
147.40634 206.75012 250.94653
153.54817 206.75012 250.94653
159.69002 206.75012 250.94653
165.83208 206.75012 250.94653
171.97391 206.75012 250.94653
178.11597 206.75012 250.94653
184.25781 206.75012 250.94653
190.39964 206.75012 250.94653
194.57797 226.86536 221.4624
200.65845 226.86536 221.4624
208.82561 206.75012 250.94653
214.96744 206.75012 250.94653
221.10928 206.75012 250.94653
227.25134 206.75012 250.94653
233.39317 206.75012 250.94653
241.99692 186.06006 281.27319
248.20187 186.06006 281.27319
254.40683 186.06006 281.27319
263.3367 164.79541 312.44214
-214.54491 261.0354 161.00781
-208.58531 261.0354 161.00781
-202.6257 261.0354 161.00781
-198.63335 241.43994 189.62646
-192.61424 241.43994 189.62646
-186.59503 241.43994 189.62646
-180.57581 241.43994 189.62646
-172.8278 261.0354 161.00781
-166.86819 261.0354 161.00781
-160.90871 261.0354 161.00781
-156.49907 241.43994 189.62646
-150.47984 241.43994 189.62646
-144.46062 241.43994 189.62646
-138.44141 241.43994 189.62646
-133.77237 221.26831 219.08643
-127.69179 221.26831 219.08643
-121.61121 221.26831 219.08643
-116.69659 201.09644 248.54688
-110.55464 201.09644 248.54688
141.26427 201.09644 248.54688
147.40634 201.09644 248.54688
153.54817 201.09644 248.54688
159.69002 201.09644 248.54688
165.83208 201.09644 248.54688
171.97391 201.09644 248.54688
178.11597 201.09644 248.54688
184.25781 201.09644 248.54688
190.39964 201.09644 248.54688
196.5417 201.09644 248.54688
202.68355 201.09644 248.54688
208.82561 201.09644 248.54688
214.96744 201.09644 248.54688
221.10928 201.09644 248.54688
227.25134 201.09644 248.54688
233.39317 201.09644 248.54688
239.53523 201.09644 248.54688
248.20187 180.34839 278.84863
254.40683 180.34839 278.84863
260.61203 180.34839 278.84863
-224.98077 215.6709 216.71045
-216.69099 235.89917 187.27441
-210.67177 235.89917 187.27441
-204.65256 235.89917 187.27441
-200.65845 215.6709 216.71045
-192.61424 235.89917 187.27441
-186.59503 235.89917 187.27441
-180.57581 235.89917 187.27441
-174.55658 235.89917 187.27441
-168.53737 235.89917 187.27441
-162.51826 235.89917 187.27441
-156.49907 235.89917 187.27441
-150.47984 235.89917 187.27441
-144.46062 235.89917 187.27441
-138.44141 235.89917 187.27441
-133.77237 215.6709 216.71045
-127.69179 215.6709 216.71045
-122.83854 195.44287 246.14697
-116.69659 195.44287 246.14697
-110.55464 195.44287 246.14697
141.26427 195.44287 246.14697
147.40634 195.44287 246.14697
153.54817 195.44287 246.14697
159.69002 195.44287 246.14697
165.83208 195.44287 246.14697
171.97391 195.44287 246.14697
178.11597 195.44287 246.14697
184.25781 195.44287 246.14697
190.39964 195.44287 246.14697
196.5417 195.44287 246.14697
202.68355 195.44287 246.14697
208.82561 195.44287 246.14697
214.96744 195.44287 246.14697
221.10928 195.44287 246.14697
227.25134 195.44287 246.14697
233.39317 195.44287 246.14697
239.53523 195.44287 246.14697
248.20187 174.63647 276.42407
254.40683 174.63647 276.42407
260.61203 174.63647 276.42407
269.60651 153.25244 307.54248
-224.98077 210.07397 214.33472
-216.69099 230.35852 184.92261
-210.67177 230.35852 184.92261
-204.65256 230.35852 184.92261
-198.63335 230.35852 184.92261
-194.57797 210.07397 214.33472
-186.59503 230.35852 184.92261
-180.57581 230.35852 184.92261
-174.55658 230.35852 184.92261
-168.53737 230.35852 184.92261
-162.51826 230.35852 184.92261
-156.49907 230.35852 184.92261
-150.47984 230.35852 184.92261
-144.46062 230.35852 184.92261
-139.85284 210.07397 214.33472
-133.77237 210.07397 214.33472
-127.69179 210.07397 214.33472
-122.83854 189.78918 243.74707
-116.69659 189.78918 243.74707
-111.6908 168.9248 273.99976
141.26427 189.78918 243.74707
147.40634 189.78918 243.74707
153.54817 189.78918 243.74707
159.69002 189.78918 243.74707
165.83208 189.78918 243.74707
171.97391 189.78918 243.74707
178.11597 189.78918 243.74707
184.25781 189.78918 243.74707
190.39964 189.78918 243.74707
196.5417 189.78918 243.74707
202.68355 189.78918 243.74707
208.82561 189.78918 243.74707
214.96744 189.78918 243.74707
221.10928 189.78918 243.74707
227.25134 189.78918 243.74707
233.39317 189.78918 243.74707
239.53523 189.78918 243.74707
245.67708 189.78918 243.74707
254.40683 168.9248 273.99976
260.61203 168.9248 273.99976
269.60651 147.48096 305.09253
-227.25134 184.1355 241.34717
-216.69099 224.81775 182.5708
-210.67177 224.81775 182.5708
-204.65256 224.81775 182.5708
-198.63335 224.81775 182.5708
-194.57797 204.47656 211.95898
-186.59503 224.81775 182.5708
-180.57581 224.81775 182.5708
-174.55658 224.81775 182.5708
-168.53737 224.81775 182.5708
-162.51826 224.81775 182.5708
-156.49907 224.81775 182.5708
-150.47984 224.81775 182.5708
-144.46062 224.81775 182.5708
-139.85284 204.47656 211.95898
-133.77237 204.47656 211.95898
-127.69179 204.47656 211.95898
-122.83854 184.1355 241.34717
-117.89587 163.21289 271.5752
147.40634 184.1355 241.34717
153.54817 184.1355 241.34717
159.69002 184.1355 241.34717
165.83208 184.1355 241.34717
171.97391 184.1355 241.34717
178.11597 184.1355 241.34717
184.25781 184.1355 241.34717
190.39964 184.1355 241.34717
196.5417 184.1355 241.34717
202.68355 184.1355 241.34717
208.82561 184.1355 241.34717
214.96744 184.1355 241.34717
221.10928 184.1355 241.34717
227.25134 184.1355 241.34717
233.39317 184.1355 241.34717
239.53523 184.1355 241.34717
245.67708 184.1355 241.34717
254.40683 163.21289 271.5752
260.61203 163.21289 271.5752
269.60651 141.70947 302.64258
275.87659 141.70947 302.64258
-227.25134 178.48193 238.94751
-218.90019 198.87952 209.58301
-212.81961 198.87952 209.58301
-204.65256 219.2771 180.21875
-198.63335 219.2771 180.21875
-192.61424 219.2771 180.21875
-186.59503 219.2771 180.21875
-180.57581 219.2771 180.21875
-174.55658 219.2771 180.21875
-168.53737 219.2771 180.21875
-162.51826 219.2771 180.21875
-156.49907 219.2771 180.21875
-150.47984 219.2771 180.21875
-144.46062 219.2771 180.21875
-139.85284 198.87952 209.58301
-133.77237 198.87952 209.58301
-127.69179 198.87952 209.58301
-122.83854 178.48193 238.94751
-117.89587 157.50122 269.15063
147.40634 178.48193 238.94751
153.54817 178.48193 238.94751
159.69002 178.48193 238.94751
165.83208 178.48193 238.94751
171.97391 178.48193 238.94751
178.11597 178.48193 238.94751
184.25781 178.48193 238.94751
190.39964 178.48193 238.94751
196.5417 178.48193 238.94751
202.68355 178.48193 238.94751
208.82561 178.48193 238.94751
214.96744 178.48193 238.94751
221.10928 178.48193 238.94751
227.25134 178.48193 238.94751
233.39317 178.48193 238.94751
239.53523 178.48193 238.94751
248.20187 157.50122 269.15063
254.40683 157.50122 269.15063
260.61203 157.50122 269.15063
269.60651 135.93799 300.19287
275.87659 135.93799 300.19287
-227.25134 172.82812 236.54761
-218.90019 193.28223 207.20703
-212.81961 193.28223 207.20703
-204.65256 213.73633 177.86694
-198.63335 213.73633 177.86694
-192.61424 213.73633 177.86694
-186.59503 213.73633 177.86694
-180.57581 213.73633 177.86694
-174.55658 213.73633 177.86694
-168.53737 213.73633 177.86694
-162.51826 213.73633 177.86694
-156.49907 213.73633 177.86694
-150.47984 213.73633 177.86694
-145.93341 193.28223 207.20703
-139.85284 193.28223 207.20703
-133.77237 193.28223 207.20703
-127.69179 193.28223 207.20703
-122.83854 172.82812 236.54761
-117.89587 151.78955 266.72607
155.12617 151.78955 266.72607
161.33112 151.78955 266.72607
165.83208 172.82812 236.54761
171.97391 172.82812 236.54761
178.11597 172.82812 236.54761
184.25781 172.82812 236.54761
190.39964 172.82812 236.54761
196.5417 172.82812 236.54761
202.68355 172.82812 236.54761
208.82561 172.82812 236.54761
214.96744 172.82812 236.54761
221.10928 172.82812 236.54761
227.25134 172.82812 236.54761
233.39317 172.82812 236.54761
239.53523 172.82812 236.54761
248.20187 151.78955 266.72607
254.40683 151.78955 266.72607
260.61203 151.78955 266.72607
269.60651 130.1665 297.74292
275.87659 130.1665 297.74292
-227.25134 167.17432 234.14771
-218.90019 187.68506 204.8313
-212.81961 187.68506 204.8313
-204.65256 208.19556 175.51514
-198.63335 208.19556 175.51514
-192.61424 208.19556 175.51514
-186.59503 208.19556 175.51514
-180.57581 208.19556 175.51514
-174.55658 208.19556 175.51514
-168.53737 208.19556 175.51514
-162.51826 208.19556 175.51514
-156.49907 208.19556 175.51514
-152.01401 187.68506 204.8313
-145.93341 187.68506 204.8313
-139.85284 187.68506 204.8313
-133.77237 187.68506 204.8313
-128.98048 167.17432 234.14771
-124.10094 146.07764 264.30176
-117.89587 146.07764 264.30176
155.12617 146.07764 264.30176
161.33112 146.07764 264.30176
165.83208 167.17432 234.14771
171.97391 167.17432 234.14771
178.11597 167.17432 234.14771
184.25781 167.17432 234.14771
190.39964 167.17432 234.14771
196.5417 167.17432 234.14771
202.68355 167.17432 234.14771
208.82561 167.17432 234.14771
214.96744 167.17432 234.14771
221.10928 167.17432 234.14771
227.25134 167.17432 234.14771
233.39317 167.17432 234.14771
239.53523 167.17432 234.14771
248.20187 146.07764 264.30176
254.40683 146.07764 264.30176
260.61203 146.07764 264.30176
269.60651 124.39502 295.29321
275.87659 124.39502 295.29321
-227.25134 161.52075 231.7478
-218.90019 182.08789 202.45532
-212.81961 182.08789 202.45532
-204.65256 202.65503 173.16309
-198.63335 202.65503 173.16309
-192.61424 202.65503 173.16309
-186.59503 202.65503 173.16309
-180.57581 202.65503 173.16309
-174.55658 202.65503 173.16309
-168.53737 202.65503 173.16309
-162.51826 202.65503 173.16309
-156.49907 202.65503 173.16309
-152.01401 182.08789 202.45532
-145.93341 182.08789 202.45532
-139.85284 182.08789 202.45532
-135.12244 161.52075 231.7478
-128.98048 161.52075 231.7478
-124.10094 140.36597 261.8772
-117.89587 140.36597 261.8772
155.12617 140.36597 261.8772
161.33112 140.36597 261.8772
165.83208 161.52075 231.7478
171.97391 161.52075 231.7478
178.11597 161.52075 231.7478
184.25781 161.52075 231.7478
190.39964 161.52075 231.7478
196.5417 161.52075 231.7478
202.68355 161.52075 231.7478
206.73914 182.08789 202.45532
212.81961 182.08789 202.45532
221.10928 161.52075 231.7478
227.25134 161.52075 231.7478
233.39317 161.52075 231.7478
239.53523 161.52075 231.7478
248.20187 140.36597 261.8772
254.40683 140.36597 261.8772
260.61203 140.36597 261.8772
269.60651 118.62354 292.84326
278.80817 96.293457 324.64648
-227.25134 155.86694 229.3479
-221.10941 155.86694 229.3479
-212.81961 176.4906 200.07959
-204.65256 197.11426 170.81128
-198.63335 197.11426 170.81128
-192.61424 197.11426 170.81128
-186.59503 197.11426 170.81128
-180.57581 197.11426 170.81128
-174.55658 197.11426 170.81128
-168.53737 197.11426 170.81128
-162.51826 197.11426 170.81128
-158.09459 176.4906 200.07959
-152.01401 176.4906 200.07959
-145.93341 176.4906 200.07959
-139.85284 176.4906 200.07959
-135.12244 155.86694 229.3479
-128.98048 155.86694 229.3479
-122.83854 155.86694 229.3479
-117.89587 134.65405 259.45264
155.12617 134.65405 259.45264
161.33112 134.65405 259.45264
165.83208 155.86694 229.3479
171.97391 155.86694 229.3479
178.11597 155.86694 229.3479
184.25781 155.86694 229.3479
190.39964 155.86694 229.3479
196.5417 155.86694 229.3479
202.68355 155.86694 229.3479
206.73914 176.4906 200.07959
212.81961 176.4906 200.07959
221.10928 155.86694 229.3479
227.25134 155.86694 229.3479
233.39317 155.86694 229.3479
239.53523 155.86694 229.3479
248.20187 134.65405 259.45264
254.40683 134.65405 259.45264
260.61203 134.65405 259.45264
269.60651 112.85181 290.39331
275.87659 112.85181 290.39331
-227.25134 150.21338 226.94824
-221.10941 150.21338 226.94824
-212.81961 170.89355 197.70361
-206.73901 170.89355 197.70361
-200.65845 170.89355 197.70361
-192.61424 191.57361 168.45947
-186.59503 191.57361 168.45947
-180.57581 191.57361 168.45947
-174.55658 191.57361 168.45947
-168.53737 191.57361 168.45947
-162.51826 191.57361 168.45947
-158.09459 170.89355 197.70361
-152.01401 170.89355 197.70361
-145.93341 170.89355 197.70361
-139.85284 170.89355 197.70361
-135.12244 150.21338 226.94824
-128.98048 150.21338 226.94824
-122.83854 150.21338 226.94824
156.748 107.08057 287.9436
161.33112 128.94238 257.02808
167.53632 128.94238 257.02808
171.97391 150.21338 226.94824
178.11597 150.21338 226.94824
184.25781 150.21338 226.94824
190.39964 150.21338 226.94824
196.5417 150.21338 226.94824
202.68355 150.21338 226.94824
208.82561 150.21338 226.94824
214.96744 150.21338 226.94824
221.10928 150.21338 226.94824
227.25134 150.21338 226.94824
233.39317 150.21338 226.94824
239.53523 150.21338 226.94824
248.20187 128.94238 257.02808
254.40683 128.94238 257.02808
260.61203 128.94238 257.02808
269.60651 107.08057 287.9436
275.87659 107.08057 287.9436
-227.25134 144.55981 224.54834
-221.10941 144.55981 224.54834
-212.81961 165.29639 195.32764
-206.73901 165.29639 195.32764
-200.65845 165.29639 195.32764
-192.61424 186.03284 166.10742
-186.59503 186.03284 166.10742
-180.57581 186.03284 166.10742
-174.55658 186.03284 166.10742
-168.53737 186.03284 166.10742
-162.51826 186.03284 166.10742
-158.09459 165.29639 195.32764
-152.01401 165.29639 195.32764
-145.93341 165.29639 195.32764
-139.85284 165.29639 195.32764
-135.12244 144.55981 224.54834
-128.98048 144.55981 224.54834
-122.83854 144.55981 224.54834
163.01784 101.30908 285.49365
167.53632 123.23047 254.60352
173.74127 123.23047 254.60352
178.11597 144.55981 224.54834
184.25781 144.55981 224.54834
190.39964 144.55981 224.54834
196.5417 144.55981 224.54834
202.68355 144.55981 224.54834
208.82561 144.55981 224.54834
214.96744 144.55981 224.54834
221.10928 144.55981 224.54834
227.25134 144.55981 224.54834
235.79173 123.23047 254.60352
241.99692 123.23047 254.60352
248.20187 123.23047 254.60352
254.40683 123.23047 254.60352
260.61203 123.23047 254.60352
266.81696 123.23047 254.60352
275.87659 101.30908 285.49365
288.22171 55.688477 349.77881
-227.25134 138.90601 222.14844
-221.10941 138.90601 222.14844
-212.81961 159.69922 192.9519
-206.73901 159.69922 192.9519
-200.65845 159.69922 192.9519
-194.57797 159.69922 192.9519
-186.59503 180.49219 163.75562
-180.57581 180.49219 163.75562
-174.55658 180.49219 163.75562
-168.53737 180.49219 163.75562
-164.17517 159.69922 192.9519
-158.09459 159.69922 192.9519
-152.01401 159.69922 192.9519
-145.93341 159.69922 192.9519
-139.85284 159.69922 192.9519
-135.12244 138.90601 222.14844
-128.98048 138.90601 222.14844
-122.83854 138.90601 222.14844
163.01784 95.537598 283.04395
167.53632 117.5188 252.1792
173.74127 117.5188 252.1792
179.94646 117.5188 252.1792
184.25781 138.90601 222.14844
190.39964 138.90601 222.14844
196.5417 138.90601 222.14844
202.68355 138.90601 222.14844
208.82561 138.90601 222.14844
214.96744 138.90601 222.14844
221.10928 138.90601 222.14844
227.25134 138.90601 222.14844
235.79173 117.5188 252.1792
241.99692 117.5188 252.1792
248.20187 117.5188 252.1792
254.40683 117.5188 252.1792
260.61203 117.5188 252.1792
266.81696 117.5188 252.1792
275.87659 95.537598 283.04395
288.22171 49.792725 347.27612
-233.39317 133.25244 219.74854
-227.25134 133.25244 219.74854
-218.90019 154.10181 190.57593
-212.81961 154.10181 190.57593
-206.73901 154.10181 190.57593
-200.65845 154.10181 190.57593
-194.57797 154.10181 190.57593
-188.49739 154.10181 190.57593
-182.41681 154.10181 190.57593
-176.33621 154.10181 190.57593
-170.25565 154.10181 190.57593
-164.17517 154.10181 190.57593
-158.09459 154.10181 190.57593
-152.01401 154.10181 190.57593
-145.93341 154.10181 190.57593
-139.85284 154.10181 190.57593
-135.12244 133.25244 219.74854
-128.98048 133.25244 219.74854
-122.83854 133.25244 219.74854
169.2879 89.765869 280.59399
173.74127 111.80713 249.75464
179.94646 111.80713 249.75464
184.25781 133.25244 219.74854
190.39964 133.25244 219.74854
196.5417 133.25244 219.74854
202.68355 133.25244 219.74854
208.82561 133.25244 219.74854
214.96744 133.25244 219.74854
221.10928 133.25244 219.74854
229.58678 111.80713 249.75464
235.79173 111.80713 249.75464
241.99692 111.80713 249.75464
248.20187 111.80713 249.75464
254.40683 111.80713 249.75464
263.3367 89.765869 280.59399
269.60651 89.765869 280.59399
278.80817 67.129395 312.26709
288.22171 43.896973 344.77344
294.62656 43.896973 344.77344
-233.39317 127.59863 217.34888
-224.98077 148.50488 188.2002
-218.90019 148.50488 188.2002
-212.81961 148.50488 188.2002
-206.73901 148.50488 188.2002
-200.65845 148.50488 188.2002
-194.57797 148.50488 188.2002
-188.49739 148.50488 188.2002
-182.41681 148.50488 188.2002
-176.33621 148.50488 188.2002
-170.25565 148.50488 188.2002
-164.17517 148.50488 188.2002
-158.09459 148.50488 188.2002
-152.01401 148.50488 188.2002
-145.93341 148.50488 188.2002
-139.85284 148.50488 188.2002
-135.12244 127.59863 217.34888
-128.98048 127.59863 217.34888
-124.10094 106.09521 247.33008
175.55771 83.994629 278.14429
179.94646 106.09521 247.33008
186.15141 106.09521 247.33008
192.35635 106.09521 247.33008
196.5417 127.59863 217.34888
202.68355 127.59863 217.34888
208.82561 127.59863 217.34888
214.96744 127.59863 217.34888
221.10928 127.59863 217.34888
229.58678 106.09521 247.33008
235.79173 106.09521 247.33008
241.99692 106.09521 247.33008
248.20187 106.09521 247.33008
254.40683 106.09521 247.33008
263.3367 83.994629 278.14429
269.60651 83.994629 278.14429
278.80817 61.296387 309.79126
285.14462 61.296387 309.79126
294.62656 38.001221 342.271
-224.98077 142.90747 185.82422
-218.90019 142.90747 185.82422
-212.81961 142.90747 185.82422
-206.73901 142.90747 185.82422
-200.65845 142.90747 185.82422
-194.57797 142.90747 185.82422
-188.49739 142.90747 185.82422
-182.41681 142.90747 185.82422
-176.33621 142.90747 185.82422
-170.25565 142.90747 185.82422
-164.17517 142.90747 185.82422
-158.09459 142.90747 185.82422
-152.01401 142.90747 185.82422
-145.93341 142.90747 185.82422
-141.26427 121.94507 214.94897
-135.12244 121.94507 214.94897
-130.30602 100.3833 244.90552
171.08681 55.463623 307.31519
175.55771 78.223145 275.69434
179.94646 100.3833 244.90552
186.15141 100.3833 244.90552
192.35635 100.3833 244.90552
196.5417 121.94507 214.94897
202.68355 121.94507 214.94897
208.82561 121.94507 214.94897
214.96744 121.94507 214.94897
223.38159 100.3833 244.90552
229.58678 100.3833 244.90552
235.79173 100.3833 244.90552
241.99692 100.3833 244.90552
248.20187 100.3833 244.90552
254.40683 100.3833 244.90552
263.3367 78.223145 275.69434
269.60651 78.223145 275.69434
278.80817 55.463623 307.31519
285.14462 55.463623 307.31519
294.62656 32.105469 339.76831
301.03162 32.105469 339.76831
-239.53511 116.2915 212.54907
-233.39317 116.2915 212.54907
-224.98077 137.31055 183.44849
-218.90019 137.31055 183.44849
-212.81961 137.31055 183.44849
-206.73901 137.31055 183.44849
-200.65845 137.31055 183.44849
-194.57797 137.31055 183.44849
-188.49739 137.31055 183.44849
-182.41681 137.31055 183.44849
-176.33621 137.31055 183.44849
-170.25565 137.31055 183.44849
-164.17517 137.31055 183.44849
-158.09459 137.31055 183.44849
-152.01401 137.31055 183.44849
-147.40622 116.2915 212.54907
-141.26427 116.2915 212.54907
-135.12244 116.2915 212.54907
-130.30602 94.671875 242.4812
177.42326 49.630859 304.83936
179.94646 94.671875 242.4812
186.15141 94.671875 242.4812
192.35635 94.671875 242.4812
198.56155 94.671875 242.4812
204.76649 94.671875 242.4812
210.97169 94.671875 242.4812
217.17664 94.671875 242.4812
223.38159 94.671875 242.4812
229.58678 94.671875 242.4812
235.79173 94.671875 242.4812
241.99692 94.671875 242.4812
248.20187 94.671875 242.4812
257.06665 72.45166 273.24438
263.3367 72.45166 273.24438
269.60651 72.45166 273.24438
278.80817 49.630859 304.83936
285.14462 49.630859 304.83936
294.62656 26.209717 337.26562
301.03162 26.209717 337.26562
-239.53511 110.6377 210.14917
-233.39317 110.6377 210.14917
-224.98077 131.71313 181.07251
-218.90019 131.71313 181.07251
-212.81961 131.71313 181.07251
-206.73901 131.71313 181.07251
-200.65845 131.71313 181.07251
-194.57797 131.71313 181.07251
-188.49739 131.71313 181.07251
-182.41681 131.71313 181.07251
-176.33621 131.71313 181.07251
-170.25565 131.71313 181.07251
-164.17517 131.71313 181.07251
-158.09459 131.71313 181.07251
-152.01401 131.71313 181.07251
-147.40622 110.6377 210.14917
-141.26427 110.6377 210.14917
-135.12244 110.6377 210.14917
177.42326 43.797852 302.36353
181.82777 66.679932 270.79468
186.15141 88.959961 240.05664
192.35635 88.959961 240.05664
198.56155 88.959961 240.05664
204.76649 88.959961 240.05664
210.97169 88.959961 240.05664
217.17664 88.959961 240.05664
223.38159 88.959961 240.05664
229.58678 88.959961 240.05664
235.79173 88.959961 240.05664
241.99692 88.959961 240.05664
248.20187 88.959961 240.05664
254.40683 88.959961 240.05664
263.3367 66.679932 270.79468
269.60651 66.679932 270.79468
278.80817 43.797852 302.36353
285.14462 43.797852 302.36353
294.62656 20.313721 334.76318
-224.98077 126.11621 178.69678
-218.90019 126.11621 178.69678
-212.81961 126.11621 178.69678
-206.73901 126.11621 178.69678
-200.65845 126.11621 178.69678
-194.57797 126.11621 178.69678
-188.49739 126.11621 178.69678
-182.41681 126.11621 178.69678
-176.33621 126.11621 178.69678
-170.25565 126.11621 178.69678
-164.17517 126.11621 178.69678
-158.09459 126.11621 178.69678
-152.01401 126.11621 178.69678
-147.40622 104.98413 207.74951
-141.26427 104.98413 207.74951
-135.12244 104.98413 207.74951
177.42326 37.965332 299.8877
181.82777 60.908691 268.34473
186.15141 83.248047 237.63208
192.35635 83.248047 237.63208
198.56155 83.248047 237.63208
204.76649 83.248047 237.63208
210.97169 83.248047 237.63208
217.17664 83.248047 237.63208
223.38159 83.248047 237.63208
229.58678 83.248047 237.63208
235.79173 83.248047 237.63208
241.99692 83.248047 237.63208
248.20187 83.248047 237.63208
254.40683 83.248047 237.63208
263.3367 60.908691 268.34473
272.47147 37.965332 299.8877
278.80817 37.965332 299.8877
285.14462 37.965332 299.8877
294.62656 14.417969 332.2605
-233.39317 99.330322 205.34961
-224.98077 120.5188 176.3208
-218.90019 120.5188 176.3208
-212.81961 120.5188 176.3208
-206.73901 120.5188 176.3208
-200.65845 120.5188 176.3208
-194.57797 120.5188 176.3208
-188.49739 120.5188 176.3208
-182.41681 120.5188 176.3208
-176.33621 120.5188 176.3208
-170.25565 120.5188 176.3208
-164.17517 120.5188 176.3208
-158.09459 120.5188 176.3208
-153.54817 99.330322 205.34961
-147.40622 99.330322 205.34961
-141.26427 99.330322 205.34961
-136.51108 77.536377 235.20752
177.42326 32.132324 297.41162
181.82777 55.136963 265.89502
186.15141 77.536377 235.20752
192.35635 77.536377 235.20752
198.56155 77.536377 235.20752
204.76649 77.536377 235.20752
210.97169 77.536377 235.20752
217.17664 77.536377 235.20752
223.38159 77.536377 235.20752
229.58678 77.536377 235.20752
235.79173 77.536377 235.20752
241.99692 77.536377 235.20752
248.20187 77.536377 235.20752
254.40683 77.536377 235.20752
263.3367 55.136963 265.89502
269.60651 55.136963 265.89502
278.80817 32.132324 297.41162
285.14462 32.132324 297.41162
294.62656 8.5222168 329.75781
301.03162 8.5222168 329.75781
-233.39317 93.676758 202.94971
-227.25134 93.676758 202.94971
-218.90019 114.92163 173.94507
-212.81961 114.92163 173.94507
-206.73901 114.92163 173.94507
-200.65845 114.92163 173.94507
-194.57797 114.92163 173.94507
-188.49739 114.92163 173.94507
-182.41681 114.92163 173.94507
-176.33621 114.92163 173.94507
-170.25565 114.92163 173.94507
-164.17517 114.92163 173.94507
-159.69012 93.676758 202.94971
-153.54817 93.676758 202.94971
-147.40622 93.676758 202.94971
-141.26427 93.676758 202.94971
-136.51108 71.824707 232.7832
177.42326 26.299561 294.93579
181.82777 49.365723 263.44507
186.15141 71.824707 232.7832
192.35635 71.824707 232.7832
198.56155 71.824707 232.7832
204.76649 71.824707 232.7832
210.97169 71.824707 232.7832
217.17664 71.824707 232.7832
223.38159 71.824707 232.7832
229.58678 71.824707 232.7832
235.79173 71.824707 232.7832
241.99692 71.824707 232.7832
248.20187 71.824707 232.7832
254.40683 71.824707 232.7832
263.3367 49.365723 263.44507
269.60651 49.365723 263.44507
278.80817 26.299561 294.93579
285.14462 26.299561 294.93579
294.62656 2.6264648 327.25537
301.03162 2.6264648 327.25537
-233.39317 88.022949 200.5498
-227.25134 88.022949 200.5498
-218.90019 109.32446 171.56909
-212.81961 109.32446 171.56909
-206.73901 109.32446 171.56909
-200.65845 109.32446 171.56909
-194.57797 109.32446 171.56909
-188.49739 109.32446 171.56909
-182.41681 109.32446 171.56909
-176.33621 109.32446 171.56909
-170.25565 109.32446 171.56909
-164.17517 109.32446 171.56909
-159.69012 88.022949 200.5498
-153.54817 88.022949 200.5498
-147.40622 88.022949 200.5498
-141.26427 88.022949 200.5498
-136.51108 66.112793 230.35864
177.42326 20.466797 292.45996
181.82777 43.593994 260.99512
186.15141 66.112793 230.35864
192.35635 66.112793 230.35864
198.56155 66.112793 230.35864
204.76649 66.112793 230.35864
210.97169 66.112793 230.35864
217.17664 66.112793 230.35864
223.38159 66.112793 230.35864
229.58678 66.112793 230.35864
235.79173 66.112793 230.35864
241.99692 66.112793 230.35864
248.20187 66.112793 230.35864
254.40683 66.112793 230.35864
263.3367 43.593994 260.99512
269.60651 43.593994 260.99512
278.80817 20.466797 292.45996
285.14462 20.466797 292.45996
-233.39317 82.369141 198.1499
-227.25134 82.369141 198.1499
-218.90019 103.72729 169.19336
-212.81961 103.72729 169.19336
-206.73901 103.72729 169.19336
-200.65845 103.72729 169.19336
-194.57797 103.72729 169.19336
-188.49739 103.72729 169.19336
-182.41681 103.72729 169.19336
-176.33621 103.72729 169.19336
-170.25565 103.72729 169.19336
-164.17517 103.72729 169.19336
-158.09459 103.72729 169.19336
-153.54817 82.369141 198.1499
-147.40622 82.369141 198.1499
-141.26427 82.369141 198.1499
-136.51108 60.400879 227.93408
177.42326 14.633789 289.98413
183.75995 14.633789 289.98413
186.15141 60.400879 227.93408
192.35635 60.400879 227.93408
200.6375 37.82251 258.54541
204.76649 60.400879 227.93408
210.97169 60.400879 227.93408
217.17664 60.400879 227.93408
223.38159 60.400879 227.93408
229.58678 60.400879 227.93408
235.79173 60.400879 227.93408
241.99692 60.400879 227.93408
248.20187 60.400879 227.93408
254.40683 60.400879 227.93408
263.3367 37.82251 258.54541
269.60651 37.82251 258.54541
278.80817 14.633789 289.98413
285.14462 14.633789 289.98413
-233.39317 76.715576 195.75024
-224.98077 98.130127 166.81738
-218.90019 98.130127 166.81738
-212.81961 98.130127 166.81738
-204.65256 119.54443 137.88477
-198.63335 119.54443 137.88477
-194.57797 98.130127 166.81738
-188.49739 98.130127 166.81738
-182.41681 98.130127 166.81738
-176.33621 98.130127 166.81738
-170.25565 98.130127 166.81738
-164.17517 98.130127 166.81738
-158.09459 98.130127 166.81738
-153.54817 76.715576 195.75024
-147.40622 76.715576 195.75024
-141.26427 76.715576 195.75024
-136.51108 54.689209 225.50952
177.42326 8.8010254 287.5083
183.75995 8.8010254 287.5083
188.09761 32.05127 256.09546
194.36743 32.05127 256.09546
200.6375 32.05127 256.09546
204.76649 54.689209 225.50952
210.97169 54.689209 225.50952
217.17664 54.689209 225.50952
223.38159 54.689209 225.50952
229.58678 54.689209 225.50952
235.79173 54.689209 225.50952
241.99692 54.689209 225.50952
248.20187 54.689209 225.50952
254.40683 54.689209 225.50952
263.3367 32.05127 256.09546
269.60651 32.05127 256.09546
278.80817 8.8010254 287.5083
285.14462 8.8010254 287.5083
-233.39317 71.062012 193.35034
-222.71021 114.00366 135.53296
-216.69099 114.00366 135.53296
-212.81961 92.532715 164.44141
-204.65256 114.00366 135.53296
-198.63335 114.00366 135.53296
-194.57797 92.532715 164.44141
-188.49739 92.532715 164.44141
-182.41681 92.532715 164.44141
-176.33621 92.532715 164.44141
-170.25565 92.532715 164.44141
-164.17517 92.532715 164.44141
-158.09459 92.532715 164.44141
-153.54817 71.062012 193.35034
-147.40622 71.062012 193.35034
-141.26427 71.062012 193.35034
-136.51108 48.977539 223.08496
188.09761 26.279541 253.64551
194.36743 26.279541 253.64551
200.6375 26.279541 253.64551
204.76649 48.977539 223.08496
