ply
format ascii 1.0
comment PCL generated
element vertex 1571
property float x
property float y
property float z
element camera 0
property float view_px
property float view_py
property float view_pz
property float x_axisx
property float x_axisy
property float x_axisz
property float y_axisx
property float y_axisy
property float y_axisz
property float z_axisx
property float z_axisy
property float z_axisz
property float focal
property float scalex
property float scaley
property float centerx
property float centery
property int viewportx
property int viewporty
property float k1
property float k2
end_header
-142.49345 1126.4852 105.77539
-137.21588 1126.4852 105.77539
-130.79868 1135.9309 81.539551
-125.5667 1135.9309 81.539551
-120.33474 1135.9309 81.539551
-115.10287 1135.9309 81.539551
-109.87091 1135.9309 81.539551
-104.63894 1135.9309 81.539551
-99.406967 1135.9309 81.539551
-94.175003 1135.9309 81.539551
-88.943138 1135.9309 81.539551
-83.711174 1135.9309 81.539551
-78.479202 1135.9309 81.539551
-73.247231 1135.9309 81.539551
-68.015266 1135.9309 81.539551
-62.236362 1145.3765 57.303467
-57.04998 1145.3765 57.303467
-51.863602 1145.3765 57.303467
-46.677223 1145.3765 57.303467
-41.490841 1145.3765 57.303467
-36.304562 1145.3765 57.303467
-31.118181 1145.3765 57.303467
-25.931801 1145.3765 57.303467
-20.74542 1145.3765 57.303467
-15.695801 1135.9309 81.539551
-10.463933 1135.9309 81.539551
-5.2319665 1135.9309 81.539551
0 1135.9309 81.539551
5.2318668 1135.9309 81.539551
10.555108 1126.4852 105.77539
15.83256 1126.4852 105.77539
21.110216 1126.4852 105.77539
26.387667 1126.4852 105.77539
31.665119 1126.4852 105.77539
36.942772 1126.4852 105.77539
42.22023 1126.4852 105.77539
47.497883 1126.4852 105.77539
52.775333 1126.4852 105.77539
58.052788 1126.4852 105.77539
63.330441 1126.4852 105.77539
68.607895 1126.4852 105.77539
73.885544 1126.4852 105.77539
79.163002 1126.4852 105.77539
84.44046 1126.4852 105.77539
90.522888 1116.6763 130.94336
95.847679 1116.6763 130.94336
101.17268 1116.6763 130.94336
106.49747 1116.6763 130.94336
112.81641 1106.8673 156.11157
119.26879 1096.6952 182.21191
125.81916 1086.5229 208.31177
131.28969 1086.5229 208.31177
136.76001 1086.5229 208.31177
142.23032 1086.5229 208.31177
146.37532 1096.6952 182.21191
151.79655 1096.6952 182.21191
157.21799 1096.6952 182.21191
162.63921 1096.6952 182.21191
168.06042 1096.6952 182.21191
175.05284 1086.5229 208.31177
180.52318 1086.5229 208.31177
187.72247 1075.9873 235.34448
193.24364 1075.9873 235.34448
196.93433 1086.5229 208.31177
202.40485 1086.5229 208.31177
209.80733 1075.9873 235.34448
213.34569 1086.5229 208.31177
218.81601 1086.5229 208.31177
224.28632 1086.5229 208.31177
229.75684 1086.5229 208.31177
235.22717 1086.5229 208.31177
240.69769 1086.5229 208.31177
248.45612 1075.9873 235.34448
253.97728 1075.9873 235.34448
259.49866 1075.9873 235.34448
265.01981 1075.9873 235.34448
273.03268 1065.4518 262.37671
278.60468 1065.4518 262.37671
289.54187 1043.6542 318.30566
-300.84396 1101.9221 154.01245
-295.47174 1101.9221 154.01245
-290.09952 1101.9221 154.01245
-284.72726 1101.9221 154.01245
-279.35516 1101.9221 154.01245
-273.98291 1101.9221 154.01245
-268.61069 1101.9221 154.01245
-260.91879 1111.7748 128.86279
-255.59389 1111.7748 128.86279
-250.2691 1111.7748 128.86279
-244.9442 1111.7748 128.86279
-239.61931 1111.7748 128.86279
-234.29442 1111.7748 128.86279
-228.96953 1111.7748 128.86279
-225.63301 1101.9221 154.01245
-220.26077 1101.9221 154.01245
-214.88853 1101.9221 154.01245
-211.43095 1091.7048 180.09351
-206.00961 1091.7048 180.09351
-198.77194 1101.9221 154.01245
-193.3997 1101.9221 154.01245
-189.74574 1091.7048 180.09351
-184.32442 1091.7048 180.09351
-178.90309 1091.7048 180.09351
-171.91087 1101.9221 154.01245
-165.07111 1111.7748 128.86279
-159.7462 1111.7748 128.86279
-154.42131 1111.7748 128.86279
-147.7709 1121.6272 103.71338
-142.49345 1121.6272 103.71338
-137.21588 1121.6272 103.71338
-131.93834 1121.6272 103.71338
-125.5667 1131.1149 79.495117
-120.33474 1131.1149 79.495117
-115.10287 1131.1149 79.495117
-109.87091 1131.1149 79.495117
-104.63894 1131.1149 79.495117
-99.406967 1131.1149 79.495117
-94.175003 1131.1149 79.495117
-88.943138 1131.1149 79.495117
-83.711174 1131.1149 79.495117
-78.479202 1131.1149 79.495117
-73.247231 1131.1149 79.495117
-68.015266 1131.1149 79.495117
-62.236362 1140.6024 55.2771
-57.04998 1140.6024 55.2771
-51.863602 1140.6024 55.2771
-46.677223 1140.6024 55.2771
-41.490841 1140.6024 55.2771
-36.623669 1131.1149 79.495117
-31.118181 1140.6024 55.2771
-25.931801 1140.6024 55.2771
-20.74542 1140.6024 55.2771
-15.83256 1121.6272 103.71338
-10.463933 1131.1149 79.495117
-5.2319665 1131.1149 79.495117
0 1121.6272 103.71338
5.2774534 1121.6272 103.71338
10.555108 1121.6272 103.71338
15.83256 1121.6272 103.71338
21.110216 1121.6272 103.71338
26.387667 1121.6272 103.71338
31.665119 1121.6272 103.71338
36.942772 1121.6272 103.71338
42.22023 1121.6272 103.71338
47.497883 1121.6272 103.71338
52.775333 1121.6272 103.71338
58.052788 1121.6272 103.71338
63.330441 1121.6272 103.71338
68.607895 1121.6272 103.71338
73.885544 1121.6272 103.71338
79.163002 1121.6272 103.71338
84.44046 1121.6272 103.71338
90.522888 1111.7748 128.86279
95.847679 1111.7748 128.86279
101.17268 1111.7748 128.86279
107.44427 1101.9221 154.01245
112.81641 1101.9221 154.01245
119.26879 1091.7048 180.09351
125.81916 1081.4874 206.17432
131.28969 1081.4874 206.17432
136.76001 1081.4874 206.17432
142.23032 1081.4874 206.17432
146.37532 1091.7048 180.09351
151.79655 1091.7048 180.09351
157.21799 1091.7048 180.09351
161.16641 1101.9221 154.01245
166.53854 1101.9221 154.01245
175.05284 1081.4874 206.17432
182.2011 1070.905 233.18701
187.72247 1070.905 233.18701
193.24364 1070.905 233.18701
198.7648 1070.905 233.18701
204.28618 1070.905 233.18701
209.80733 1070.905 233.18701
213.34569 1081.4874 206.17432
218.81601 1081.4874 206.17432
224.28632 1081.4874 206.17432
229.75684 1081.4874 206.17432
235.22717 1081.4874 206.17432
240.69769 1081.4874 206.17432
248.45612 1070.905 233.18701
253.97728 1070.905 233.18701
259.49866 1070.905 233.18701
265.01981 1070.905 233.18701
273.03268 1060.3228 260.19946
278.60468 1060.3228 260.19946
286.85928 1049.3755 288.14355
292.4841 1049.3755 288.14355
298.10873 1049.3755 288.14355
303.73355 1049.3755 288.14355
-300.84396 1096.9771 151.91333
-295.47174 1096.9771 151.91333
-290.09952 1096.9771 151.91333
-284.72726 1096.9771 151.91333
-279.35516 1096.9771 151.91333
-273.98291 1096.9771 151.91333
-268.61069 1096.9771 151.91333
-263.23843 1096.9771 151.91333
-255.59389 1106.8732 126.78223
-250.2691 1106.8732 126.78223
-244.9442 1106.8732 126.78223
-239.61931 1106.8732 126.78223
-234.29442 1106.8732 126.78223
-228.96953 1106.8732 126.78223
-225.63301 1096.9771 151.91333
-220.26077 1096.9771 151.91333
-214.88853 1096.9771 151.91333
-211.43095 1086.7145 177.97534
-206.00961 1086.7145 177.97534
-200.58839 1086.7145 177.97534
-195.16707 1086.7145 177.97534
-189.74574 1086.7145 177.97534
-184.32442 1086.7145 177.97534
-177.283 1096.9771 151.91333
-171.91087 1096.9771 151.91333
-165.07111 1106.8732 126.78223
-159.7462 1106.8732 126.78223
-154.42131 1106.8732 126.78223
-147.7709 1116.7692 101.65112
-142.49345 1116.7692 101.65112
-137.21588 1116.7692 101.65112
-131.93834 1116.7692 101.65112
-126.66079 1116.7692 101.65112
-120.33474 1126.2988 77.450928
-115.10287 1126.2988 77.450928
-109.87091 1126.2988 77.450928
-104.63894 1126.2988 77.450928
-99.406967 1126.2988 77.450928
-94.175003 1126.2988 77.450928
-88.943138 1126.2988 77.450928
-83.711174 1126.2988 77.450928
-78.479202 1126.2988 77.450928
-73.247231 1126.2988 77.450928
-68.015266 1126.2988 77.450928
-62.783401 1126.2988 77.450928
-57.04998 1135.8284 53.250488
-51.863602 1135.8284 53.250488
-47.087502 1126.2988 77.450928
-41.855534 1126.2988 77.450928
-36.623669 1126.2988 77.450928
-31.391701 1126.2988 77.450928
-25.931801 1135.8284 53.250488
-20.74542 1135.8284 53.250488
-15.83256 1116.7692 101.65112
-10.555108 1116.7692 101.65112
-5.277554 1116.7692 101.65112
0 1116.7692 101.65112
5.2774534 1116.7692 101.65112
10.555108 1116.7692 101.65112
15.83256 1116.7692 101.65112
21.110216 1116.7692 101.65112
26.387667 1116.7692 101.65112
31.665119 1116.7692 101.65112
36.942772 1116.7692 101.65112
42.22023 1116.7692 101.65112
47.497883 1116.7692 101.65112
52.775333 1116.7692 101.65112
58.052788 1116.7692 101.65112
63.330441 1116.7692 101.65112
68.607895 1116.7692 101.65112
73.885544 1116.7692 101.65112
79.163002 1116.7692 101.65112
85.197891 1106.8732 126.78223
90.522888 1106.8732 126.78223
95.847679 1106.8732 126.78223
102.07214 1096.9771 151.91333
108.42614 1086.7145 177.97534
113.84736 1086.7145 177.97534
120.34885 1076.4519 204.03687
125.81916 1076.4519 204.03687
131.28969 1076.4519 204.03687
136.76001 1076.4519 204.03687
142.23032 1076.4519 204.03687
146.37532 1086.7145 177.97534
151.79655 1086.7145 177.97534
157.21799 1086.7145 177.97534
161.16641 1096.9771 151.91333
166.53854 1096.9771 151.91333
175.05284 1076.4519 204.03687
182.2011 1065.8226 231.02979
187.72247 1065.8226 231.02979
193.24364 1065.8226 231.02979
198.7648 1065.8226 231.02979
204.28618 1065.8226 231.02979
209.80733 1065.8226 231.02979
215.3287 1065.8226 231.02979
218.81601 1076.4519 204.03687
224.28632 1076.4519 204.03687
229.75684 1076.4519 204.03687
235.22717 1076.4519 204.03687
240.69769 1076.4519 204.03687
248.45612 1065.8226 231.02979
253.97728 1065.8226 231.02979
259.49866 1065.8226 231.02979
267.46045 1055.1936 258.02246
273.03268 1055.1936 258.02246
278.60468 1055.1936 258.02246
286.85928 1044.1979 285.9458
292.4841 1044.1979 285.9458
298.10873 1044.1979 285.9458
303.73355 1044.1979 285.9458
312.25116 1033.2023 313.86914
-309.01453 1081.7241 175.85693
-300.84396 1092.0319 149.81421
-295.47174 1092.0319 149.81421
-290.09952 1092.0319 149.81421
-284.72726 1092.0319 149.81421
-279.35516 1092.0319 149.81421
-273.98291 1092.0319 149.81421
-268.61069 1092.0319 149.81421
-263.23843 1092.0319 149.81421
-257.86621 1092.0319 149.81421
-252.49408 1092.0319 149.81421
-247.12184 1092.0319 149.81421
-241.7496 1092.0319 149.81421
-236.37737 1092.0319 149.81421
-231.00513 1092.0319 149.81421
-227.69493 1081.7241 175.85693
-222.27361 1081.7241 175.85693
-216.85228 1081.7241 175.85693
-211.43095 1081.7241 175.85693
-206.00961 1081.7241 175.85693
-200.58839 1081.7241 175.85693
-195.16707 1081.7241 175.85693
-189.74574 1081.7241 175.85693
-177.283 1092.0319 149.81421
-171.91087 1092.0319 149.81421
-165.07111 1101.9717 124.70166
-159.7462 1101.9717 124.70166
-154.42131 1101.9717 124.70166
-147.7709 1111.9113 99.589111
-142.49345 1111.9113 99.589111
-137.21588 1111.9113 99.589111
-131.93834 1111.9113 99.589111
-126.66079 1111.9113 99.589111
-121.38322 1111.9113 99.589111
-115.10287 1121.4828 75.406494
-109.87091 1121.4828 75.406494
-104.63894 1121.4828 75.406494
-99.406967 1121.4828 75.406494
-94.175003 1121.4828 75.406494
-88.943138 1121.4828 75.406494
-83.711174 1121.4828 75.406494
-78.479202 1121.4828 75.406494
-73.247231 1121.4828 75.406494
-68.015266 1121.4828 75.406494
-62.783401 1121.4828 75.406494
-57.551434 1121.4828 75.406494
-52.319469 1121.4828 75.406494
-47.087502 1121.4828 75.406494
-41.855534 1121.4828 75.406494
-36.623669 1121.4828 75.406494
-31.391701 1121.4828 75.406494
-26.159735 1121.4828 75.406494
-20.927767 1121.4828 75.406494
-15.83256 1111.9113 99.589111
-10.555108 1111.9113 99.589111
-5.277554 1111.9113 99.589111
0 1111.9113 99.589111
5.2774534 1111.9113 99.589111
10.555108 1111.9113 99.589111
15.83256 1111.9113 99.589111
21.110216 1111.9113 99.589111
26.387667 1111.9113 99.589111
31.665119 1111.9113 99.589111
36.942772 1111.9113 99.589111
42.22023 1111.9113 99.589111
47.497883 1111.9113 99.589111
52.775333 1111.9113 99.589111
58.052788 1111.9113 99.589111
63.330441 1111.9113 99.589111
69.223312 1101.9717 124.70166
74.548309 1101.9717 124.70166
79.8731 1101.9717 124.70166
85.197891 1101.9717 124.70166
90.522888 1101.9717 124.70166
95.847679 1101.9717 124.70166
102.07214 1092.0319 149.81421
108.42614 1081.7241 175.85693
113.84736 1081.7241 175.85693
120.34885 1071.4164 201.89941
125.81916 1071.4164 201.89941
131.28969 1071.4164 201.89941
138.03117 1060.7404 228.87256
143.55234 1060.7404 228.87256
149.07372 1060.7404 228.87256
151.79655 1081.7241 175.85693
157.21799 1081.7241 175.85693
162.63921 1081.7241 175.85693
171.15857 1060.7404 228.87256
176.67995 1060.7404 228.87256
182.2011 1060.7404 228.87256
189.45126 1050.0645 255.84521
193.24364 1060.7404 228.87256
198.7648 1060.7404 228.87256
204.28618 1060.7404 228.87256
209.80733 1060.7404 228.87256
215.3287 1060.7404 228.87256
220.84987 1060.7404 228.87256
226.37105 1060.7404 228.87256
231.89241 1060.7404 228.87256
237.41357 1060.7404 228.87256
242.93494 1060.7404 228.87256
248.45612 1060.7404 228.87256
253.97728 1060.7404 228.87256
261.88843 1050.0645 255.84521
267.46045 1050.0645 255.84521
273.03268 1050.0645 255.84521
281.23468 1039.0204 283.74805
286.85928 1039.0204 283.74805
292.4841 1039.0204 283.74805
300.89655 1027.9763 311.65088
306.57394 1027.9763 311.65088
312.25116 1027.9763 311.65088
320.97214 1016.5641 340.48389
-328.224 1066.3809 199.76196
-319.85709 1076.7338 173.73877
-314.43576 1076.7338 173.73877
-306.21622 1087.0868 147.71509
-300.84396 1087.0868 147.71509
-295.47174 1087.0868 147.71509
-290.09952 1087.0868 147.71509
-284.72726 1087.0868 147.71509
-279.35516 1087.0868 147.71509
-273.98291 1087.0868 147.71509
-268.61069 1087.0868 147.71509
-263.23843 1087.0868 147.71509
-257.86621 1087.0868 147.71509
-252.49408 1087.0868 147.71509
-247.12184 1087.0868 147.71509
-241.7496 1087.0868 147.71509
-236.37737 1087.0868 147.71509
-231.00513 1087.0868 147.71509
-227.69493 1076.7338 173.73877
-222.27361 1076.7338 173.73877
-216.85228 1076.7338 173.73877
-211.43095 1076.7338 173.73877
-206.00961 1076.7338 173.73877
-200.58839 1076.7338 173.73877
-195.16707 1076.7338 173.73877
-171.91087 1087.0868 147.71509
-165.07111 1097.0701 122.62085
-159.7462 1097.0701 122.62085
-154.42131 1097.0701 122.62085
-149.09642 1097.0701 122.62085
-143.77162 1097.0701 122.62085
-137.21588 1107.0532 97.5271
-131.93834 1107.0532 97.5271
-126.66079 1107.0532 97.5271
-121.38322 1107.0532 97.5271
-116.10578 1107.0532 97.5271
-109.87091 1116.6667 73.362305
-104.63894 1116.6667 73.362305
-99.406967 1116.6667 73.362305
-94.175003 1116.6667 73.362305
-88.943138 1116.6667 73.362305
-83.711174 1116.6667 73.362305
-78.479202 1116.6667 73.362305
-73.247231 1116.6667 73.362305
-68.015266 1116.6667 73.362305
-62.783401 1116.6667 73.362305
-57.551434 1116.6667 73.362305
-52.319469 1116.6667 73.362305
-47.087502 1116.6667 73.362305
-41.855534 1116.6667 73.362305
-36.623669 1116.6667 73.362305
-31.391701 1116.6667 73.362305
-26.159735 1116.6667 73.362305
-20.927767 1116.6667 73.362305
-15.83256 1107.0532 97.5271
-10.555108 1107.0532 97.5271
-5.277554 1107.0532 97.5271
0 1107.0532 97.5271
5.2774534 1107.0532 97.5271
10.555108 1107.0532 97.5271
15.83256 1107.0532 97.5271
21.110216 1107.0532 97.5271
26.387667 1107.0532 97.5271
31.665119 1107.0532 97.5271
36.942772 1107.0532 97.5271
42.22023 1107.0532 97.5271
47.497883 1107.0532 97.5271
52.775333 1107.0532 97.5271
58.052788 1107.0532 97.5271
63.330441 1107.0532 97.5271
69.223312 1097.0701 122.62085
74.548309 1097.0701 122.62085
79.8731 1097.0701 122.62085
85.197891 1097.0701 122.62085
90.522888 1097.0701 122.62085
96.699806 1087.0868 147.71509
102.07214 1087.0868 147.71509
108.42614 1076.7338 173.73877
113.84736 1076.7338 173.73877
120.34885 1066.3809 199.76196
125.81916 1066.3809 199.76196
132.51001 1055.658 226.71509
138.03117 1055.658 226.71509
143.55234 1055.658 226.71509
149.07372 1055.658 226.71509
154.59486 1055.658 226.71509
160.11624 1055.658 226.71509
165.63741 1055.658 226.71509
172.73482 1044.9353 253.66797
178.30704 1044.9353 253.66797
183.87904 1044.9353 253.66797
189.45126 1044.9353 253.66797
195.02327 1044.9353 253.66797
200.59528 1044.9353 253.66797
204.28618 1055.658 226.71509
209.80733 1055.658 226.71509
215.3287 1055.658 226.71509
220.84987 1055.658 226.71509
226.37105 1055.658 226.71509
231.89241 1055.658 226.71509
237.41357 1055.658 226.71509
242.93494 1055.658 226.71509
248.45612 1055.658 226.71509
253.97728 1055.658 226.71509
261.88843 1044.9353 253.66797
267.46045 1044.9353 253.66797
273.03268 1044.9353 253.66797
281.23468 1033.8428 281.55029
286.85928 1033.8428 281.55029
292.4841 1033.8428 281.55029
300.89655 1022.7504 309.43262
306.57394 1022.7504 309.43262
312.25116 1022.7504 309.43262
317.92834 1022.7504 309.43262
323.60577 1022.7504 309.43262
-333.69446 1061.3453 197.62451
-328.224 1061.3453 197.62451
-319.85709 1071.7434 171.62036
-314.43576 1071.7434 171.62036
-306.21622 1082.1416 145.61621
-300.84396 1082.1416 145.61621
-295.47174 1082.1416 145.61621
-292.75055 1071.7434 171.62036
-284.72726 1082.1416 145.61621
-279.35516 1082.1416 145.61621
-273.98291 1082.1416 145.61621
-268.61069 1082.1416 145.61621
-263.23843 1082.1416 145.61621
-257.86621 1082.1416 145.61621
-252.49408 1082.1416 145.61621
-249.38014 1071.7434 171.62036
-243.9588 1071.7434 171.62036
-238.53748 1071.7434 171.62036
-233.11615 1071.7434 171.62036
-227.69493 1071.7434 171.62036
-222.27361 1071.7434 171.62036
-216.85228 1071.7434 171.62036
-211.43095 1071.7434 171.62036
-206.00961 1071.7434 171.62036
-200.58839 1071.7434 171.62036
-195.16707 1071.7434 171.62036
-165.07111 1092.1685 120.54028
-159.7462 1092.1685 120.54028
-154.42131 1092.1685 120.54028
-149.09642 1092.1685 120.54028
-143.77162 1092.1685 120.54028
-137.21588 1102.1952 95.464844
-131.93834 1102.1952 95.464844
-126.66079 1102.1952 95.464844
-121.38322 1102.1952 95.464844
-116.10578 1102.1952 95.464844
-110.82822 1102.1952 95.464844
-104.63894 1111.8507 71.318115
-99.406967 1111.8507 71.318115
-94.175003 1111.8507 71.318115
-88.943138 1111.8507 71.318115
-83.711174 1111.8507 71.318115
-78.479202 1111.8507 71.318115
-73.247231 1111.8507 71.318115
-68.015266 1111.8507 71.318115
-62.783401 1111.8507 71.318115
-57.551434 1111.8507 71.318115
-52.319469 1111.8507 71.318115
-47.087502 1111.8507 71.318115
-41.855534 1111.8507 71.318115
-36.623669 1111.8507 71.318115
-31.391701 1111.8507 71.318115
-26.159735 1111.8507 71.318115
-20.927767 1111.8507 71.318115
-15.83256 1102.1952 95.464844
-10.555108 1102.1952 95.464844
-5.277554 1102.1952 95.464844
0 1102.1952 95.464844
5.2774534 1102.1952 95.464844
10.555108 1102.1952 95.464844
15.83256 1102.1952 95.464844
21.110216 1102.1952 95.464844
26.387667 1102.1952 95.464844
31.665119 1102.1952 95.464844
36.942772 1102.1952 95.464844
42.22023 1102.1952 95.464844
47.497883 1102.1952 95.464844
52.775333 1102.1952 95.464844
58.052788 1102.1952 95.464844
63.330441 1102.1952 95.464844
69.223312 1092.1685 120.54028
74.548309 1092.1685 120.54028
79.8731 1092.1685 120.54028
85.197891 1092.1685 120.54028
91.327667 1082.1416 145.61621
96.699806 1082.1416 145.61621
103.00491 1071.7434 171.62036
108.42614 1071.7434 171.62036
114.87832 1061.3453 197.62451
120.34885 1061.3453 197.62451
125.81916 1061.3453 197.62451
132.51001 1050.5757 224.55786
138.03117 1050.5757 224.55786
143.55234 1050.5757 224.55786
149.07372 1050.5757 224.55786
154.59486 1050.5757 224.55786
160.11624 1050.5757 224.55786
174.36542 1028.6653 279.35254
179.99023 1028.6653 279.35254
185.61484 1028.6653 279.35254
191.23967 1028.6653 279.35254
195.02327 1039.8062 251.49072
200.59528 1039.8062 251.49072
206.16751 1039.8062 251.49072
211.73952 1039.8062 251.49072
215.3287 1050.5757 224.55786
220.84987 1050.5757 224.55786
226.37105 1050.5757 224.55786
231.89241 1050.5757 224.55786
237.41357 1050.5757 224.55786
242.93494 1050.5757 224.55786
248.45612 1050.5757 224.55786
253.97728 1050.5757 224.55786
261.88843 1039.8062 251.49072
267.46045 1039.8062 251.49072
273.03268 1039.8062 251.49072
281.23468 1028.6653 279.35254
286.85928 1028.6653 279.35254
292.4841 1028.6653 279.35254
300.89655 1017.5243 307.21436
306.57394 1017.5243 307.21436
312.25116 1017.5243 307.21436
317.92834 1017.5243 307.21436
323.60577 1017.5243 307.21436
-333.69446 1056.3098 195.48706
-328.224 1056.3098 195.48706
-322.75357 1056.3098 195.48706
-317.28317 1056.3098 195.48706
-309.01453 1066.7532 169.5022
-303.5932 1066.7532 169.5022
-298.17188 1066.7532 169.5022
-292.75055 1066.7532 169.5022
-287.32922 1066.7532 169.5022
-281.90799 1066.7532 169.5022
-276.48666 1066.7532 169.5022
-268.61069 1077.1964 143.51709
-263.23843 1077.1964 143.51709
-260.22269 1066.7532 169.5022
-254.80147 1066.7532 169.5022
-249.38014 1066.7532 169.5022
-243.9588 1066.7532 169.5022
-238.53748 1066.7532 169.5022
-233.11615 1066.7532 169.5022
-227.69493 1066.7532 169.5022
-222.27361 1066.7532 169.5022
-216.85228 1066.7532 169.5022
-211.43095 1066.7532 169.5022
-206.00961 1066.7532 169.5022
-165.07111 1087.267 118.45972
-159.7462 1087.267 118.45972
-154.42131 1087.267 118.45972
-147.7709 1097.3373 93.402832
-142.49345 1097.3373 93.402832
-137.21588 1097.3373 93.402832
-131.93834 1097.3373 93.402832
-126.66079 1097.3373 93.402832
-121.38322 1097.3373 93.402832
-116.10578 1097.3373 93.402832
-110.82822 1097.3373 93.402832
-104.63894 1107.0347 69.273682
-99.406967 1107.0347 69.273682
-94.175003 1107.0347 69.273682
-88.943138 1107.0347 69.273682
-83.711174 1107.0347 69.273682
-78.479202 1107.0347 69.273682
-73.247231 1107.0347 69.273682
-68.015266 1107.0347 69.273682
-62.783401 1107.0347 69.273682
-57.551434 1107.0347 69.273682
-52.319469 1107.0347 69.273682
-47.087502 1107.0347 69.273682
-41.855534 1107.0347 69.273682
-36.623669 1107.0347 69.273682
-31.391701 1107.0347 69.273682
-26.159735 1107.0347 69.273682
-20.927767 1107.0347 69.273682
-15.83256 1097.3373 93.402832
-10.555108 1097.3373 93.402832
-5.277554 1097.3373 93.402832
0 1097.3373 93.402832
5.2774534 1097.3373 93.402832
10.555108 1097.3373 93.402832
15.83256 1097.3373 93.402832
21.110216 1097.3373 93.402832
26.387667 1097.3373 93.402832
31.665119 1097.3373 93.402832
36.942772 1097.3373 93.402832
42.22023 1097.3373 93.402832
47.497883 1097.3373 93.402832
52.775333 1097.3373 93.402832
58.573528 1087.267 118.45972
63.898525 1087.267 118.45972
69.223312 1087.267 118.45972
74.548309 1087.267 118.45972
79.8731 1087.267 118.45972
85.955338 1077.1964 143.51709
91.327667 1077.1964 143.51709
96.699806 1077.1964 143.51709
103.00491 1066.7532 169.5022
108.42614 1066.7532 169.5022
114.87832 1056.3098 195.48706
120.34885 1056.3098 195.48706
126.98864 1045.4934 222.40039
132.51001 1045.4934 222.40039
138.03117 1045.4934 222.40039
143.55234 1045.4934 222.40039
150.44656 1034.677 249.31372
156.01857 1034.677 249.31372
161.59081 1034.677 249.31372
179.99023 1023.4877 277.15503
185.61484 1023.4877 277.15503
191.23967 1023.4877 277.15503
196.86427 1023.4877 277.15503
202.48888 1023.4877 277.15503
206.16751 1034.677 249.31372
211.73952 1034.677 249.31372
217.31174 1034.677 249.31372
222.88374 1034.677 249.31372
226.37105 1045.4934 222.40039
231.89241 1045.4934 222.40039
237.41357 1045.4934 222.40039
242.93494 1045.4934 222.40039
248.45612 1045.4934 222.40039
253.97728 1045.4934 222.40039
261.88843 1034.677 249.31372
267.46045 1034.677 249.31372
273.03268 1034.677 249.31372
278.60468 1034.677 249.31372
286.85928 1023.4877 277.15503
292.4841 1023.4877 277.15503
298.10873 1023.4877 277.15503
306.57394 1012.2983 304.99609
312.25116 1012.2983 304.99609
317.92834 1012.2983 304.99609
323.60577 1012.2983 304.99609
329.28299 1012.2983 304.99609
-333.69446 1051.2743 193.34961
-328.224 1051.2743 193.34961
-319.85709 1061.7628 167.38403
-314.43576 1061.7628 167.38403
-309.01453 1061.7628 167.38403
-303.5932 1061.7628 167.38403
-298.17188 1061.7628 167.38403
-292.75055 1061.7628 167.38403
-287.32922 1061.7628 167.38403
-281.90799 1061.7628 167.38403
-276.48666 1061.7628 167.38403
-271.06534 1061.7628 167.38403
-265.64401 1061.7628 167.38403
-260.22269 1061.7628 167.38403
-254.80147 1061.7628 167.38403
-249.38014 1061.7628 167.38403
-243.9588 1061.7628 167.38403
-238.53748 1061.7628 167.38403
-233.11615 1061.7628 167.38403
-227.69493 1061.7628 167.38403
-222.27361 1061.7628 167.38403
-216.85228 1061.7628 167.38403
-213.3456 1051.2743 193.34961
-165.07111 1082.3654 116.37915
-159.7462 1082.3654 116.37915
-154.42131 1082.3654 116.37915
-147.7709 1092.4792 91.34082
-142.49345 1092.4792 91.34082
-137.21588 1092.4792 91.34082
-131.93834 1092.4792 91.34082
-126.66079 1092.4792 91.34082
-121.38322 1092.4792 91.34082
-116.10578 1092.4792 91.34082
-110.82822 1092.4792 91.34082
-104.63894 1102.2188 67.229492
-99.406967 1102.2188 67.229492
-94.175003 1102.2188 67.229492
-88.943138 1102.2188 67.229492
-83.711174 1102.2188 67.229492
-78.479202 1102.2188 67.229492
-73.247231 1102.2188 67.229492
-68.015266 1102.2188 67.229492
-62.783401 1102.2188 67.229492
-57.551434 1102.2188 67.229492
-52.319469 1102.2188 67.229492
-47.087502 1102.2188 67.229492
-41.855534 1102.2188 67.229492
-36.623669 1102.2188 67.229492
-31.391701 1102.2188 67.229492
-26.159735 1102.2188 67.229492
-20.927767 1102.2188 67.229492
-15.83256 1092.4792 91.34082
-10.555108 1092.4792 91.34082
-5.277554 1092.4792 91.34082
0 1092.4792 91.34082
5.2774534 1092.4792 91.34082
10.555108 1092.4792 91.34082
15.83256 1092.4792 91.34082
21.110216 1092.4792 91.34082
26.387667 1092.4792 91.34082
31.665119 1092.4792 91.34082
36.942772 1092.4792 91.34082
42.22023 1092.4792 91.34082
47.497883 1092.4792 91.34082
52.775333 1092.4792 91.34082
58.573528 1082.3654 116.37915
63.898525 1082.3654 116.37915
69.223312 1082.3654 116.37915
74.548309 1082.3654 116.37915
79.8731 1082.3654 116.37915
85.955338 1072.2513 141.41797
91.327667 1072.2513 141.41797
97.583481 1061.7628 167.38403
103.00491 1061.7628 167.38403
108.42614 1061.7628 167.38403
114.87832 1051.2743 193.34961
120.34885 1051.2743 193.34961
126.98864 1040.411 220.24316
132.51001 1040.411 220.24316
138.03117 1040.411 220.24316
143.55234 1040.411 220.24316
150.44656 1029.5479 247.13647
156.01857 1029.5479 247.13647
161.59081 1029.5479 247.13647
185.61484 1018.3102 274.95728
191.23967 1018.3102 274.95728
195.02327 1029.5479 247.13647
200.59528 1029.5479 247.13647
206.16751 1029.5479 247.13647
211.73952 1029.5479 247.13647
217.31174 1029.5479 247.13647
222.88374 1029.5479 247.13647
228.45575 1029.5479 247.13647
231.89241 1040.411 220.24316
237.41357 1040.411 220.24316
242.93494 1040.411 220.24316
248.45612 1040.411 220.24316
253.97728 1040.411 220.24316
261.88843 1029.5479 247.13647
267.46045 1029.5479 247.13647
273.03268 1029.5479 247.13647
278.60468 1029.5479 247.13647
286.85928 1018.3102 274.95728
292.4841 1018.3102 274.95728
298.10873 1018.3102 274.95728
306.57394 1007.0724 302.77759
312.25116 1007.0724 302.77759
317.92834 1007.0724 302.77759
323.60577 1007.0724 302.77759
329.28299 1007.0724 302.77759
338.16727 995.46008 331.52563
-341.5423 1056.7725 165.26562
-336.12106 1056.7725 165.26562
-330.69974 1056.7725 165.26562
-325.27841 1056.7725 165.26562
-319.85709 1056.7725 165.26562
-314.43576 1056.7725 165.26562
-309.01453 1056.7725 165.26562
-303.5932 1056.7725 165.26562
-298.17188 1056.7725 165.26562
-292.75055 1056.7725 165.26562
-287.32922 1056.7725 165.26562
-281.90799 1056.7725 165.26562
-276.48666 1056.7725 165.26562
-271.06534 1056.7725 165.26562
-265.64401 1056.7725 165.26562
-260.22269 1056.7725 165.26562
-254.80147 1056.7725 165.26562
-249.38014 1056.7725 165.26562
-243.9588 1056.7725 165.26562
-238.53748 1056.7725 165.26562
-233.11615 1056.7725 165.26562
-227.69493 1056.7725 165.26562
-222.27361 1056.7725 165.26562
-216.85228 1056.7725 165.26562
-213.3456 1046.2388 191.21216
-165.07111 1077.4637 114.29858
-159.7462 1077.4637 114.29858
-154.42131 1077.4637 114.29858
-149.09642 1077.4637 114.29858
-143.77162 1077.4637 114.29858
-138.44673 1077.4637 114.29858
-131.93834 1087.6213 89.278564
-126.66079 1087.6213 89.278564
-121.38322 1087.6213 89.278564
-116.10578 1087.6213 89.278564
-110.82822 1087.6213 89.278564
-104.63894 1097.4027 65.185303
-99.406967 1097.4027 65.185303
-94.175003 1097.4027 65.185303
-88.943138 1097.4027 65.185303
-83.711174 1097.4027 65.185303
-78.479202 1097.4027 65.185303
-73.247231 1097.4027 65.185303
-68.015266 1097.4027 65.185303
-62.783401 1097.4027 65.185303
-57.551434 1097.4027 65.185303
-52.319469 1097.4027 65.185303
-47.087502 1097.4027 65.185303
-41.855534 1097.4027 65.185303
-36.623669 1097.4027 65.185303
-31.391701 1097.4027 65.185303
-26.159735 1097.4027 65.185303
-20.927767 1097.4027 65.185303
-15.83256 1087.6213 89.278564
-10.555108 1087.6213 89.278564
-5.277554 1087.6213 89.278564
0 1087.6213 89.278564
5.2774534 1087.6213 89.278564
10.555108 1087.6213 89.278564
15.83256 1087.6213 89.278564
21.110216 1087.6213 89.278564
26.387667 1087.6213 89.278564
31.665119 1087.6213 89.278564
36.942772 1087.6213 89.278564
42.22023 1087.6213 89.278564
47.497883 1087.6213 89.278564
52.775333 1087.6213 89.278564
58.573528 1077.4637 114.29858
63.898525 1077.4637 114.29858
69.223312 1077.4637 114.29858
74.548309 1077.4637 114.29858
79.8731 1077.4637 114.29858
85.955338 1067.3062 139.31885
91.327667 1067.3062 139.31885
97.583481 1056.7725 165.26562
103.00491 1056.7725 165.26562
109.408 1046.2388 191.21216
114.87832 1046.2388 191.21216
121.46747 1035.3287 218.08594
126.98864 1035.3287 218.08594
132.51001 1035.3287 218.08594
138.03117 1035.3287 218.08594
143.55234 1035.3287 218.08594
150.44656 1024.4187 244.95923
156.01857 1024.4187 244.95923
195.02327 1024.4187 244.95923
200.59528 1024.4187 244.95923
206.16751 1024.4187 244.95923
211.73952 1024.4187 244.95923
217.31174 1024.4187 244.95923
222.88374 1024.4187 244.95923
228.45575 1024.4187 244.95923
234.02797 1024.4187 244.95923
239.59998 1024.4187 244.95923
242.93494 1035.3287 218.08594
248.45612 1035.3287 218.08594
256.31622 1024.4187 244.95923
261.88843 1024.4187 244.95923
267.46045 1024.4187 244.95923
273.03268 1024.4187 244.95923
278.60468 1024.4187 244.95923
284.17667 1024.4187 244.95923
292.4841 1013.1326 272.75952
298.10873 1013.1326 272.75952
303.73355 1013.1326 272.75952
312.25116 1001.8464 300.55933
317.92834 1001.8464 300.55933
323.60577 1001.8464 300.55933
329.28299 1001.8464 300.55933
334.96042 1001.8464 300.55933
-341.5423 1051.7821 163.14746
-336.12106 1051.7821 163.14746
-330.69974 1051.7821 163.14746
-325.27841 1051.7821 163.14746
-319.85709 1051.7821 163.14746
-314.43576 1051.7821 163.14746
-309.01453 1051.7821 163.14746
-303.5932 1051.7821 163.14746
-298.17188 1051.7821 163.14746
-292.75055 1051.7821 163.14746
-287.32922 1051.7821 163.14746
-281.90799 1051.7821 163.14746
-276.48666 1051.7821 163.14746
-271.06534 1051.7821 163.14746
-265.64401 1051.7821 163.14746
-260.22269 1051.7821 163.14746
-254.80147 1051.7821 163.14746
-249.38014 1051.7821 163.14746
-243.9588 1051.7821 163.14746
-238.53748 1051.7821 163.14746
-233.11615 1051.7821 163.14746
-227.69493 1051.7821 163.14746
-222.27361 1051.7821 163.14746
-216.85228 1051.7821 163.14746
-175.05284 1041.2032 189.07471
-168.06053 1051.7821 163.14746
-161.16641 1062.3611 137.21973
-155.79417 1062.3611 137.21973
-150.42194 1062.3611 137.21973
-143.77162 1072.5623 112.21802
-138.44673 1072.5623 112.21802
-131.93834 1082.7633 87.216553
-126.66079 1082.7633 87.216553
-121.38322 1082.7633 87.216553
-116.10578 1082.7633 87.216553
-110.82822 1082.7633 87.216553
-104.63894 1092.5867 63.140869
-99.406967 1092.5867 63.140869
-94.175003 1092.5867 63.140869
-88.943138 1092.5867 63.140869
-83.711174 1092.5867 63.140869
-78.479202 1092.5867 63.140869
-73.247231 1092.5867 63.140869
-68.015266 1092.5867 63.140869
-62.783401 1092.5867 63.140869
-57.551434 1092.5867 63.140869
-52.319469 1092.5867 63.140869
-47.087502 1092.5867 63.140869
-41.855534 1092.5867 63.140869
-36.623669 1092.5867 63.140869
-31.391701 1092.5867 63.140869
-26.159735 1092.5867 63.140869
-20.927767 1092.5867 63.140869
-15.83256 1082.7633 87.216553
-10.555108 1082.7633 87.216553
-5.277554 1082.7633 87.216553
0 1082.7633 87.216553
5.2774534 1082.7633 87.216553
10.555108 1082.7633 87.216553
15.83256 1082.7633 87.216553
21.110216 1082.7633 87.216553
26.387667 1082.7633 87.216553
31.665119 1082.7633 87.216553
36.942772 1082.7633 87.216553
42.598946 1072.5623 112.21802
47.923943 1072.5623 112.21802
53.248734 1072.5623 112.21802
58.573528 1072.5623 112.21802
63.898525 1072.5623 112.21802
69.223312 1072.5623 112.21802
74.548309 1072.5623 112.21802
79.8731 1072.5623 112.21802
85.955338 1062.3611 137.21973
91.327667 1062.3611 137.21973
97.583481 1051.7821 163.14746
103.00491 1051.7821 163.14746
109.408 1041.2032 189.07471
114.87832 1041.2032 189.07471
121.46747 1030.2463 215.92847
126.98864 1030.2463 215.92847
132.51001 1030.2463 215.92847
138.03117 1030.2463 215.92847
143.55234 1030.2463 215.92847
149.07372 1030.2463 215.92847
196.86427 1007.9551 270.56177
202.48888 1007.9551 270.56177
208.11371 1007.9551 270.56177
213.73831 1007.9551 270.56177
219.36314 1007.9551 270.56177
222.88374 1019.2897 242.78198
228.45575 1019.2897 242.78198
234.02797 1019.2897 242.78198
239.59998 1019.2897 242.78198
245.17221 1019.2897 242.78198
250.7442 1019.2897 242.78198
256.31622 1019.2897 242.78198
261.88843 1019.2897 242.78198
267.46045 1019.2897 242.78198
273.03268 1019.2897 242.78198
278.60468 1019.2897 242.78198
284.17667 1019.2897 242.78198
292.4841 1007.9551 270.56177
298.10873 1007.9551 270.56177
303.73355 1007.9551 270.56177
312.25116 996.62048 298.34106
317.92834 996.62048 298.34106
323.60577 996.62048 298.34106
329.28299 996.62048 298.34106
334.96042 996.62048 298.34106
343.8988 984.90808 327.04663
-350.10559 1036.1676 186.93726
-344.63519 1036.1676 186.93726
-339.16486 1036.1676 186.93726
-333.69446 1036.1676 186.93726
-328.224 1036.1676 186.93726
-319.85709 1046.7917 161.02905
-314.43576 1046.7917 161.02905
-309.01453 1046.7917 161.02905
-303.5932 1046.7917 161.02905
-298.17188 1046.7917 161.02905
-292.75055 1046.7917 161.02905
-287.32922 1046.7917 161.02905
-281.90799 1046.7917 161.02905
-276.48666 1046.7917 161.02905
-271.06534 1046.7917 161.02905
-265.64401 1046.7917 161.02905
-260.22269 1046.7917 161.02905
-254.80147 1046.7917 161.02905
-249.38014 1046.7917 161.02905
-243.9588 1046.7917 161.02905
-240.69759 1036.1676 186.93726
-235.22717 1036.1676 186.93726
-229.75684 1036.1676 186.93726
-224.28642 1036.1676 186.93726
-218.81601 1036.1676 186.93726
-175.05284 1036.1676 186.93726
-168.06053 1046.7917 161.02905
-162.63921 1046.7917 161.02905
-155.79417 1057.4158 135.12061
-150.42194 1057.4158 135.12061
-145.04982 1057.4158 135.12061
-138.44673 1067.6605 110.13745
-133.12184 1067.6605 110.13745
-126.66079 1077.9053 85.154297
-121.38322 1077.9053 85.154297
-116.10578 1077.9053 85.154297
-110.82822 1077.9053 85.154297
-105.55067 1077.9053 85.154297
-99.406967 1087.7705 61.09668
-94.175003 1087.7705 61.09668
-88.943138 1087.7705 61.09668
-83.711174 1087.7705 61.09668
-79.163002 1077.9053 85.154297
-73.247231 1087.7705 61.09668
-68.015266 1087.7705 61.09668
-62.783401 1087.7705 61.09668
-57.551434 1087.7705 61.09668
-52.319469 1087.7705 61.09668
-47.087502 1087.7705 61.09668
-41.855534 1087.7705 61.09668
-36.623669 1087.7705 61.09668
-31.391701 1087.7705 61.09668
-26.159735 1087.7705 61.09668
-20.927767 1087.7705 61.09668
-15.83256 1077.9053 85.154297
-10.555108 1077.9053 85.154297
-5.277554 1077.9053 85.154297
0 1077.9053 85.154297
5.2774534 1077.9053 85.154297
10.555108 1077.9053 85.154297
15.83256 1077.9053 85.154297
21.110216 1077.9053 85.154297
26.387667 1077.9053 85.154297
31.665119 1077.9053 85.154297
36.942772 1077.9053 85.154297
42.598946 1067.6605 110.13745
47.923943 1067.6605 110.13745
53.248734 1067.6605 110.13745
58.573528 1067.6605 110.13745
63.898525 1067.6605 110.13745
69.223312 1067.6605 110.13745
74.548309 1067.6605 110.13745
79.8731 1067.6605 110.13745
85.955338 1057.4158 135.12061
91.327667 1057.4158 135.12061
97.583481 1046.7917 161.02905
103.00491 1046.7917 161.02905
109.408 1036.1676 186.93726
114.87832 1036.1676 186.93726
121.46747 1025.1639 213.77124
126.98864 1025.1639 213.77124
132.51001 1025.1639 213.77124
138.03117 1025.1639 213.77124
143.55234 1025.1639 213.77124
149.07372 1025.1639 213.77124
198.70528 991.39441 296.1228
204.38248 991.39441 296.1228
208.11371 1002.7775 268.36401
213.73831 1002.7775 268.36401
219.36314 1002.7775 268.36401
224.98775 1002.7775 268.36401
230.61235 1002.7775 268.36401
234.02797 1014.1604 240.60474
239.59998 1014.1604 240.60474
245.17221 1014.1604 240.60474
250.7442 1014.1604 240.60474
256.31622 1014.1604 240.60474
261.88843 1014.1604 240.60474
267.46045 1014.1604 240.60474
273.03268 1014.1604 240.60474
278.60468 1014.1604 240.60474
284.17667 1014.1604 240.60474
289.7489 1014.1604 240.60474
298.10873 1002.7775 268.36401
303.73355 1002.7775 268.36401
309.35815 1002.7775 268.36401
317.92834 991.39441 296.1228
323.60577 991.39441 296.1228
329.28299 991.39441 296.1228
334.96042 991.39441 296.1228
340.6376 991.39441 296.1228
-350.10559 1031.1321 184.7998
-344.63519 1031.1321 184.7998
-339.16486 1031.1321 184.7998
-333.69446 1031.1321 184.7998
-328.224 1031.1321 184.7998
-319.85709 1041.8014 158.91089
-314.43576 1041.8014 158.91089
-309.01453 1041.8014 158.91089
-303.5932 1041.8014 158.91089
-298.17188 1041.8014 158.91089
-292.75055 1041.8014 158.91089
-287.32922 1041.8014 158.91089
-281.90799 1041.8014 158.91089
-276.48666 1041.8014 158.91089
-271.06534 1041.8014 158.91089
-265.64401 1041.8014 158.91089
-262.57916 1031.1321 184.7998
-257.10886 1031.1321 184.7998
-251.63843 1031.1321 184.7998
-246.16801 1031.1321 184.7998
-240.69759 1031.1321 184.7998
-237.41357 1020.0817 211.61377
-231.89241 1020.0817 211.61377
-226.37114 1020.0817 211.61377
-175.05284 1031.1321 184.7998
-168.06053 1041.8014 158.91089
-162.63921 1041.8014 158.91089
-157.21788 1041.8014 158.91089
-150.42194 1052.4707 133.02148
-145.04982 1052.4707 133.02148
-138.44673 1062.759 108.05688
-133.12184 1062.759 108.05688
-126.66079 1073.0472 83.092285
-121.38322 1073.0472 83.092285
-116.10578 1073.0472 83.092285
-110.82822 1073.0472 83.092285
-105.55067 1073.0472 83.092285
-99.406967 1082.9545 59.052246
-94.175003 1082.9545 59.052246
-88.943138 1082.9545 59.052246
-83.711174 1082.9545 59.052246
-79.163002 1073.0472 83.092285
-73.885452 1073.0472 83.092285
-68.015266 1082.9545 59.052246
-62.783401 1082.9545 59.052246
-57.551434 1082.9545 59.052246
-52.319469 1082.9545 59.052246
-47.087502 1082.9545 59.052246
-41.855534 1082.9545 59.052246
-36.623669 1082.9545 59.052246
-31.391701 1082.9545 59.052246
-26.159735 1082.9545 59.052246
-20.927767 1082.9545 59.052246
-15.83256 1073.0472 83.092285
-10.555108 1073.0472 83.092285
-5.277554 1073.0472 83.092285
0 1073.0472 83.092285
5.2774534 1073.0472 83.092285
10.555108 1073.0472 83.092285
15.83256 1073.0472 83.092285
21.110216 1073.0472 83.092285
26.387667 1073.0472 83.092285
31.665119 1073.0472 83.092285
36.942772 1073.0472 83.092285
42.598946 1062.759 108.05688
47.923943 1062.759 108.05688
53.248734 1062.759 108.05688
58.573528 1062.759 108.05688
63.898525 1062.759 108.05688
69.223312 1062.759 108.05688
74.548309 1062.759 108.05688
79.8731 1062.759 108.05688
85.955338 1052.4707 133.02148
91.327667 1052.4707 133.02148
97.583481 1041.8014 158.91089
103.00491 1041.8014 158.91089
109.408 1031.1321 184.7998
114.87832 1031.1321 184.7998
121.46747 1020.0817 211.61377
126.98864 1020.0817 211.61377
132.51001 1020.0817 211.61377
138.03117 1020.0817 211.61377
143.55234 1020.0817 211.61377
210.05991 986.16846 293.90454
215.73711 986.16846 293.90454
219.36314 997.59985 266.16626
222.88374 1009.0312 238.42773
228.45575 1009.0312 238.42773
234.02797 1009.0312 238.42773
239.59998 1009.0312 238.42773
245.17221 1009.0312 238.42773
250.7442 1009.0312 238.42773
256.31622 1009.0312 238.42773
261.88843 1009.0312 238.42773
267.46045 1009.0312 238.42773
273.03268 1009.0312 238.42773
278.60468 1009.0312 238.42773
284.17667 1009.0312 238.42773
289.7489 1009.0312 238.42773
298.10873 997.59985 266.16626
303.73355 997.59985 266.16626
309.35815 997.59985 266.16626
317.92834 986.16846 293.90454
323.60577 986.16846 293.90454
329.28299 986.16846 293.90454
334.96042 986.16846 293.90454
340.6376 986.16846 293.90454
346.31482 986.16846 293.90454
-361.04645 1026.0966 182.66235
-355.57602 1026.0966 182.66235
-350.10559 1026.0966 182.66235
-344.63519 1026.0966 182.66235
-339.16486 1026.0966 182.66235
-333.69446 1026.0966 182.66235
-328.224 1026.0966 182.66235
-322.75357 1026.0966 182.66235
-314.43576 1036.811 156.79248
-309.01453 1036.811 156.79248
-303.5932 1036.811 156.79248
-298.17188 1036.811 156.79248
-292.75055 1036.811 156.79248
-287.32922 1036.811 156.79248
-281.90799 1036.811 156.79248
-276.48666 1036.811 156.79248
-271.06534 1036.811 156.79248
-265.64401 1036.811 156.79248
-262.57916 1026.0966 182.66235
-257.10886 1026.0966 182.66235
-251.63843 1026.0966 182.66235
-246.16801 1026.0966 182.66235
-242.93484 1014.9993 209.45654
-237.41357 1014.9993 209.45654
-234.02797 1003.9021 236.25049
-168.06053 1036.811 156.79248
-162.63921 1036.811 156.79248
-157.21788 1036.811 156.79248
-150.42194 1047.5255 130.92236
-145.04982 1047.5255 130.92236
-138.44673 1057.8574 105.97632
-133.12184 1057.8574 105.97632
-126.66079 1068.1892 81.030273
-121.38322 1068.1892 81.030273
-116.10578 1068.1892 81.030273
-110.82822 1068.1892 81.030273
-105.55067 1068.1892 81.030273
-99.406967 1078.1384 57.008057
-94.175003 1078.1384 57.008057
-88.943138 1078.1384 57.008057
-83.711174 1078.1384 57.008057
-79.163002 1068.1892 81.030273
-73.885452 1068.1892 81.030273
-68.015266 1078.1384 57.008057
-62.783401 1078.1384 57.008057
-57.551434 1078.1384 57.008057
-52.319469 1078.1384 57.008057
-47.087502 1078.1384 57.008057
-41.855534 1078.1384 57.008057
-36.623669 1078.1384 57.008057
-31.391701 1078.1384 57.008057
-26.159735 1078.1384 57.008057
-20.927767 1078.1384 57.008057
-15.83256 1068.1892 81.030273
-10.555108 1068.1892 81.030273
-5.277554 1068.1892 81.030273
0 1068.1892 81.030273
5.2774534 1068.1892 81.030273
10.555108 1068.1892 81.030273
15.83256 1068.1892 81.030273
21.110216 1068.1892 81.030273
26.387667 1068.1892 81.030273
31.665119 1068.1892 81.030273
36.942772 1068.1892 81.030273
42.598946 1057.8574 105.97632
47.923943 1057.8574 105.97632
53.248734 1057.8574 105.97632
58.573528 1057.8574 105.97632
63.898525 1057.8574 105.97632
69.223312 1057.8574 105.97632
74.548309 1057.8574 105.97632
79.8731 1057.8574 105.97632
85.955338 1047.5255 130.92236
91.327667 1047.5255 130.92236
97.583481 1036.811 156.79248
103.00491 1036.811 156.79248
109.408 1026.0966 182.66235
114.87832 1026.0966 182.66235
121.46747 1014.9993 209.45654
126.98864 1014.9993 209.45654
132.51001 1014.9993 209.45654
138.03117 1014.9993 209.45654
143.55234 1014.9993 209.45654
210.05991 980.9425 291.68628
215.73711 980.9425 291.68628
219.36314 992.42236 263.96851
222.88374 1003.9021 236.25049
228.45575 1003.9021 236.25049
234.02797 1003.9021 236.25049
239.59998 1003.9021 236.25049
245.17221 1003.9021 236.25049
250.7442 1003.9021 236.25049
256.31622 1003.9021 236.25049
261.88843 1003.9021 236.25049
267.46045 1003.9021 236.25049
273.03268 1003.9021 236.25049
278.60468 1003.9021 236.25049
284.17667 1003.9021 236.25049
289.7489 1003.9021 236.25049
298.10873 992.42236 263.96851
303.73355 992.42236 263.96851
309.35815 992.42236 263.96851
317.92834 980.9425 291.68628
323.60577 980.9425 291.68628
329.28299 980.9425 291.68628
334.96042 980.9425 291.68628
340.6376 980.9425 291.68628
346.31482 980.9425 291.68628
351.99222 980.9425 291.68628
-363.2276 1031.8207 154.67432
-357.80627 1031.8207 154.67432
-355.57602 1021.061 180.5249
-350.10559 1021.061 180.5249
-344.63519 1021.061 180.5249
-339.16486 1021.061 180.5249
-333.69446 1021.061 180.5249
-328.224 1021.061 180.5249
-322.75357 1021.061 180.5249
-314.43576 1031.8207 154.67432
-309.01453 1031.8207 154.67432
-303.5932 1031.8207 154.67432
-298.17188 1031.8207 154.67432
-295.40158 1021.061 180.5249
-287.32922 1031.8207 154.67432
-281.90799 1031.8207 154.67432
-276.48666 1031.8207 154.67432
-271.06534 1031.8207 154.67432
-265.64401 1031.8207 154.67432
-262.57916 1021.061 180.5249
-257.10886 1021.061 180.5249
-251.63843 1021.061 180.5249
-246.16801 1021.061 180.5249
-242.93484 1009.917 207.29932
-239.59998 998.77295 234.07324
-234.02797 998.77295 234.07324
-162.63921 1031.8207 154.67432
-157.21788 1031.8207 154.67432
-150.42194 1042.5803 128.82324
-145.04982 1042.5803 128.82324
-138.44673 1052.9559 103.89551
-133.12184 1052.9559 103.89551
-126.66079 1063.3313 78.968018
-121.38322 1063.3313 78.968018
-116.10578 1063.3313 78.968018
-110.82822 1063.3313 78.968018
-105.55067 1063.3313 78.968018
-100.27312 1063.3313 78.968018
-94.99556 1063.3313 78.968018
-89.718109 1063.3313 78.968018
-84.440552 1063.3313 78.968018
-79.163002 1063.3313 78.968018
-73.885452 1063.3313 78.968018
-68.607895 1063.3313 78.968018
-63.330441 1063.3313 78.968018
-57.551434 1073.3225 54.963867
-52.319469 1073.3225 54.963867
-47.087502 1073.3225 54.963867
-41.855534 1073.3225 54.963867
-36.623669 1073.3225 54.963867
-31.391701 1073.3225 54.963867
-26.159735 1073.3225 54.963867
-20.927767 1073.3225 54.963867
-15.83256 1063.3313 78.968018
-10.555108 1063.3313 78.968018
-5.277554 1063.3313 78.968018
0 1063.3313 78.968018
5.2774534 1063.3313 78.968018
10.555108 1063.3313 78.968018
15.83256 1063.3313 78.968018
21.110216 1063.3313 78.968018
26.387667 1063.3313 78.968018
31.665119 1063.3313 78.968018
36.942772 1063.3313 78.968018
42.598946 1052.9559 103.89551
47.923943 1052.9559 103.89551
53.248734 1052.9559 103.89551
58.573528 1052.9559 103.89551
63.898525 1052.9559 103.89551
69.223312 1052.9559 103.89551
75.211067 1042.5803 128.82324
80.583206 1042.5803 128.82324
85.955338 1042.5803 128.82324
91.327667 1042.5803 128.82324
97.583481 1031.8207 154.67432
103.93769 1021.061 180.5249
109.408 1021.061 180.5249
114.87832 1021.061 180.5249
120.34885 1021.061 180.5249
126.98864 1009.917 207.29932
132.51001 1009.917 207.29932
138.03117 1009.917 207.29932
143.55234 1009.917 207.29932
215.73711 975.71655 289.46802
219.36314 987.24475 261.77075
222.88374 998.77295 234.07324
228.45575 998.77295 234.07324
234.02797 998.77295 234.07324
239.59998 998.77295 234.07324
245.17221 998.77295 234.07324
250.7442 998.77295 234.07324
256.31622 998.77295 234.07324
261.88843 998.77295 234.07324
267.46045 998.77295 234.07324
273.03268 998.77295 234.07324
278.60468 998.77295 234.07324
284.17667 998.77295 234.07324
289.7489 998.77295 234.07324
298.10873 987.24475 261.77075
303.73355 987.24475 261.77075
309.35815 987.24475 261.77075
317.92834 975.71655 289.46802
323.60577 975.71655 289.46802
329.28299 975.71655 289.46802
334.96042 975.71655 289.46802
340.6376 975.71655 289.46802
346.31482 975.71655 289.46802
351.99222 975.71655 289.46802
357.66946 975.71655 289.46802
-371.98718 1016.0255 178.38745
-363.2276 1026.8303 152.55591
-357.80627 1026.8303 152.55591
-355.57602 1016.0255 178.38745
-350.10559 1016.0255 178.38745
-344.63519 1016.0255 178.38745
-339.16486 1016.0255 178.38745
-333.69446 1016.0255 178.38745
-328.224 1016.0255 178.38745
-322.75357 1016.0255 178.38745
-314.43576 1026.8303 152.55591
-309.01453 1026.8303 152.55591
-303.5932 1026.8303 152.55591
-298.17188 1026.8303 152.55591
-292.75055 1026.8303 152.55591
-287.32922 1026.8303 152.55591
-281.90799 1026.8303 152.55591
-276.48666 1026.8303 152.55591
-271.06534 1026.8303 152.55591
-268.04959 1016.0255 178.38745
-262.57916 1016.0255 178.38745
-257.10886 1016.0255 178.38745
-251.63843 1016.0255 178.38745
-246.16801 1016.0255 178.38745
-242.93484 1004.8346 205.14185
-239.59998 993.64392 231.896
-162.63921 1026.8303 152.55591
-157.21788 1026.8303 152.55591
-150.42194 1037.6353 126.72437
-145.04982 1037.6353 126.72437
-139.67758 1037.6353 126.72437
-133.12184 1048.0543 101.81494
-126.66079 1058.4733 76.906006
-121.38322 1058.4733 76.906006
-116.10578 1058.4733 76.906006
-110.82822 1058.4733 76.906006
-105.55067 1058.4733 76.906006
-100.27312 1058.4733 76.906006
-94.99556 1058.4733 76.906006
-89.718109 1058.4733 76.906006
-84.440552 1058.4733 76.906006
-79.163002 1058.4733 76.906006
-73.885452 1058.4733 76.906006
-68.607895 1058.4733 76.906006
-63.330441 1058.4733 76.906006
-57.551434 1068.5065 52.919434
-52.319469 1068.5065 52.919434
