ply
format ascii 1.0
comment PCL generated
element vertex 1575
property float x
property float y
property float z
element camera 0
property float view_px
property float view_py
property float view_pz
property float x_axisx
property float x_axisy
property float x_axisz
property float y_axisx
property float y_axisy
property float y_axisz
property float z_axisx
property float z_axisy
property float z_axisz
property float focal
property float scalex
property float scaley
property float centerx
property float centery
property int viewportx
property int viewporty
property float k1
property float k2
end_header
-29.499834 552.1781 247.6543
-23.599844 552.1781 247.6543
-17.699856 552.1781 247.6543
-11.687765 568.03845 219.62305
-5.8438826 568.03845 219.62305
0 584.39453 190.71582
5.785912 584.39453 190.71582
11.572044 584.39453 190.71582
17.357956 584.39453 190.71582
23.144089 584.39453 190.71582
28.658234 599.75928 163.56079
34.389793 599.75928 163.56079
40.121571 599.75928 163.56079
45.85313 599.75928 163.56079
51.584908 599.75928 163.56079
57.316467 599.75928 163.56079
63.048027 599.75928 163.56079
68.779808 599.75928 163.56079
74.51136 599.75928 163.56079
80.243141 599.75928 163.56079
85.974701 599.75928 163.56079
90.836609 615.12415 136.40552
96.514038 615.12415 136.40552
102.19124 615.12415 136.40552
107.86867 615.12415 136.40552
112.49387 629.99329 110.12646
118.11848 629.99329 110.12646
123.7433 629.99329 110.12646
128.15811 644.86243 83.847168
133.73033 644.86243 83.847168
139.30234 644.86243 83.847168
143.55234 659.23584 58.443848
149.07372 659.23584 58.443848
154.59486 659.23584 58.443848
160.11624 659.23584 58.443848
165.63741 659.23584 58.443848
171.15857 659.23584 58.443848
176.67995 659.23584 58.443848
182.2011 659.23584 58.443848
187.72247 659.23584 58.443848
193.24364 659.23584 58.443848
-152.01401 495.53027 335.50391
-145.93341 495.53027 335.50391
-139.85284 495.53027 335.50391
-133.77237 495.53027 335.50391
-126.40308 512.93408 304.8689
-120.38387 512.93408 304.8689
-114.36465 512.93408 304.8689
-108.34544 512.93408 304.8689
-102.32633 512.93408 304.8689
-96.307121 512.93408 304.8689
-90.287903 512.93408 304.8689
-84.268684 512.93408 304.8689
-77.474495 529.8407 275.10889
-71.515007 529.8407 275.10889
-65.555405 529.8407 275.10889
-59.595802 529.8407 275.10889
-54.172718 512.93408 304.8689
-48.153503 512.93408 304.8689
-41.717106 529.8407 275.10889
-35.757504 529.8407 275.10889
-29.499834 546.74731 245.34888
-23.599844 546.74731 245.34888
-17.699856 546.74731 245.34888
-11.687765 562.6593 217.33984
-5.8438826 562.6593 217.33984
0 562.6593 217.33984
5.785912 579.0686 188.45508
11.572044 579.0686 188.45508
17.357956 579.0686 188.45508
23.144089 579.0686 188.45508
28.93 579.0686 188.45508
34.389793 594.4834 161.32129
40.121571 594.4834 161.32129
45.85313 594.4834 161.32129
51.584908 594.4834 161.32129
57.316467 594.4834 161.32129
63.048027 594.4834 161.32129
68.779808 594.4834 161.32129
74.51136 594.4834 161.32129
80.243141 594.4834 161.32129
85.974701 594.4834 161.32129
91.706261 594.4834 161.32129
96.514038 609.89819 134.18726
102.19124 609.89819 134.18726
107.86867 609.89819 134.18726
113.54587 609.89819 134.18726
118.11848 624.8158 107.92871
123.7433 624.8158 107.92871
129.3679 624.8158 107.92871
134.99274 624.8158 107.92871
139.30234 639.73328 81.669922
144.87434 639.73328 81.669922
150.44656 639.73328 81.669922
154.59486 654.15356 56.286621
160.11624 654.15356 56.286621
165.63741 654.15356 56.286621
171.15857 654.15356 56.286621
176.67995 654.15356 56.286621
182.2011 654.15356 56.286621
187.72247 654.15356 56.286621
193.24364 654.15356 56.286621
-158.09459 489.93298 333.12793
-152.01401 489.93298 333.12793
-145.93341 489.93298 333.12793
-139.85284 489.93298 333.12793
-133.77237 489.93298 333.12793
-126.40308 507.39331 302.51685
-120.38387 507.39331 302.51685
-114.36465 507.39331 302.51685
-108.34544 507.39331 302.51685
-102.32633 507.39331 302.51685
-96.307121 507.39331 302.51685
-90.287903 507.39331 302.51685
-84.268684 507.39331 302.51685
-78.249474 507.39331 302.51685
-72.23037 507.39331 302.51685
-66.211151 507.39331 302.51685
-60.191936 507.39331 302.51685
-54.172718 507.39331 302.51685
-48.153503 507.39331 302.51685
-42.134399 507.39331 302.51685
-36.115185 507.39331 302.51685
-29.797901 524.35474 272.78027
-23.838299 524.35474 272.78027
-17.699856 541.31628 243.0437
-11.799978 541.31628 243.0437
-5.8438826 557.27991 215.0564
0 557.27991 215.0564
5.785912 573.74243 186.19434
11.572044 573.74243 186.19434
17.357956 573.74243 186.19434
23.144089 573.74243 186.19434
28.93 573.74243 186.19434
34.389793 589.20728 159.08154
40.121571 589.20728 159.08154
45.85313 589.20728 159.08154
51.584908 589.20728 159.08154
57.316467 589.20728 159.08154
63.048027 589.20728 159.08154
68.779808 589.20728 159.08154
74.51136 589.20728 159.08154
80.243141 589.20728 159.08154
85.974701 589.20728 159.08154
91.706261 589.20728 159.08154
96.514038 604.67212 131.96899
102.19124 604.67212 131.96899
107.86867 604.67212 131.96899
113.54587 604.67212 131.96899
119.22308 604.67212 131.96899
124.90051 604.67212 131.96899
130.57771 604.67212 131.96899
134.99274 619.63818 105.73096
139.30234 634.60413 79.492676
144.87434 634.60413 79.492676
150.44656 634.60413 79.492676
156.01857 634.60413 79.492676
160.11624 649.07117 54.12915
165.63741 649.07117 54.12915
171.15857 649.07117 54.12915
176.67995 649.07117 54.12915
182.2011 649.07117 54.12915
189.45126 634.60413 79.492676
195.02327 634.60413 79.492676
-158.09459 484.33594 330.75195
-152.01401 484.33594 330.75195
-145.93341 484.33594 330.75195
-139.85284 484.33594 330.75195
-133.77237 484.33594 330.75195
-126.40308 501.85266 300.16504
-120.38387 501.85266 300.16504
-114.36465 501.85266 300.16504
-108.34544 501.85266 300.16504
-102.32633 501.85266 300.16504
-96.307121 501.85266 300.16504
-90.287903 501.85266 300.16504
-84.268684 501.85266 300.16504
-77.474495 518.86902 270.4519
-71.515007 518.86902 270.4519
-66.211151 501.85266 300.16504
-60.191936 501.85266 300.16504
-54.172718 501.85266 300.16504
-48.153503 501.85266 300.16504
-42.134399 501.85266 300.16504
-36.115185 501.85266 300.16504
-29.499834 535.88538 240.73828
-23.599844 535.88538 240.73828
-17.699856 535.88538 240.73828
-11.687765 551.90063 212.77295
-5.8438826 551.90063 212.77295
0 568.4165 183.93359
5.785912 568.4165 183.93359
11.572044 568.4165 183.93359
17.357956 568.4165 183.93359
23.144089 568.4165 183.93359
28.93 568.4165 183.93359
34.389793 583.9314 156.84229
40.121571 583.9314 156.84229
45.85313 583.9314 156.84229
51.584908 583.9314 156.84229
57.316467 583.9314 156.84229
63.048027 583.9314 156.84229
68.779808 583.9314 156.84229
74.51136 583.9314 156.84229
80.243141 583.9314 156.84229
85.974701 583.9314 156.84229
91.706261 583.9314 156.84229
96.514038 599.44629 129.75073
102.19124 599.44629 129.75073
107.86867 599.44629 129.75073
113.54587 599.44629 129.75073
119.22308 599.44629 129.75073
124.90051 599.44629 129.75073
130.57771 599.44629 129.75073
134.99274 614.46069 103.5332
140.61734 614.46069 103.5332
144.87434 629.4751 77.315674
150.44656 629.4751 77.315674
157.49138 614.46069 103.5332
161.59081 629.4751 77.315674
167.16281 629.4751 77.315674
172.73482 629.4751 77.315674
178.30704 629.4751 77.315674
183.87904 629.4751 77.315674
189.45126 629.4751 77.315674
-164.17517 478.73865 328.37622
-158.09459 478.73865 328.37622
-152.01401 478.73865 328.37622
-144.46062 496.31189 297.81299
-138.44141 496.31189 297.81299
-132.4223 496.31189 297.81299
-126.40308 496.31189 297.81299
-120.38387 496.31189 297.81299
-114.36465 496.31189 297.81299
-108.34544 496.31189 297.81299
-102.32633 496.31189 297.81299
-96.307121 496.31189 297.81299
-90.287903 496.31189 297.81299
-84.268684 496.31189 297.81299
-77.474495 513.38306 268.12329
-71.515007 513.38306 268.12329
-66.211151 496.31189 297.81299
-60.191936 496.31189 297.81299
-54.172718 496.31189 297.81299
-48.153503 496.31189 297.81299
-42.134399 496.31189 297.81299
-36.115185 496.31189 297.81299
-29.499834 530.45435 238.43311
-23.599844 530.45435 238.43311
-17.699856 530.45435 238.43311
-11.687765 546.52124 210.48975
-5.8438826 546.52124 210.48975
0 563.09033 181.67285
5.785912 563.09033 181.67285
11.572044 563.09033 181.67285
17.357956 563.09033 181.67285
23.144089 563.09033 181.67285
28.93 563.09033 181.67285
34.389793 578.65527 154.60254
40.121571 578.65527 154.60254
45.85313 578.65527 154.60254
51.584908 578.65527 154.60254
57.316467 578.65527 154.60254
63.048027 578.65527 154.60254
68.779808 578.65527 154.60254
74.51136 578.65527 154.60254
80.243141 578.65527 154.60254
85.974701 578.65527 154.60254
91.706261 578.65527 154.60254
97.438042 578.65527 154.60254
103.16959 578.65527 154.60254
108.90137 578.65527 154.60254
114.63293 578.65527 154.60254
119.22308 594.22021 127.53223
124.90051 594.22021 127.53223
130.57771 594.22021 127.53223
136.25513 594.22021 127.53223
141.93234 594.22021 127.53223
146.24194 609.28308 101.33545
151.86678 609.28308 101.33545
157.49138 609.28308 101.33545
163.1162 609.28308 101.33545
168.7408 609.28308 101.33545
174.36542 609.28308 101.33545
181.67343 594.22021 127.53223
187.35065 594.22021 127.53223
193.02808 594.22021 127.53223
-170.25565 473.1416 326.00024
-164.17517 473.1416 326.00024
-158.09459 473.1416 326.00024
-152.01401 473.1416 326.00024
-144.46062 490.77124 295.46118
-138.44141 490.77124 295.46118
-132.4223 490.77124 295.46118
-126.40308 490.77124 295.46118
-120.38387 490.77124 295.46118
-114.36465 490.77124 295.46118
-108.34544 490.77124 295.46118
-102.32633 490.77124 295.46118
-96.307121 490.77124 295.46118
-90.287903 490.77124 295.46118
-84.268684 490.77124 295.46118
-78.249474 490.77124 295.46118
-72.23037 490.77124 295.46118
-66.211151 490.77124 295.46118
-60.191936 490.77124 295.46118
-54.172718 490.77124 295.46118
-48.644436 473.1416 326.00024
-42.134399 490.77124 295.46118
-36.115185 490.77124 295.46118
-29.797901 507.89734 265.79468
-23.838299 507.89734 265.79468
-17.878695 507.89734 265.79468
-11.687765 541.14209 208.2063
-5.8438826 541.14209 208.2063
0 557.7644 179.41211
5.785912 557.7644 179.41211
11.572044 557.7644 179.41211
17.357956 557.7644 179.41211
23.144089 557.7644 179.41211
28.93 557.7644 179.41211
34.389793 573.37939 152.36304
40.121571 573.37939 152.36304
45.85313 573.37939 152.36304
51.584908 573.37939 152.36304
57.316467 573.37939 152.36304
63.048027 573.37939 152.36304
68.779808 573.37939 152.36304
74.51136 573.37939 152.36304
80.243141 573.37939 152.36304
85.974701 573.37939 152.36304
91.706261 573.37939 152.36304
97.438042 573.37939 152.36304
103.16959 573.37939 152.36304
108.90137 573.37939 152.36304
114.63293 573.37939 152.36304
120.36449 573.37939 152.36304
126.09628 573.37939 152.36304
130.57771 588.99438 125.31396
136.25513 588.99438 125.31396
141.93234 588.99438 125.31396
147.60954 588.99438 125.31396
153.28697 588.99438 125.31396
157.49138 604.10559 99.137695
163.1162 604.10559 99.137695
170.3188 588.99438 125.31396
175.99602 588.99438 125.31396
181.67343 588.99438 125.31396
187.35065 588.99438 125.31396
-170.25565 467.54431 323.62451
-164.17517 467.54431 323.62451
-158.09459 467.54431 323.62451
-152.01401 467.54431 323.62451
-145.93341 467.54431 323.62451
-138.44141 485.23047 293.10938
-132.4223 485.23047 293.10938
-126.40308 485.23047 293.10938
-120.38387 485.23047 293.10938
-114.36465 485.23047 293.10938
-108.34544 485.23047 293.10938
-102.32633 485.23047 293.10938
-96.307121 485.23047 293.10938
-90.287903 485.23047 293.10938
-84.268684 485.23047 293.10938
-78.249474 485.23047 293.10938
-72.23037 485.23047 293.10938
-66.211151 485.23047 293.10938
-60.191936 485.23047 293.10938
-54.172718 485.23047 293.10938
-48.644436 467.54431 323.62451
-42.134399 485.23047 293.10938
-36.115185 485.23047 293.10938
-29.797901 502.4115 263.46606
-23.838299 502.4115 263.46606
-17.878695 502.4115 263.46606
-11.687765 535.7627 205.92285
-5.8438826 535.7627 205.92285
0 535.7627 205.92285
5.785912 552.43835 177.15137
11.572044 552.43835 177.15137
17.357956 552.43835 177.15137
23.144089 552.43835 177.15137
28.93 552.43835 177.15137
34.715912 552.43835 177.15137
40.502045 552.43835 177.15137
46.28796 552.43835 177.15137
52.074093 552.43835 177.15137
57.860001 552.43835 177.15137
63.048027 568.10327 150.12354
68.779808 568.10327 150.12354
74.51136 568.10327 150.12354
80.243141 568.10327 150.12354
85.974701 568.10327 150.12354
91.706261 568.10327 150.12354
97.438042 568.10327 150.12354
103.16959 568.10327 150.12354
108.90137 568.10327 150.12354
114.63293 568.10327 150.12354
120.36449 568.10327 150.12354
126.09628 568.10327 150.12354
130.57771 583.76831 123.0957
136.25513 583.76831 123.0957
141.93234 583.76831 123.0957
147.60954 583.76831 123.0957
153.28697 583.76831 123.0957
158.96417 583.76831 123.0957
164.6416 583.76831 123.0957
170.3188 583.76831 123.0957
175.99602 583.76831 123.0957
183.41275 568.10327 150.12354
-176.33621 461.94727 321.24854
-170.25565 461.94727 321.24854
-162.51826 479.68994 290.75757
-156.49907 479.68994 290.75757
-152.01401 461.94727 321.24854
-145.93341 461.94727 321.24854
-138.44141 479.68994 290.75757
-132.4223 479.68994 290.75757
-126.40308 479.68994 290.75757
-120.38387 479.68994 290.75757
-114.36465 479.68994 290.75757
-108.34544 479.68994 290.75757
-102.32633 479.68994 290.75757
-96.307121 479.68994 290.75757
-90.287903 479.68994 290.75757
-84.268684 479.68994 290.75757
-78.249474 479.68994 290.75757
-72.23037 479.68994 290.75757
-66.211151 479.68994 290.75757
-60.191936 479.68994 290.75757
-54.172718 479.68994 290.75757
-48.644436 461.94727 321.24854
-42.563965 461.94727 321.24854
-36.483383 461.94727 321.24854
-30.402802 461.94727 321.24854
0 530.38354 203.63965
5.785912 547.11243 174.89062
11.572044 547.11243 174.89062
17.357956 547.11243 174.89062
23.144089 547.11243 174.89062
28.93 547.11243 174.89062
34.715912 547.11243 174.89062
40.502045 547.11243 174.89062
46.28796 547.11243 174.89062
52.074093 547.11243 174.89062
57.860001 547.11243 174.89062
63.048027 562.82739 147.88403
68.779808 562.82739 147.88403
74.51136 562.82739 147.88403
80.243141 562.82739 147.88403
85.974701 562.82739 147.88403
91.706261 562.82739 147.88403
97.438042 562.82739 147.88403
103.16959 562.82739 147.88403
108.90137 562.82739 147.88403
114.63293 562.82739 147.88403
120.36449 562.82739 147.88403
126.09628 562.82739 147.88403
130.57771 578.54248 120.87744
136.25513 578.54248 120.87744
141.93234 578.54248 120.87744
147.60954 578.54248 120.87744
153.28697 578.54248 120.87744
158.96417 578.54248 120.87744
164.6416 578.54248 120.87744
170.3188 578.54248 120.87744
177.68095 562.82739 147.88403
187.00357 530.38354 203.63965
194.69885 514.16162 231.51709
-176.33621 456.34998 318.8728
-170.25565 456.34998 318.8728
-162.51826 474.14917 288.40552
-156.49907 474.14917 288.40552
-152.01401 456.34998 318.8728
-145.93341 456.34998 318.8728
-139.85284 456.34998 318.8728
-133.77237 456.34998 318.8728
-127.69179 456.34998 318.8728
-121.61121 456.34998 318.8728
-115.53062 456.34998 318.8728
-108.34544 474.14917 288.40552
-102.32633 474.14917 288.40552
-96.307121 474.14917 288.40552
-90.287903 474.14917 288.40552
-84.268684 474.14917 288.40552
-78.249474 474.14917 288.40552
-72.23037 474.14917 288.40552
-66.211151 474.14917 288.40552
-60.191936 474.14917 288.40552
-54.172718 474.14917 288.40552
-48.644436 456.34998 318.8728
-42.563965 456.34998 318.8728
-36.483383 456.34998 318.8728
5.785912 541.78625 172.62988
11.463337 557.55127 145.64453
17.194897 557.55127 145.64453
23.144089 541.78625 172.62988
28.658234 557.55127 145.64453
34.389793 557.55127 145.64453
40.121571 557.55127 145.64453
45.85313 557.55127 145.64453
52.074093 541.78625 172.62988
57.860001 541.78625 172.62988
63.645912 541.78625 172.62988
68.779808 557.55127 145.64453
74.51136 557.55127 145.64453
80.243141 557.55127 145.64453
85.974701 557.55127 145.64453
91.706261 557.55127 145.64453
97.438042 557.55127 145.64453
103.16959 557.55127 145.64453
108.90137 557.55127 145.64453
114.63293 557.55127 145.64453
120.36449 557.55127 145.64453
126.09628 557.55127 145.64453
131.82784 557.55127 145.64453
137.55962 557.55127 145.64453
143.29117 557.55127 145.64453
149.02272 557.55127 145.64453
154.75452 557.55127 145.64453
160.48607 557.55127 145.64453
166.21785 557.55127 145.64453
171.9494 557.55127 145.64453
177.68095 557.55127 145.64453
187.00357 525.00415 201.3562
194.69885 508.73059 229.21191
202.62582 491.43994 258.80884
-176.33621 450.75281 316.49683
-170.25565 450.75281 316.49683
-162.51826 468.60852 286.05371
-156.49907 468.60852 286.05371
-152.01401 450.75281 316.49683
-145.93341 450.75281 316.49683
-139.85284 450.75281 316.49683
-132.4223 468.60852 286.05371
-126.40308 468.60852 286.05371
-120.38387 468.60852 286.05371
-114.36465 468.60852 286.05371
-108.34544 468.60852 286.05371
-102.32633 468.60852 286.05371
-96.307121 468.60852 286.05371
-90.287903 468.60852 286.05371
-84.268684 468.60852 286.05371
-78.249474 468.60852 286.05371
-72.23037 468.60852 286.05371
-66.211151 468.60852 286.05371
-60.191936 468.60852 286.05371
-54.172718 468.60852 286.05371
-48.153503 468.60852 286.05371
-42.134399 468.60852 286.05371
-36.483383 450.75281 316.49683
11.463337 552.27539 143.40503
17.194897 552.27539 143.40503
23.144089 536.46033 170.36914
28.658234 552.27539 143.40503
34.389793 552.27539 143.40503
40.121571 552.27539 143.40503
45.85313 552.27539 143.40503
52.074093 536.46033 170.36914
57.860001 536.46033 170.36914
63.645912 536.46033 170.36914
68.779808 552.27539 143.40503
74.51136 552.27539 143.40503
81.004089 536.46033 170.36914
85.974701 552.27539 143.40503
91.706261 552.27539 143.40503
97.438042 552.27539 143.40503
103.16959 552.27539 143.40503
108.90137 552.27539 143.40503
114.63293 552.27539 143.40503
120.36449 552.27539 143.40503
126.09628 552.27539 143.40503
131.82784 552.27539 143.40503
137.55962 552.27539 143.40503
143.29117 552.27539 143.40503
149.02272 552.27539 143.40503
154.75452 552.27539 143.40503
160.48607 552.27539 143.40503
166.21785 552.27539 143.40503
171.9494 552.27539 143.40503
181.15958 519.62488 199.07275
187.00357 519.62488 199.07275
194.69885 503.29968 226.90649
202.62582 485.9541 256.48022
208.58531 485.9541 256.48022
-176.33621 445.15552 314.12109
-170.25565 445.15552 314.12109
-162.51826 463.06775 283.7019
-156.49907 463.06775 283.7019
-152.01401 445.15552 314.12109
-145.93341 445.15552 314.12109
-139.85284 445.15552 314.12109
-132.4223 463.06775 283.7019
-126.40308 463.06775 283.7019
-120.38387 463.06775 283.7019
-114.36465 463.06775 283.7019
-108.34544 463.06775 283.7019
-102.32633 463.06775 283.7019
-96.307121 463.06775 283.7019
-91.208405 445.15552 314.12109
-85.127823 445.15552 314.12109
-79.047241 445.15552 314.12109
-72.966766 445.15552 314.12109
-66.886185 445.15552 314.12109
-60.191936 463.06775 283.7019
-54.172718 463.06775 283.7019
-48.153503 463.06775 283.7019
-42.134399 463.06775 283.7019
28.93 531.13416 168.10815
34.389793 546.99927 141.16553
40.121571 546.99927 141.16553
45.85313 546.99927 141.16553
52.074093 531.13416 168.10815
57.860001 531.13416 168.10815
63.645912 531.13416 168.10815
69.432045 531.13416 168.10815
75.217957 531.13416 168.10815
81.004089 531.13416 168.10815
85.974701 546.99927 141.16553
91.706261 546.99927 141.16553
97.438042 546.99927 141.16553
103.16959 546.99927 141.16553
108.90137 546.99927 141.16553
114.63293 546.99927 141.16553
120.36449 546.99927 141.16553
126.09628 546.99927 141.16553
131.82784 546.99927 141.16553
137.55962 546.99927 141.16553
143.29117 546.99927 141.16553
149.02272 546.99927 141.16553
154.75452 546.99927 141.16553
160.48607 546.99927 141.16553
167.7941 531.13416 168.10815
175.31581 514.24548 196.78931
181.15958 514.24548 196.78931
188.799 497.86865 224.60132
194.69885 497.86865 224.60132
202.62582 480.46826 254.15161
208.58531 480.46826 254.15161
-176.33621 439.55835 311.74512
-170.25565 439.55835 311.74512
-164.17517 439.55835 311.74512
-158.09459 439.55835 311.74512
-152.01401 439.55835 311.74512
-145.93341 439.55835 311.74512
-139.85284 439.55835 311.74512
-133.77237 439.55835 311.74512
-127.69179 439.55835 311.74512
-121.61121 439.55835 311.74512
-115.53062 439.55835 311.74512
-109.45004 439.55835 311.74512
-103.36957 439.55835 311.74512
-97.288986 439.55835 311.74512
-91.208405 439.55835 311.74512
-85.127823 439.55835 311.74512
-79.047241 439.55835 311.74512
-72.966766 439.55835 311.74512
-66.886185 439.55835 311.74512
-60.191936 457.52698 281.34985
-54.172718 457.52698 281.34985
-48.153503 457.52698 281.34985
-42.563965 439.55835 311.74512
40.502045 525.80811 165.84741
46.28796 525.80811 165.84741
52.074093 525.80811 165.84741
57.860001 525.80811 165.84741
63.645912 525.80811 165.84741
69.432045 525.80811 165.84741
75.217957 525.80811 165.84741
81.004089 525.80811 165.84741
86.790001 525.80811 165.84741
91.706261 541.72327 138.92578
97.438042 541.72327 138.92578
103.16959 541.72327 138.92578
108.90137 541.72327 138.92578
114.63293 541.72327 138.92578
120.36449 541.72327 138.92578
126.09628 541.72327 138.92578
131.82784 541.72327 138.92578
137.55962 541.72327 138.92578
143.29117 541.72327 138.92578
149.02272 541.72327 138.92578
154.75452 541.72327 138.92578
160.48607 541.72327 138.92578
167.7941 525.80811 165.84741
175.31581 508.86609 194.50586
181.15958 508.86609 194.50586
188.799 492.43774 222.2959
194.69885 492.43774 222.2959
202.62582 474.9823 251.823
206.49884 492.43774 222.2959
212.39873 492.43774 222.2959
-176.33621 433.96118 309.36914
-168.53737 451.98633 278.99805
-162.51826 451.98633 278.99805
-158.09459 433.96118 309.36914
-152.01401 433.96118 309.36914
-145.93341 433.96118 309.36914
-139.85284 433.96118 309.36914
-133.77237 433.96118 309.36914
-127.69179 433.96118 309.36914
-121.61121 433.96118 309.36914
-115.53062 433.96118 309.36914
-109.45004 433.96118 309.36914
-103.36957 433.96118 309.36914
-97.288986 433.96118 309.36914
-91.208405 433.96118 309.36914
-85.127823 433.96118 309.36914
-79.047241 433.96118 309.36914
-72.966766 433.96118 309.36914
-66.886185 433.96118 309.36914
-60.805603 433.96118 309.36914
-54.725021 433.96118 309.36914
-48.644436 433.96118 309.36914
-42.563965 433.96118 309.36914
52.074093 520.48218 163.58667
57.860001 520.48218 163.58667
63.645912 520.48218 163.58667
69.432045 520.48218 163.58667
75.217957 520.48218 163.58667
81.004089 520.48218 163.58667
86.790001 520.48218 163.58667
92.57592 520.48218 163.58667
98.362045 520.48218 163.58667
104.14796 520.48218 163.58667
109.93409 520.48218 163.58667
114.63293 536.44727 136.68628
120.36449 536.44727 136.68628
126.09628 536.44727 136.68628
131.82784 536.44727 136.68628
137.55962 536.44727 136.68628
143.29117 536.44727 136.68628
149.02272 536.44727 136.68628
154.75452 536.44727 136.68628
160.48607 536.44727 136.68628
167.7941 520.48218 163.58667
176.99901 487.00684 219.99072
182.8989 487.00684 219.99072
188.799 487.00684 219.99072
194.69885 487.00684 219.99072
202.62582 469.49658 249.49438
206.49884 487.00684 219.99072
212.39873 487.00684 219.99072
-176.33621 428.36389 306.99341
-168.53737 446.44556 276.646
-162.51826 446.44556 276.646
-158.09459 428.36389 306.99341
-152.01401 428.36389 306.99341
-145.93341 428.36389 306.99341
-139.85284 428.36389 306.99341
-133.77237 428.36389 306.99341
-127.69179 428.36389 306.99341
-121.61121 428.36389 306.99341
-115.53062 428.36389 306.99341
-109.45004 428.36389 306.99341
-103.36957 428.36389 306.99341
-97.288986 428.36389 306.99341
-91.208405 428.36389 306.99341
-85.127823 428.36389 306.99341
-79.047241 428.36389 306.99341
-72.966766 428.36389 306.99341
-66.886185 428.36389 306.99341
-60.805603 428.36389 306.99341
-54.725021 428.36389 306.99341
-48.644436 428.36389 306.99341
52.074093 515.15601 161.32593
57.860001 515.15601 161.32593
63.645912 515.15601 161.32593
69.432045 515.15601 161.32593
75.217957 515.15601 161.32593
81.004089 515.15601 161.32593
86.790001 515.15601 161.32593
92.57592 515.15601 161.32593
98.362045 515.15601 161.32593
104.14796 515.15601 161.32593
109.93409 515.15601 161.32593
115.72 515.15601 161.32593
121.50592 515.15601 161.32593
126.09628 531.17114 134.44678
131.82784 531.17114 134.44678
138.86409 515.15601 161.32593
144.65001 515.15601 161.32593
150.43591 515.15601 161.32593
156.22206 515.15601 161.32593
162.00795 515.15601 161.32593
169.47203 498.10754 189.93921
176.99901 481.57581 217.6853
182.8989 481.57581 217.6853
188.799 481.57581 217.6853
194.69885 481.57581 217.6853
202.62582 464.01074 247.16577
208.58531 464.01074 247.16577
214.54478 464.01074 247.16577
-176.33621 422.76685 304.61768
-170.25565 422.76685 304.61768
-164.17517 422.76685 304.61768
-158.09459 422.76685 304.61768
-152.01401 422.76685 304.61768
-145.93341 422.76685 304.61768
-139.85284 422.76685 304.61768
-133.77237 422.76685 304.61768
-126.40308 440.90503 274.29419
-120.38387 440.90503 274.29419
-115.53062 422.76685 304.61768
-109.45004 422.76685 304.61768
-103.36957 422.76685 304.61768
-97.288986 422.76685 304.61768
-91.208405 422.76685 304.61768
-85.127823 422.76685 304.61768
-79.047241 422.76685 304.61768
-72.966766 422.76685 304.61768
-66.886185 422.76685 304.61768
-61.41927 404.62878 334.94116
-55.277321 404.62878 334.94116
57.860001 509.83008 159.06519
63.645912 509.83008 159.06519
69.432045 509.83008 159.06519
75.217957 509.83008 159.06519
81.004089 509.83008 159.06519
86.790001 509.83008 159.06519
92.57592 509.83008 159.06519
98.362045 509.83008 159.06519
104.14796 509.83008 159.06519
109.93409 509.83008 159.06519
115.72 509.83008 159.06519
121.50592 509.83008 159.06519
127.29205 509.83008 159.06519
133.07796 509.83008 159.06519
138.86409 509.83008 159.06519
144.65001 509.83008 159.06519
150.43591 509.83008 159.06519
156.22206 509.83008 159.06519
162.00795 509.83008 159.06519
169.47203 492.72827 187.65576
176.99901 476.14502 215.38013
182.8989 476.14502 215.38013
188.799 476.14502 215.38013
196.66609 458.5249 244.8374
202.62582 458.5249 244.8374
208.58531 458.5249 244.8374
214.54478 458.5249 244.8374
-170.25565 417.16956 302.2417
-164.17517 417.16956 302.2417
-158.09459 417.16956 302.2417
-152.01401 417.16956 302.2417
-145.93341 417.16956 302.2417
-139.85284 417.16956 302.2417
-133.77237 417.16956 302.2417
-126.40308 435.36426 271.94238
-120.38387 435.36426 271.94238
-114.36465 435.36426 271.94238
-108.34544 435.36426 271.94238
-103.36957 417.16956 302.2417
-97.288986 417.16956 302.2417
-91.208405 417.16956 302.2417
-85.127823 417.16956 302.2417
-79.047241 417.16956 302.2417
-72.966766 417.16956 302.2417
-66.886185 417.16956 302.2417
-61.41927 398.9751 332.54126
-55.277321 398.9751 332.54126
57.860001 504.50391 156.80444
63.645912 504.50391 156.80444
69.432045 504.50391 156.80444
75.217957 504.50391 156.80444
81.004089 504.50391 156.80444
86.790001 504.50391 156.80444
92.57592 504.50391 156.80444
98.362045 504.50391 156.80444
104.14796 504.50391 156.80444
109.93409 504.50391 156.80444
115.72 504.50391 156.80444
121.50592 504.50391 156.80444
127.29205 504.50391 156.80444
133.07796 504.50391 156.80444
138.86409 504.50391 156.80444
144.65001 504.50391 156.80444
150.43591 504.50391 156.80444
156.22206 504.50391 156.80444
162.00795 504.50391 156.80444
169.47203 487.34888 185.37256
176.99901 470.71387 213.07471
182.8989 470.71387 213.07471
188.799 470.71387 213.07471
196.66609 453.03906 242.50854
202.62582 453.03906 242.50854
208.58531 453.03906 242.50854
-162.51826 429.82361 269.59058
-156.49907 429.82361 269.59058
-150.47984 429.82361 269.59058
-145.93341 411.57251 299.86572
-139.85284 411.57251 299.86572
-133.77237 411.57251 299.86572
-126.40308 429.82361 269.59058
-120.38387 429.82361 269.59058
-114.36465 429.82361 269.59058
-108.34544 429.82361 269.59058
-103.36957 411.57251 299.86572
-97.288986 411.57251 299.86572
-91.208405 411.57251 299.86572
-85.127823 411.57251 299.86572
-79.047241 411.57251 299.86572
-72.966766 411.57251 299.86572
-66.886185 411.57251 299.86572
-61.41927 393.32141 330.14136
-55.277321 393.32141 330.14136
-49.135365 393.32141 330.14136
64.282372 481.96973 183.08911
69.432045 499.17798 154.5437
75.217957 499.17798 154.5437
81.004089 499.17798 154.5437
86.790001 499.17798 154.5437
92.57592 499.17798 154.5437
98.362045 499.17798 154.5437
104.14796 499.17798 154.5437
109.93409 499.17798 154.5437
115.72 499.17798 154.5437
121.50592 499.17798 154.5437
127.29205 499.17798 154.5437
133.07796 499.17798 154.5437
138.86409 499.17798 154.5437
144.65001 499.17798 154.5437
150.43591 499.17798 154.5437
156.22206 499.17798 154.5437
162.00795 499.17798 154.5437
169.47203 481.96973 183.08911
176.99901 465.28308 210.76953
182.8989 465.28308 210.76953
188.799 465.28308 210.76953
196.66609 447.55322 240.18018
202.62582 447.55322 240.18018
208.58531 447.55322 240.18018
-162.51826 424.28284 267.23853
-156.49907 424.28284 267.23853
-150.47984 424.28284 267.23853
-144.46062 424.28284 267.23853
-139.85284 405.97522 297.48999
-133.77237 405.97522 297.48999
-127.69179 405.97522 297.48999
-121.61121 405.97522 297.48999
-115.53062 405.97522 297.48999
-109.45004 405.97522 297.48999
-103.36957 405.97522 297.48999
-97.288986 405.97522 297.48999
-92.128906 387.66772 327.74146
-85.986954 387.66772 327.74146
-79.845009 387.66772 327.74146
-73.703171 387.66772 327.74146
-67.561218 387.66772 327.74146
-61.41927 387.66772 327.74146
-55.277321 387.66772 327.74146
-49.135365 387.66772 327.74146
69.432045 493.85181 152.28271
75.217957 493.85181 152.28271
81.004089 493.85181 152.28271
86.790001 493.85181 152.28271
92.57592 493.85181 152.28271
98.362045 493.85181 152.28271
104.14796 493.85181 152.28271
109.93409 493.85181 152.28271
115.72 493.85181 152.28271
121.50592 493.85181 152.28271
127.29205 493.85181 152.28271
133.07796 493.85181 152.28271
138.86409 493.85181 152.28271
146.09651 476.59033 180.80566
151.94028 476.59033 180.80566
157.78427 476.59033 180.80566
163.62804 476.59033 180.80566
169.47203 476.59033 180.80566
176.99901 459.85205 208.46411
182.8989 459.85205 208.46411
188.799 459.85205 208.46411
196.66609 442.06738 237.85156
202.62582 442.06738 237.85156
206.49884 459.85205 208.46411
212.39873 459.85205 208.46411
-156.49907 418.74219 264.88672
-150.47984 418.74219 264.88672
-144.46062 418.74219 264.88672
-139.85284 400.37817 295.11401
-133.77237 400.37817 295.11401
-127.69179 400.37817 295.11401
-121.61121 400.37817 295.11401
-115.53062 400.37817 295.11401
-109.45004 400.37817 295.11401
-103.36957 400.37817 295.11401
-97.288986 400.37817 295.11401
-92.128906 382.01404 325.3418
-85.986954 382.01404 325.3418
-79.845009 382.01404 325.3418
-73.703171 382.01404 325.3418
-67.561218 382.01404 325.3418
-61.41927 382.01404 325.3418
-55.277321 382.01404 325.3418
-49.135365 382.01404 325.3418
70.126366 471.21118 178.52246
75.970139 471.21118 178.52246
81.814133 471.21118 178.52246
87.657906 471.21118 178.52246
93.501671 471.21118 178.52246
99.345665 471.21118 178.52246
105.18944 471.21118 178.52246
111.03343 471.21118 178.52246
115.72 488.52588 150.02222
121.50592 488.52588 150.02222
127.29205 488.52588 150.02222
133.07796 488.52588 150.02222
138.86409 488.52588 150.02222
146.09651 471.21118 178.52246
151.94028 471.21118 178.52246
157.78427 471.21118 178.52246
163.62804 471.21118 178.52246
171.09912 454.42114 206.15894
176.99901 454.42114 206.15894
182.8989 454.42114 206.15894
188.799 454.42114 206.15894
194.69885 454.42114 206.15894
200.59895 454.42114 206.15894
206.49884 454.42114 206.15894
212.39873 454.42114 206.15894
-156.49907 413.20142 262.53491
-150.47984 413.20142 262.53491
-145.93341 394.78088 292.73828
-139.85284 394.78088 292.73828
-133.77237 394.78088 292.73828
-127.69179 394.78088 292.73828
-121.61121 394.78088 292.73828
-115.53062 394.78088 292.73828
-109.45004 394.78088 292.73828
-103.36957 394.78088 292.73828
-97.288986 394.78088 292.73828
-92.128906 376.36035 322.94189
-85.986954 376.36035 322.94189
-79.845009 376.36035 322.94189
-73.703171 376.36035 322.94189
-67.561218 376.36035 322.94189
-61.41927 376.36035 322.94189
-55.277321 376.36035 322.94189
-49.135365 376.36035 322.94189
75.970139 465.83179 176.23901
81.814133 465.83179 176.23901
87.657906 465.83179 176.23901
93.501671 465.83179 176.23901
99.345665 465.83179 176.23901
105.18944 465.83179 176.23901
111.03343 465.83179 176.23901
116.8772 465.83179 176.23901
122.72098 465.83179 176.23901
128.56497 465.83179 176.23901
134.40874 465.83179 176.23901
140.25273 465.83179 176.23901
146.09651 465.83179 176.23901
151.94028 465.83179 176.23901
157.78427 465.83179 176.23901
165.19902 448.99011 203.85352
171.09912 448.99011 203.85352
176.99901 448.99011 203.85352
182.8989 448.99011 203.85352
188.799 448.99011 203.85352
194.69885 448.99011 203.85352
200.59895 448.99011 203.85352
206.49884 448.99011 203.85352
212.39873 448.99011 203.85352
-158.09459 389.18384 290.3623
-152.01401 389.18384 290.3623
-145.93341 389.18384 290.3623
-139.85284 389.18384 290.3623
-133.77237 389.18384 290.3623
-127.69179 389.18384 290.3623
-121.61121 389.18384 290.3623
-115.53062 389.18384 290.3623
-109.45004 389.18384 290.3623
-103.36957 389.18384 290.3623
-97.288986 389.18384 290.3623
-92.128906 370.70679 320.54199
-85.986954 370.70679 320.54199
-79.845009 370.70679 320.54199
-73.703171 370.70679 320.54199
-67.561218 370.70679 320.54199
-61.41927 370.70679 320.54199
-55.277321 370.70679 320.54199
-49.135365 370.70679 320.54199
-42.993538 370.70679 320.54199
75.970139 460.45251 173.95557
81.814133 460.45251 173.95557
87.657906 460.45251 173.95557
93.501671 460.45251 173.95557
99.345665 460.45251 173.95557
105.18944 460.45251 173.95557
111.03343 460.45251 173.95557
116.8772 460.45251 173.95557
122.72098 460.45251 173.95557
128.56497 460.45251 173.95557
134.40874 460.45251 173.95557
140.25273 460.45251 173.95557
146.09651 460.45251 173.95557
151.94028 460.45251 173.95557
159.29916 443.55933 201.54834
165.19902 443.55933 201.54834
171.09912 443.55933 201.54834
176.99901 443.55933 201.54834
182.8989 443.55933 201.54834
188.799 443.55933 201.54834
196.66609 425.61011 230.86572
202.62582 425.61011 230.86572
208.58531 425.61011 230.86572
214.54478 425.61011 230.86572
-158.09459 383.58655 287.98657
-152.01401 383.58655 287.98657
-145.93341 383.58655 287.98657
-141.26427 365.05298 318.14209
-133.77237 383.58655 287.98657
-127.69179 383.58655 287.98657
-121.61121 383.58655 287.98657
-116.69659 365.05298 318.14209
-110.55464 365.05298 318.14209
-104.4128 365.05298 318.14209
-98.270851 365.05298 318.14209
-92.128906 365.05298 318.14209
-85.986954 365.05298 318.14209
-79.845009 365.05298 318.14209
-73.703171 365.05298 318.14209
-67.561218 365.05298 318.14209
-61.41927 365.05298 318.14209
-55.277321 365.05298 318.14209
-49.135365 365.05298 318.14209
-42.993538 365.05298 318.14209
81.814133 455.07312 171.67212
87.657906 455.07312 171.67212
94.399376 438.1283 199.24292
100.29948 438.1283 199.24292
106.19936 438.1283 199.24292
112.09946 438.1283 199.24292
116.8772 455.07312 171.67212
122.72098 455.07312 171.67212
128.56497 455.07312 171.67212
134.40874 455.07312 171.67212
140.25273 455.07312 171.67212
147.49918 438.1283 199.24292
153.39905 438.1283 199.24292
159.29916 438.1283 199.24292
165.19902 438.1283 199.24292
171.09912 438.1283 199.24292
176.99901 438.1283 199.24292
184.74689 420.12415 228.53711
190.70662 420.12415 228.53711
196.66609 420.12415 228.53711
202.62582 420.12415 228.53711
208.58531 420.12415 228.53711
212.39873 438.1283 199.24292
218.29883 438.1283 199.24292
-156.49907 396.57947 255.47925
-150.47984 396.57947 255.47925
-145.93341 377.9895 285.6106
-141.26427 359.39941 315.74243
-133.77237 377.9895 285.6106
-127.69179 377.9895 285.6106
-122.83854 359.39941 315.74243
-116.69659 359.39941 315.74243
-110.55464 359.39941 315.74243
-104.4128 359.39941 315.74243
-98.270851 359.39941 315.74243
-92.128906 359.39941 315.74243
-85.986954 359.39941 315.74243
-79.845009 359.39941 315.74243
-73.703171 359.39941 315.74243
-67.561218 359.39941 315.74243
-61.41927 359.39941 315.74243
-55.845398 340.27808 346.73486
-49.640327 340.27808 346.73486
-43.435375 340.27808 346.73486
81.814133 449.69397 169.38892
87.657906 449.69397 169.38892
94.399376 432.69739 196.93774
100.29948 432.69739 196.93774
106.19936 432.69739 196.93774
112.09946 432.69739 196.93774
116.8772 449.69397 169.38892
122.72098 449.69397 169.38892
128.56497 449.69397 169.38892
134.40874 449.69397 169.38892
140.25273 449.69397 169.38892
147.49918 432.69739 196.93774
153.39905 432.69739 196.93774
159.29916 432.69739 196.93774
165.19902 432.69739 196.93774
171.09912 432.69739 196.93774
176.99901 432.69739 196.93774
182.8989 432.69739 196.93774
190.70662 414.63843 226.2085
196.66609 414.63843 226.2085
202.62582 414.63843 226.2085
208.58531 414.63843 226.2085
212.39873 432.69739 196.93774
218.29883 432.69739 196.93774
-165.83208 353.74561 313.34253
-156.49907 391.0387 253.1272
-150.47984 391.0387 253.1272
-145.93341 372.39209 283.23486
-141.26427 353.74561 313.34253
-135.12244 353.74561 313.34253
-128.98048 353.74561 313.34253
-121.61121 372.39209 283.23486
-115.53062 372.39209 283.23486
-110.55464 353.74561 313.34253
-104.4128 353.74561 313.34253
-98.270851 353.74561 313.34253
-92.128906 353.74561 313.34253
-85.986954 353.74561 313.34253
-79.845009 353.74561 313.34253
-73.703171 353.74561 313.34253
-67.561218 353.74561 313.34253
-61.41927 353.74561 313.34253
-55.845398 334.56628 344.3103
-49.640327 334.56628 344.3103
81.814133 444.31458 167.10547
87.657906 444.31458 167.10547
94.399376 427.26636 194.63232
100.29948 427.26636 194.63232
106.19936 427.26636 194.63232
112.09946 427.26636 194.63232
117.99934 427.26636 194.63232
123.89921 427.26636 194.63232
129.79932 427.26636 194.63232
135.69919 427.26636 194.63232
141.5993 427.26636 194.63232
147.49918 427.26636 194.63232
153.39905 427.26636 194.63232
159.29916 427.26636 194.63232
165.19902 427.26636 194.63232
171.09912 427.26636 194.63232
176.99901 427.26636 194.63232
182.8989 427.26636 194.63232
190.70662 409.15259 223.87988
196.66609 409.15259 223.87988
202.62582 409.15259 223.87988
208.58531 409.15259 223.87988
212.39873 427.26636 194.63232
218.29883 427.26636 194.63232
-165.83208 348.09204 310.94263
-158.09459 366.79504 280.85889
-152.01401 366.79504 280.85889
-147.40622 348.09204 310.94263
-141.26427 348.09204 310.94263
-135.12244 348.09204 310.94263
-128.98048 348.09204 310.94263
-121.61121 366.79504 280.85889
-115.53062 366.79504 280.85889
-110.55464 348.09204 310.94263
-104.4128 348.09204 310.94263
-98.270851 348.09204 310.94263
-92.128906 348.09204 310.94263
-85.986954 348.09204 310.94263
-79.845009 348.09204 310.94263
-73.703171 348.09204 310.94263
-67.561218 348.09204 310.94263
-61.41927 348.09204 310.94263
-55.845398 328.85449 341.88574
-49.640327 328.85449 341.88574
88.499504 421.83545 192.32715
94.399376 421.83545 192.32715
100.29948 421.83545 192.32715
106.19936 421.83545 192.32715
112.09946 421.83545 192.32715
117.99934 421.83545 192.32715
123.89921 421.83545 192.32715
129.79932 421.83545 192.32715
135.69919 421.83545 192.32715
141.5993 421.83545 192.32715
147.49918 421.83545 192.32715
153.39905 421.83545 192.32715
159.29916 421.83545 192.32715
165.19902 421.83545 192.32715
171.09912 421.83545 192.32715
176.99901 421.83545 192.32715
182.8989 421.83545 192.32715
188.799 421.83545 192.32715
194.69885 421.83545 192.32715
202.62582 403.66675 221.55127
206.49884 421.83545 192.32715
212.39873 421.83545 192.32715
218.29883 421.83545 192.32715
224.19868 421.83545 192.32715
-158.09459 361.19775 278.48291
-152.01401 361.19775 278.48291
-145.93341 361.19775 278.48291
-139.85284 361.19775 278.48291
-135.12244 342.43835 308.54272
-128.98048 342.43835 308.54272
-122.83854 342.43835 308.54272
-116.69659 342.43835 308.54272
-110.55464 342.43835 308.54272
-103.36957 361.19775 278.48291
-97.288986 361.19775 278.48291
-92.128906 342.43835 308.54272
-85.986954 342.43835 308.54272
-79.845009 342.43835 308.54272
-73.703171 342.43835 308.54272
-67.561218 342.43835 308.54272
-61.41927 342.43835 308.54272
-55.845398 323.1427 339.46143
-50.159317 303.31128 371.23853
-43.889488 303.31128 371.23853
89.3937 398.18091 219.22266
95.353195 398.18091 219.22266
100.29948 416.40454 190.02173
106.19936 416.40454 190.02173
112.09946 416.40454 190.02173
117.99934 416.40454 190.02173
123.89921 416.40454 190.02173
129.79932 416.40454 190.02173
135.69919 416.40454 190.02173
141.5993 416.40454 190.02173
147.49918 416.40454 190.02173
153.39905 416.40454 190.02173
159.29916 416.40454 190.02173
165.19902 416.40454 190.02173
171.09912 416.40454 190.02173
176.99901 416.40454 190.02173
182.8989 416.40454 190.02173
188.799 416.40454 190.02173
194.69885 416.40454 190.02173
202.62582 398.18091 219.22266
206.49884 416.40454 190.02173
212.39873 416.40454 190.02173
218.29883 416.40454 190.02173
224.19868 416.40454 190.02173
-158.09459 355.60059 276.10718
-152.01401 355.60059 276.10718
-145.93341 355.60059 276.10718
-139.85284 355.60059 276.10718
-135.12244 336.78455 306.14282
-128.98048 336.78455 306.14282
-122.83854 336.78455 306.14282
-116.69659 336.78455 306.14282
-110.55464 336.78455 306.14282
-103.36957 355.60059 276.10718
-97.288986 355.60059 276.10718
-92.128906 336.78455 306.14282
-85.986954 336.78455 306.14282
-79.845009 336.78455 306.14282
-73.703171 336.78455 306.14282
-67.561218 336.78455 306.14282
-62.050468 317.43091 337.03687
-55.845398 317.43091 337.03687
-50.159317 297.53967 368.78857
-43.889488 297.53967 368.78857
89.3937 392.69495 216.89404
95.353195 392.69495 216.89404
100.29948 410.97351 187.71631
106.19936 410.97351 187.71631
112.09946 410.97351 187.71631
117.99934 410.97351 187.71631
123.89921 410.97351 187.71631
129.79932 410.97351 187.71631
135.69919 410.97351 187.71631
141.5993 410.97351 187.71631
147.49918 410.97351 187.71631
153.39905 410.97351 187.71631
159.29916 410.97351 187.71631
165.19902 410.97351 187.71631
171.09912 410.97351 187.71631
176.99901 410.97351 187.71631
182.8989 410.97351 187.71631
188.799 410.97351 187.71631
194.69885 410.97351 187.71631
200.59895 410.97351 187.71631
206.49884 410.97351 187.71631
212.39873 410.97351 187.71631
218.29883 410.97351 187.71631
224.19868 410.97351 187.71631
230.0988 410.97351 187.71631
-158.09459 350.00342 273.7312
-152.01401 350.00342 273.7312
-145.93341 350.00342 273.7312
-141.26427 331.13098 303.74316
-135.12244 331.13098 303.74316
-128.98048 331.13098 303.74316
-122.83854 331.13098 303.74316
-116.69659 331.13098 303.74316
-110.55464 331.13098 303.74316
-103.36957 350.00342 273.7312
-97.288986 350.00342 273.7312
-92.128906 331.13098 303.74316
-85.986954 331.13098 303.74316
-79.845009 331.13098 303.74316
-73.703171 331.13098 303.74316
-67.561218 331.13098 303.74316
-62.050468 311.71912 334.6123
-55.845398 311.71912 334.6123
-50.159317 291.76831 366.33887
-44.355877 271.27808 398.9231
89.3937 387.20923 214.56567
95.353195 387.20923 214.56567
100.29948 405.5426 185.41113
106.19936 405.5426 185.41113
112.09946 405.5426 185.41113
117.99934 405.5426 185.41113
123.89921 405.5426 185.41113
129.79932 405.5426 185.41113
135.69919 405.5426 185.41113
141.5993 405.5426 185.41113
147.49918 405.5426 185.41113
153.39905 405.5426 185.41113
159.29916 405.5426 185.41113
165.19902 405.5426 185.41113
171.09912 405.5426 185.41113
176.99901 405.5426 185.41113
182.8989 405.5426 185.41113
188.799 405.5426 185.41113
194.69885 405.5426 185.41113
200.59895 405.5426 185.41113
206.49884 405.5426 185.41113
212.39873 405.5426 185.41113
218.29883 405.5426 185.41113
224.19868 405.5426 185.41113
230.0988 405.5426 185.41113
-158.09459 344.40613 271.35547
-152.01401 344.40613 271.35547
-145.93341 344.40613 271.35547
-141.26427 325.47717 301.34326
-135.12244 325.47717 301.34326
-128.98048 325.47717 301.34326
-122.83854 325.47717 301.34326
-116.69659 325.47717 301.34326
-110.55464 325.47717 301.34326
-103.36957 344.40613 271.35547
-97.288986 344.40613 271.35547
-91.208405 344.40613 271.35547
-85.986954 325.47717 301.34326
-79.845009 325.47717 301.34326
-73.703171 325.47717 301.34326
-67.561218 325.47717 301.34326
-62.050468 306.00732 332.18774
-55.845398 306.00732 332.18774
-50.159317 285.99658 363.88892
-43.889488 285.99658 363.88892
95.353195 381.72339 212.23682
101.31291 381.72339 212.23682
107.27239 381.72339 212.23682
112.09946 400.11157 183.10571
117.99934 400.11157 183.10571
123.89921 400.11157 183.10571
129.79932 400.11157 183.10571
135.69919 400.11157 183.10571
141.5993 400.11157 183.10571
147.49918 400.11157 183.10571
153.39905 400.11157 183.10571
159.29916 400.11157 183.10571
165.19902 400.11157 183.10571
171.09912 400.11157 183.10571
176.99901 400.11157 183.10571
182.8989 400.11157 183.10571
188.799 400.11157 183.10571
194.69885 400.11157 183.10571
200.59895 400.11157 183.10571
206.49884 400.11157 183.10571
212.39873 400.11157 183.10571
218.29883 400.11157 183.10571
224.19868 400.11157 183.10571
232.42372 381.72339 212.23682
238.38321 381.72339 212.23682
-152.01401 338.80908 268.97949
-145.93341 338.80908 268.97949
-141.26427 319.82373 298.94336
-135.12244 319.82373 298.94336
-128.98048 319.82373 298.94336
-122.83854 319.82373 298.94336
-116.69659 319.82373 298.94336
-110.55464 319.82373 298.94336
-103.36957 338.80908 268.97949
-97.288986 338.80908 268.97949
-91.208405 338.80908 268.97949
-85.986954 319.82373 298.94336
-79.845009 319.82373 298.94336
-73.703171 319.82373 298.94336
-67.561218 319.82373 298.94336
-62.050468 300.29565 329.76318
-55.845398 300.29565 329.76318
-50.159317 280.22522 361.43921
-43.889488 280.22522 361.43921
-37.619545 280.22522 361.43921
95.353195 376.23755 209.90845
101.31291 376.23755 209.90845
107.27239 376.23755 209.90845
113.23211 376.23755 209.90845
117.99934 394.68066 180.80054
123.89921 394.68066 180.80054
129.79932 394.68066 180.80054
135.69919 394.68066 180.80054
141.5993 394.68066 180.80054
147.49918 394.68066 180.80054
153.39905 394.68066 180.80054
159.29916 394.68066 180.80054
165.19902 394.68066 180.80054
171.09912 394.68066 180.80054
176.99901 394.68066 180.80054
182.8989 394.68066 180.80054
188.799 394.68066 180.80054
194.69885 394.68066 180.80054
200.59895 394.68066 180.80054
206.49884 394.68066 180.80054
214.54478 376.23755 209.90845
220.50452 376.23755 209.90845
226.464 376.23755 209.90845
232.42372 376.23755 209.90845
238.38321 376.23755 209.90845
244.3427 376.23755 209.90845
-152.01401 333.21179 266.60376
-145.93341 333.21179 266.60376
-141.26427 314.16992 296.54346
-135.12244 314.16992 296.54346
-128.98048 314.16992 296.54346
-122.83854 314.16992 296.54346
-116.69659 314.16992 296.54346
-110.55464 314.16992 296.54346
-103.36957 333.21179 266.60376
-97.288986 333.21179 266.60376
-91.208405 333.21179 266.60376
-85.127823 333.21179 266.60376
-79.845009 314.16992 296.54346
-73.703171 314.16992 296.54346
-68.255539 294.58374 327.33887
-62.050468 294.58374 327.33887
-55.845398 294.58374 327.33887
-50.159317 274.45361 358.98926
-43.889488 274.45361 358.98926
-37.619545 274.45361 358.98926
101.31291 370.75171 207.57983
107.27239 370.75171 207.57983
113.23211 370.75171 207.57983
117.99934 389.24976 178.49512
123.89921 389.24976 178.49512
129.79932 389.24976 178.49512
135.69919 389.24976 178.49512
141.5993 389.24976 178.49512
147.49918 389.24976 178.49512
153.39905 389.24976 178.49512
159.29916 389.24976 178.49512
165.19902 389.24976 178.49512
171.09912 389.24976 178.49512
178.7874 370.75171 207.57983
182.8989 389.24976 178.49512
188.799 389.24976 178.49512
194.69885 389.24976 178.49512
200.59895 389.24976 178.49512
208.58531 370.75171 207.57983
214.54478 370.75171 207.57983
220.50452 370.75171 207.57983
226.464 370.75171 207.57983
232.42372 370.75171 207.57983
238.38321 370.75171 207.57983
246.78685 352.25366 236.66406
252.80617 352.25366 236.66406
261.46405 333.21179 266.60376
-153.54817 308.51636 294.1438
-145.93341 327.61475 264.22778
-139.85284 327.61475 264.22778
-135.12244 308.51636 294.1438
-128.98048 308.51636 294.1438
-122.83854 308.51636 294.1438
-116.69659 308.51636 294.1438
-110.55464 308.51636 294.1438
-103.36957 327.61475 264.22778
-97.288986 327.61475 264.22778
-91.208405 327.61475 264.22778
-85.127823 327.61475 264.22778
-79.845009 308.51636 294.1438
-74.460609 288.87207 324.91431
-67.561218 308.51636 294.1438
-61.41927 308.51636 294.1438
-56.42926 268.68237 356.53955
-50.159317 268.68237 356.53955
-43.889488 268.68237 356.53955
