ply
format ascii 1.0
comment PCL generated
element vertex 1579
property float x
property float y
property float z
element camera 0
property float view_px
property float view_py
property float view_pz
property float x_axisx
property float x_axisy
property float x_axisz
property float y_axisx
property float y_axisy
property float y_axisz
property float z_axisx
property float z_axisy
property float z_axisz
property float focal
property float scalex
property float scaley
property float centerx
property float centery
property int viewportx
property int viewporty
property float k1
property float k2
end_header
37.605534 1116.7576 160.30981
42.598946 1126.4795 135.10449
47.923943 1126.4795 135.10449
53.248734 1126.4795 135.10449
58.573528 1126.4795 135.10449
63.898525 1126.4795 135.10449
69.223312 1126.4795 135.10449
74.548309 1126.4795 135.10449
79.8731 1126.4795 135.10449
85.197891 1126.4795 135.10449
90.522888 1126.4795 135.10449
95.847679 1126.4795 135.10449
101.17268 1126.4795 135.10449
106.49747 1126.4795 135.10449
111.82227 1126.4795 135.10449
117.14725 1126.4795 135.10449
122.47205 1126.4795 135.10449
127.79705 1126.4795 135.10449
133.12184 1126.4795 135.10449
139.67747 1116.7576 160.30981
145.04982 1116.7576 160.30981
150.42194 1116.7576 160.30981
157.21799 1106.6758 186.44824
162.63921 1106.6758 186.44824
168.06042 1106.6758 186.44824
173.48186 1106.6758 186.44824
180.52318 1096.594 212.58667
185.9937 1096.594 212.58667
191.464 1096.594 212.58667
196.93433 1096.594 212.58667
204.28618 1086.152 239.65894
209.80733 1086.152 239.65894
215.3287 1086.152 239.65894
220.84987 1086.152 239.65894
226.37105 1086.152 239.65894
231.89241 1086.152 239.65894
237.41357 1086.152 239.65894
242.93494 1086.152 239.65894
248.45612 1086.152 239.65894
253.97728 1086.152 239.65894
259.49866 1086.152 239.65894
267.46045 1075.7101 266.7312
273.03268 1075.7101 266.7312
278.60468 1075.7101 266.7312
281.58353 1086.152 239.65894
284.46085 1096.594 212.58667
289.93118 1096.594 212.58667
295.40167 1096.594 212.58667
-227.69493 1101.6854 184.33008
-222.27361 1101.6854 184.33008
-216.85228 1101.6854 184.33008
-211.43095 1101.6854 184.33008
-206.00961 1101.6854 184.33008
-200.58839 1101.6854 184.33008
-195.16707 1101.6854 184.33008
-189.74574 1101.6854 184.33008
-182.65524 1111.8125 158.21069
-177.283 1111.8125 158.21069
-171.91087 1111.8125 158.21069
-165.07111 1121.5779 133.02393
-159.7462 1121.5779 133.02393
-154.42131 1121.5779 133.02393
-149.09642 1121.5779 133.02393
-143.77162 1121.5779 133.02393
-138.44673 1121.5779 133.02393
-133.12184 1121.5779 133.02393
-127.79694 1121.5779 133.02393
-121.38322 1131.3431 107.8374
-116.10578 1131.3431 107.8374
-110.82822 1131.3431 107.8374
-105.55067 1131.3431 107.8374
-100.27312 1131.3431 107.8374
-94.99556 1131.3431 107.8374
-88.943138 1140.7469 83.58374
-83.711174 1140.7469 83.58374
-78.479202 1140.7469 83.58374
-73.247231 1140.7469 83.58374
-68.607895 1131.3431 107.8374
-63.330441 1131.3431 107.8374
-58.052891 1131.3431 107.8374
-52.775333 1131.3431 107.8374
-47.49778 1131.3431 107.8374
-42.22023 1131.3431 107.8374
-36.942772 1131.3431 107.8374
-31.66522 1131.3431 107.8374
-26.624367 1121.5779 133.02393
-21.299473 1121.5779 133.02393
-15.97458 1121.5779 133.02393
-10.649788 1121.5779 133.02393
-5.324894 1121.5779 133.02393
0 1121.5779 133.02393
5.3247924 1121.5779 133.02393
10.744469 1111.8125 158.21069
16.116598 1111.8125 158.21069
21.488937 1111.8125 158.21069
26.861067 1111.8125 158.21069
32.233196 1111.8125 158.21069
37.274155 1121.5779 133.02393
42.598946 1121.5779 133.02393
47.923943 1121.5779 133.02393
53.248734 1121.5779 133.02393
58.573528 1121.5779 133.02393
63.898525 1121.5779 133.02393
69.223312 1121.5779 133.02393
74.548309 1121.5779 133.02393
79.8731 1121.5779 133.02393
85.197891 1121.5779 133.02393
90.522888 1121.5779 133.02393
95.847679 1121.5779 133.02393
101.17268 1121.5779 133.02393
106.49747 1121.5779 133.02393
111.82227 1121.5779 133.02393
117.14725 1121.5779 133.02393
122.47205 1121.5779 133.02393
127.79705 1121.5779 133.02393
133.12184 1121.5779 133.02393
139.67747 1111.8125 158.21069
145.04982 1111.8125 158.21069
150.42194 1111.8125 158.21069
157.21799 1101.6854 184.33008
162.63921 1101.6854 184.33008
168.06042 1101.6854 184.33008
173.48186 1101.6854 184.33008
180.52318 1091.5585 210.44922
185.9937 1091.5585 210.44922
191.464 1091.5585 210.44922
196.93433 1091.5585 210.44922
204.28618 1081.0697 237.50171
209.80733 1081.0697 237.50171
215.3287 1081.0697 237.50171
220.84987 1081.0697 237.50171
226.37105 1081.0697 237.50171
231.89241 1081.0697 237.50171
237.41357 1081.0697 237.50171
242.93494 1081.0697 237.50171
248.45612 1081.0697 237.50171
253.97728 1081.0697 237.50171
259.49866 1081.0697 237.50171
267.46045 1070.5809 264.55396
273.03268 1070.5809 264.55396
278.60468 1070.5809 264.55396
281.58353 1081.0697 237.50171
287.10489 1081.0697 237.50171
289.93118 1091.5585 210.44922
295.40167 1091.5585 210.44922
-227.69493 1096.6952 182.21191
-222.27361 1096.6952 182.21191
-216.85228 1096.6952 182.21191
-211.43095 1096.6952 182.21191
-206.00961 1096.6952 182.21191
-200.58839 1096.6952 182.21191
-195.16707 1096.6952 182.21191
-189.74574 1096.6952 182.21191
-182.65524 1106.8673 156.11157
-177.283 1106.8673 156.11157
-171.91087 1106.8673 156.11157
-165.07111 1116.6763 130.94336
-159.7462 1116.6763 130.94336
-154.42131 1116.6763 130.94336
-149.09642 1116.6763 130.94336
-143.77162 1116.6763 130.94336
-138.44673 1116.6763 130.94336
-133.12184 1116.6763 130.94336
-126.66079 1126.4852 105.77539
-121.38322 1126.4852 105.77539
-116.10578 1126.4852 105.77539
-110.82822 1126.4852 105.77539
-105.55067 1126.4852 105.77539
-100.27312 1126.4852 105.77539
-94.99556 1126.4852 105.77539
-88.943138 1135.9309 81.539551
-83.711174 1135.9309 81.539551
-79.163002 1126.4852 105.77539
-73.885452 1126.4852 105.77539
-68.607895 1126.4852 105.77539
-63.330441 1126.4852 105.77539
-58.052891 1126.4852 105.77539
-52.775333 1126.4852 105.77539
-47.49778 1126.4852 105.77539
-42.22023 1126.4852 105.77539
-36.942772 1126.4852 105.77539
-31.66522 1126.4852 105.77539
-26.624367 1116.6763 130.94336
-21.299473 1116.6763 130.94336
-15.97458 1116.6763 130.94336
-10.649788 1116.6763 130.94336
-5.324894 1116.6763 130.94336
0 1116.6763 130.94336
5.3247924 1116.6763 130.94336
10.744469 1106.8673 156.11157
16.116598 1106.8673 156.11157
21.488937 1106.8673 156.11157
26.624367 1116.6763 130.94336
31.94916 1116.6763 130.94336
37.274155 1116.6763 130.94336
42.598946 1116.6763 130.94336
47.923943 1116.6763 130.94336
53.248734 1116.6763 130.94336
58.573528 1116.6763 130.94336
63.898525 1116.6763 130.94336
69.223312 1116.6763 130.94336
74.548309 1116.6763 130.94336
79.8731 1116.6763 130.94336
85.197891 1116.6763 130.94336
90.522888 1116.6763 130.94336
95.847679 1116.6763 130.94336
101.17268 1116.6763 130.94336
106.49747 1116.6763 130.94336
111.82227 1116.6763 130.94336
117.14725 1116.6763 130.94336
122.47205 1116.6763 130.94336
127.79705 1116.6763 130.94336
133.12184 1116.6763 130.94336
138.44662 1116.6763 130.94336
145.04982 1106.8673 156.11157
150.42194 1106.8673 156.11157
157.21799 1096.6952 182.21191
162.63921 1096.6952 182.21191
168.06042 1096.6952 182.21191
173.48186 1096.6952 182.21191
180.52318 1086.5229 208.31177
185.9937 1086.5229 208.31177
193.24364 1075.9873 235.34448
198.7648 1075.9873 235.34448
204.28618 1075.9873 235.34448
209.80733 1075.9873 235.34448
215.3287 1075.9873 235.34448
220.84987 1075.9873 235.34448
226.37105 1075.9873 235.34448
231.89241 1075.9873 235.34448
237.41357 1075.9873 235.34448
242.93494 1075.9873 235.34448
248.45612 1075.9873 235.34448
253.97728 1075.9873 235.34448
259.49866 1075.9873 235.34448
267.46045 1065.4518 262.37671
273.03268 1065.4518 262.37671
278.60468 1065.4518 262.37671
284.17667 1065.4518 262.37671
287.10489 1075.9873 235.34448
292.62604 1075.9873 235.34448
298.14743 1075.9873 235.34448
300.87201 1086.5229 208.31177
306.34235 1086.5229 208.31177
-231.00513 1101.9221 154.01245
-225.63301 1101.9221 154.01245
-222.27361 1091.7048 180.09351
-216.85228 1091.7048 180.09351
-211.43095 1091.7048 180.09351
-206.00961 1091.7048 180.09351
-200.58839 1091.7048 180.09351
-195.16707 1091.7048 180.09351
-189.74574 1091.7048 180.09351
-184.32442 1091.7048 180.09351
-177.283 1101.9221 154.01245
-171.91087 1101.9221 154.01245
-166.53865 1101.9221 154.01245
-159.7462 1111.7748 128.86279
-154.42131 1111.7748 128.86279
-149.09642 1111.7748 128.86279
-143.77162 1111.7748 128.86279
-138.44673 1111.7748 128.86279
-131.93834 1121.6272 103.71338
-126.66079 1121.6272 103.71338
-121.38322 1121.6272 103.71338
-116.10578 1121.6272 103.71338
-110.82822 1121.6272 103.71338
-105.55067 1121.6272 103.71338
-100.27312 1121.6272 103.71338
-94.99556 1121.6272 103.71338
-89.718109 1121.6272 103.71338
-84.440552 1121.6272 103.71338
-79.163002 1121.6272 103.71338
-73.885452 1121.6272 103.71338
-68.607895 1121.6272 103.71338
-62.783401 1131.1149 79.495117
-57.551434 1131.1149 79.495117
-52.775333 1121.6272 103.71338
-47.49778 1121.6272 103.71338
-42.22023 1121.6272 103.71338
-36.942772 1121.6272 103.71338
-31.66522 1121.6272 103.71338
-26.387667 1121.6272 103.71338
-21.110115 1121.6272 103.71338
-15.97458 1111.7748 128.86279
-10.649788 1111.7748 128.86279
-5.324894 1111.7748 128.86279
0 1111.7748 128.86279
5.3247924 1111.7748 128.86279
10.649788 1111.7748 128.86279
15.97458 1111.7748 128.86279
21.299576 1111.7748 128.86279
26.624367 1111.7748 128.86279
31.94916 1111.7748 128.86279
37.274155 1111.7748 128.86279
42.598946 1111.7748 128.86279
47.923943 1111.7748 128.86279
53.248734 1111.7748 128.86279
58.573528 1111.7748 128.86279
63.898525 1111.7748 128.86279
69.223312 1111.7748 128.86279
74.548309 1111.7748 128.86279
79.8731 1111.7748 128.86279
85.197891 1111.7748 128.86279
90.522888 1111.7748 128.86279
95.847679 1111.7748 128.86279
101.17268 1111.7748 128.86279
106.49747 1111.7748 128.86279
111.82227 1111.7748 128.86279
117.14725 1111.7748 128.86279
122.47205 1111.7748 128.86279
127.79705 1111.7748 128.86279
133.12184 1111.7748 128.86279
138.44662 1111.7748 128.86279
145.04982 1101.9221 154.01245
150.42194 1101.9221 154.01245
157.21799 1091.7048 180.09351
162.63921 1091.7048 180.09351
168.06042 1091.7048 180.09351
173.48186 1091.7048 180.09351
180.52318 1081.4874 206.17432
185.9937 1081.4874 206.17432
193.24364 1070.905 233.18701
198.7648 1070.905 233.18701
204.28618 1070.905 233.18701
209.80733 1070.905 233.18701
215.3287 1070.905 233.18701
220.84987 1070.905 233.18701
226.37105 1070.905 233.18701
231.89241 1070.905 233.18701
237.41357 1070.905 233.18701
242.93494 1070.905 233.18701
248.45612 1070.905 233.18701
253.97728 1070.905 233.18701
259.49866 1070.905 233.18701
265.01981 1070.905 233.18701
273.03268 1060.3228 260.19946
278.60468 1060.3228 260.19946
284.17667 1060.3228 260.19946
289.7489 1060.3228 260.19946
295.32092 1060.3228 260.19946
298.14743 1070.905 233.18701
300.87201 1081.4874 206.17432
306.34235 1081.4874 206.17432
-231.00513 1096.9771 151.91333
-225.63301 1096.9771 151.91333
-222.27361 1086.7145 177.97534
-216.85228 1086.7145 177.97534
-211.43095 1086.7145 177.97534
-207.87517 1076.4519 204.03687
-200.58839 1086.7145 177.97534
-195.16707 1086.7145 177.97534
-189.74574 1086.7145 177.97534
-184.32442 1086.7145 177.97534
-178.90309 1086.7145 177.97534
-171.91087 1096.9771 151.91333
-166.53865 1096.9771 151.91333
-161.16641 1096.9771 151.91333
-154.42131 1106.8732 126.78223
-149.09642 1106.8732 126.78223
-143.77162 1106.8732 126.78223
-138.44673 1106.8732 126.78223
-131.93834 1116.7692 101.65112
-126.66079 1116.7692 101.65112
-121.38322 1116.7692 101.65112
-116.10578 1116.7692 101.65112
-110.82822 1116.7692 101.65112
-105.55067 1116.7692 101.65112
-100.27312 1116.7692 101.65112
-94.99556 1116.7692 101.65112
-89.718109 1116.7692 101.65112
-84.440552 1116.7692 101.65112
-79.163002 1116.7692 101.65112
-73.885452 1116.7692 101.65112
-68.607895 1116.7692 101.65112
-62.783401 1126.2988 77.450928
-57.551434 1126.2988 77.450928
-52.775333 1116.7692 101.65112
-47.49778 1116.7692 101.65112
-42.22023 1116.7692 101.65112
-36.942772 1116.7692 101.65112
-31.66522 1116.7692 101.65112
-26.387667 1116.7692 101.65112
-21.110115 1116.7692 101.65112
-15.97458 1106.8732 126.78223
-10.649788 1106.8732 126.78223
-5.324894 1106.8732 126.78223
0 1106.8732 126.78223
5.3247924 1106.8732 126.78223
10.649788 1106.8732 126.78223
15.97458 1106.8732 126.78223
21.299576 1106.8732 126.78223
26.624367 1106.8732 126.78223
31.94916 1106.8732 126.78223
37.274155 1106.8732 126.78223
42.598946 1106.8732 126.78223
47.923943 1106.8732 126.78223
53.248734 1106.8732 126.78223
58.573528 1106.8732 126.78223
63.898525 1106.8732 126.78223
69.223312 1106.8732 126.78223
74.548309 1106.8732 126.78223
79.8731 1106.8732 126.78223
85.197891 1106.8732 126.78223
90.522888 1106.8732 126.78223
95.847679 1106.8732 126.78223
101.17268 1106.8732 126.78223
106.49747 1106.8732 126.78223
111.82227 1106.8732 126.78223
117.14725 1106.8732 126.78223
122.47205 1106.8732 126.78223
128.9332 1096.9771 151.91333
134.30534 1096.9771 151.91333
139.67747 1096.9771 151.91333
145.04982 1096.9771 151.91333
150.42194 1096.9771 151.91333
157.21799 1086.7145 177.97534
162.63921 1086.7145 177.97534
168.06042 1086.7145 177.97534
173.48186 1086.7145 177.97534
180.52318 1076.4519 204.03687
185.9937 1076.4519 204.03687
193.24364 1065.8226 231.02979
198.7648 1065.8226 231.02979
204.28618 1065.8226 231.02979
209.80733 1065.8226 231.02979
215.3287 1065.8226 231.02979
220.84987 1065.8226 231.02979
226.37105 1065.8226 231.02979
231.89241 1065.8226 231.02979
237.41357 1065.8226 231.02979
242.93494 1065.8226 231.02979
248.45612 1065.8226 231.02979
253.97728 1065.8226 231.02979
259.49866 1065.8226 231.02979
265.01981 1065.8226 231.02979
273.03268 1055.1936 258.02246
278.60468 1055.1936 258.02246
284.17667 1055.1936 258.02246
289.7489 1055.1936 258.02246
295.32092 1055.1936 258.02246
298.14743 1065.8226 231.02979
300.87201 1076.4519 204.03687
306.34235 1076.4519 204.03687
-233.11615 1081.7241 175.85693
-227.69493 1081.7241 175.85693
-222.27361 1081.7241 175.85693
-216.85228 1081.7241 175.85693
-211.43095 1081.7241 175.85693
-207.87517 1071.4164 201.89941
-200.58839 1081.7241 175.85693
-195.16707 1081.7241 175.85693
-189.74574 1081.7241 175.85693
-184.32442 1081.7241 175.85693
-178.90309 1081.7241 175.85693
-171.91087 1092.0319 149.81421
-166.53865 1092.0319 149.81421
-159.7462 1101.9717 124.70166
-154.42131 1101.9717 124.70166
-149.09642 1101.9717 124.70166
-143.77162 1101.9717 124.70166
-137.21588 1111.9113 99.589111
-131.93834 1111.9113 99.589111
-126.66079 1111.9113 99.589111
-121.38322 1111.9113 99.589111
-116.10578 1111.9113 99.589111
-110.82822 1111.9113 99.589111
-105.55067 1111.9113 99.589111
-100.27312 1111.9113 99.589111
-94.99556 1111.9113 99.589111
-89.718109 1111.9113 99.589111
-84.440552 1111.9113 99.589111
-79.163002 1111.9113 99.589111
-73.885452 1111.9113 99.589111
-68.607895 1111.9113 99.589111
-63.330441 1111.9113 99.589111
-58.052891 1111.9113 99.589111
-52.775333 1111.9113 99.589111
-47.49778 1111.9113 99.589111
-42.22023 1111.9113 99.589111
-36.942772 1111.9113 99.589111
-31.66522 1111.9113 99.589111
-26.387667 1111.9113 99.589111
-21.110115 1111.9113 99.589111
-15.97458 1101.9717 124.70166
-10.649788 1101.9717 124.70166
-5.324894 1101.9717 124.70166
0 1101.9717 124.70166
5.3247924 1101.9717 124.70166
10.649788 1101.9717 124.70166
15.97458 1101.9717 124.70166
21.299576 1101.9717 124.70166
26.624367 1101.9717 124.70166
31.94916 1101.9717 124.70166
37.274155 1101.9717 124.70166
42.598946 1101.9717 124.70166
47.923943 1101.9717 124.70166
53.248734 1101.9717 124.70166
58.573528 1101.9717 124.70166
63.898525 1101.9717 124.70166
69.223312 1101.9717 124.70166
74.548309 1101.9717 124.70166
79.8731 1101.9717 124.70166
85.197891 1101.9717 124.70166
90.522888 1101.9717 124.70166
95.847679 1101.9717 124.70166
101.17268 1101.9717 124.70166
106.49747 1101.9717 124.70166
111.82227 1101.9717 124.70166
117.14725 1101.9717 124.70166
122.47205 1101.9717 124.70166
128.9332 1092.0319 149.81421
134.30534 1092.0319 149.81421
139.67747 1092.0319 149.81421
145.04982 1092.0319 149.81421
150.42194 1092.0319 149.81421
157.21799 1081.7241 175.85693
162.63921 1081.7241 175.85693
168.06042 1081.7241 175.85693
175.05284 1071.4164 201.89941
180.52318 1071.4164 201.89941
187.72247 1060.7404 228.87256
193.24364 1060.7404 228.87256
198.7648 1060.7404 228.87256
204.28618 1060.7404 228.87256
209.80733 1060.7404 228.87256
215.3287 1060.7404 228.87256
220.84987 1060.7404 228.87256
226.37105 1060.7404 228.87256
231.89241 1060.7404 228.87256
237.41357 1060.7404 228.87256
242.93494 1060.7404 228.87256
248.45612 1060.7404 228.87256
253.97728 1060.7404 228.87256
259.49866 1060.7404 228.87256
265.01981 1060.7404 228.87256
273.03268 1050.0645 255.84521
278.60468 1050.0645 255.84521
281.58353 1060.7404 228.87256
287.10489 1060.7404 228.87256
295.32092 1050.0645 255.84521
300.89313 1050.0645 255.84521
303.66858 1060.7404 228.87256
306.34235 1071.4164 201.89941
311.81284 1071.4164 201.89941
-233.11615 1076.7338 173.73877
-227.69493 1076.7338 173.73877
-222.27361 1076.7338 173.73877
-216.85228 1076.7338 173.73877
-211.43095 1076.7338 173.73877
-207.87517 1066.3809 199.76196
-202.40485 1066.3809 199.76196
-195.16707 1076.7338 173.73877
-189.74574 1076.7338 173.73877
-184.32442 1076.7338 173.73877
-178.90309 1076.7338 173.73877
-171.91087 1087.0868 147.71509
-166.53865 1087.0868 147.71509
-159.7462 1097.0701 122.62085
-154.42131 1097.0701 122.62085
-149.09642 1097.0701 122.62085
-143.77162 1097.0701 122.62085
-137.21588 1107.0532 97.5271
-131.93834 1107.0532 97.5271
-126.66079 1107.0532 97.5271
-121.38322 1107.0532 97.5271
-116.10578 1107.0532 97.5271
-110.82822 1107.0532 97.5271
-105.55067 1107.0532 97.5271
-100.27312 1107.0532 97.5271
-94.99556 1107.0532 97.5271
-89.718109 1107.0532 97.5271
-84.440552 1107.0532 97.5271
-79.163002 1107.0532 97.5271
-73.885452 1107.0532 97.5271
-68.607895 1107.0532 97.5271
-63.330441 1107.0532 97.5271
-58.052891 1107.0532 97.5271
-52.775333 1107.0532 97.5271
-47.49778 1107.0532 97.5271
-42.22023 1107.0532 97.5271
-36.942772 1107.0532 97.5271
-31.66522 1107.0532 97.5271
-26.387667 1107.0532 97.5271
-21.110115 1107.0532 97.5271
-15.97458 1097.0701 122.62085
-10.649788 1097.0701 122.62085
-5.324894 1097.0701 122.62085
0 1097.0701 122.62085
5.3247924 1097.0701 122.62085
10.649788 1097.0701 122.62085
15.97458 1097.0701 122.62085
21.299576 1097.0701 122.62085
26.624367 1097.0701 122.62085
31.94916 1097.0701 122.62085
37.274155 1097.0701 122.62085
42.598946 1097.0701 122.62085
47.923943 1097.0701 122.62085
53.248734 1097.0701 122.62085
58.573528 1097.0701 122.62085
63.898525 1097.0701 122.62085
69.223312 1097.0701 122.62085
74.548309 1097.0701 122.62085
79.8731 1097.0701 122.62085
85.197891 1097.0701 122.62085
90.522888 1097.0701 122.62085
95.847679 1097.0701 122.62085
101.17268 1097.0701 122.62085
106.49747 1097.0701 122.62085
111.82227 1097.0701 122.62085
117.14725 1097.0701 122.62085
123.56087 1087.0868 147.71509
128.9332 1087.0868 147.71509
134.30534 1087.0868 147.71509
139.67747 1087.0868 147.71509
145.04982 1087.0868 147.71509
151.79655 1076.7338 173.73877
157.21799 1076.7338 173.73877
162.63921 1076.7338 173.73877
168.06042 1076.7338 173.73877
175.05284 1066.3809 199.76196
180.52318 1066.3809 199.76196
185.9937 1066.3809 199.76196
193.24364 1055.658 226.71509
198.7648 1055.658 226.71509
204.28618 1055.658 226.71509
209.80733 1055.658 226.71509
215.3287 1055.658 226.71509
220.84987 1055.658 226.71509
226.37105 1055.658 226.71509
231.89241 1055.658 226.71509
237.41357 1055.658 226.71509
242.93494 1055.658 226.71509
248.45612 1055.658 226.71509
253.97728 1055.658 226.71509
259.49866 1055.658 226.71509
265.01981 1055.658 226.71509
270.54117 1055.658 226.71509
276.06235 1055.658 226.71509
281.58353 1055.658 226.71509
287.10489 1055.658 226.71509
295.32092 1044.9353 253.66797
300.89313 1044.9353 253.66797
303.66858 1055.658 226.71509
306.34235 1066.3809 199.76196
311.81284 1066.3809 199.76196
-233.11615 1071.7434 171.62036
-227.69493 1071.7434 171.62036
-222.27361 1071.7434 171.62036
-216.85228 1071.7434 171.62036
-211.43095 1071.7434 171.62036
-207.87517 1061.3453 197.62451
-202.40485 1061.3453 197.62451
-196.93442 1061.3453 197.62451
-189.74574 1071.7434 171.62036
-184.32442 1071.7434 171.62036
-178.90309 1071.7434 171.62036
-171.91087 1082.1416 145.61621
-166.53865 1082.1416 145.61621
-159.7462 1092.1685 120.54028
-154.42131 1092.1685 120.54028
-149.09642 1092.1685 120.54028
-143.77162 1092.1685 120.54028
-137.21588 1102.1952 95.464844
-131.93834 1102.1952 95.464844
-126.66079 1102.1952 95.464844
-121.38322 1102.1952 95.464844
-116.10578 1102.1952 95.464844
-110.82822 1102.1952 95.464844
-105.55067 1102.1952 95.464844
-100.27312 1102.1952 95.464844
-94.99556 1102.1952 95.464844
-89.718109 1102.1952 95.464844
-84.440552 1102.1952 95.464844
-79.163002 1102.1952 95.464844
-73.885452 1102.1952 95.464844
-68.607895 1102.1952 95.464844
-63.330441 1102.1952 95.464844
-58.052891 1102.1952 95.464844
-52.775333 1102.1952 95.464844
-47.49778 1102.1952 95.464844
-42.22023 1102.1952 95.464844
-36.942772 1102.1952 95.464844
-31.66522 1102.1952 95.464844
-26.387667 1102.1952 95.464844
-21.110115 1102.1952 95.464844
-15.97458 1092.1685 120.54028
-10.649788 1092.1685 120.54028
-5.324894 1092.1685 120.54028
0 1092.1685 120.54028
5.3247924 1092.1685 120.54028
10.649788 1092.1685 120.54028
15.97458 1092.1685 120.54028
21.299576 1092.1685 120.54028
26.624367 1092.1685 120.54028
31.94916 1092.1685 120.54028
37.274155 1092.1685 120.54028
42.598946 1092.1685 120.54028
47.923943 1092.1685 120.54028
53.248734 1092.1685 120.54028
58.573528 1092.1685 120.54028
63.898525 1092.1685 120.54028
69.223312 1092.1685 120.54028
74.548309 1092.1685 120.54028
79.8731 1092.1685 120.54028
85.197891 1092.1685 120.54028
90.522888 1092.1685 120.54028
95.847679 1092.1685 120.54028
101.17268 1092.1685 120.54028
106.49747 1092.1685 120.54028
111.82227 1092.1685 120.54028
117.14725 1092.1685 120.54028
123.56087 1082.1416 145.61621
128.9332 1082.1416 145.61621
134.30534 1082.1416 145.61621
139.67747 1082.1416 145.61621
145.04982 1082.1416 145.61621
151.79655 1071.7434 171.62036
157.21799 1071.7434 171.62036
162.63921 1071.7434 171.62036
168.06042 1071.7434 171.62036
175.05284 1061.3453 197.62451
180.52318 1061.3453 197.62451
185.9937 1061.3453 197.62451
191.464 1061.3453 197.62451
198.7648 1050.5757 224.55786
204.28618 1050.5757 224.55786
209.80733 1050.5757 224.55786
215.3287 1050.5757 224.55786
220.84987 1050.5757 224.55786
226.37105 1050.5757 224.55786
231.89241 1050.5757 224.55786
237.41357 1050.5757 224.55786
242.93494 1050.5757 224.55786
248.45612 1050.5757 224.55786
253.97728 1050.5757 224.55786
259.49866 1050.5757 224.55786
265.01981 1050.5757 224.55786
270.54117 1050.5757 224.55786
276.06235 1050.5757 224.55786
284.17667 1039.8062 251.49072
289.7489 1039.8062 251.49072
295.32092 1039.8062 251.49072
300.89313 1039.8062 251.49072
303.66858 1050.5757 224.55786
306.34235 1061.3453 197.62451
311.81284 1061.3453 197.62451
-233.11615 1066.7532 169.5022
-227.69493 1066.7532 169.5022
-222.27361 1066.7532 169.5022
-216.85228 1066.7532 169.5022
-211.43095 1066.7532 169.5022
-207.87517 1056.3098 195.48706
-202.40485 1056.3098 195.48706
-196.93442 1056.3098 195.48706
-189.74574 1066.7532 169.5022
-184.32442 1066.7532 169.5022
-178.90309 1066.7532 169.5022
-171.91087 1077.1964 143.51709
-166.53865 1077.1964 143.51709
-159.7462 1087.267 118.45972
-154.42131 1087.267 118.45972
-149.09642 1087.267 118.45972
-143.77162 1087.267 118.45972
-137.21588 1097.3373 93.402832
-131.93834 1097.3373 93.402832
-126.66079 1097.3373 93.402832
-121.38322 1097.3373 93.402832
-116.10578 1097.3373 93.402832
-110.82822 1097.3373 93.402832
-105.55067 1097.3373 93.402832
-100.27312 1097.3373 93.402832
-94.99556 1097.3373 93.402832
-89.718109 1097.3373 93.402832
-84.440552 1097.3373 93.402832
-79.163002 1097.3373 93.402832
-73.885452 1097.3373 93.402832
-68.607895 1097.3373 93.402832
-63.330441 1097.3373 93.402832
-58.052891 1097.3373 93.402832
-52.775333 1097.3373 93.402832
-47.49778 1097.3373 93.402832
-42.22023 1097.3373 93.402832
-36.942772 1097.3373 93.402832
-31.66522 1097.3373 93.402832
-26.387667 1097.3373 93.402832
-21.110115 1097.3373 93.402832
-15.97458 1087.267 118.45972
-10.649788 1087.267 118.45972
-5.324894 1087.267 118.45972
0 1087.267 118.45972
5.3247924 1087.267 118.45972
10.649788 1087.267 118.45972
15.97458 1087.267 118.45972
21.299576 1087.267 118.45972
26.624367 1087.267 118.45972
31.94916 1087.267 118.45972
37.274155 1087.267 118.45972
42.598946 1087.267 118.45972
47.923943 1087.267 118.45972
53.248734 1087.267 118.45972
58.573528 1087.267 118.45972
63.898525 1087.267 118.45972
69.223312 1087.267 118.45972
74.548309 1087.267 118.45972
79.8731 1087.267 118.45972
85.197891 1087.267 118.45972
90.522888 1087.267 118.45972
95.847679 1087.267 118.45972
101.17268 1087.267 118.45972
106.49747 1087.267 118.45972
111.82227 1087.267 118.45972
117.14725 1087.267 118.45972
123.56087 1077.1964 143.51709
128.9332 1077.1964 143.51709
134.30534 1077.1964 143.51709
139.67747 1077.1964 143.51709
146.37532 1066.7532 169.5022
151.79655 1066.7532 169.5022
157.21799 1066.7532 169.5022
162.63921 1066.7532 169.5022
168.06042 1066.7532 169.5022
175.05284 1056.3098 195.48706
180.52318 1056.3098 195.48706
185.9937 1056.3098 195.48706
191.464 1056.3098 195.48706
198.7648 1045.4934 222.40039
204.28618 1045.4934 222.40039
209.80733 1045.4934 222.40039
215.3287 1045.4934 222.40039
220.84987 1045.4934 222.40039
226.37105 1045.4934 222.40039
231.89241 1045.4934 222.40039
237.41357 1045.4934 222.40039
242.93494 1045.4934 222.40039
248.45612 1045.4934 222.40039
253.97728 1045.4934 222.40039
259.49866 1045.4934 222.40039
265.01981 1045.4934 222.40039
270.54117 1045.4934 222.40039
276.06235 1045.4934 222.40039
281.58353 1045.4934 222.40039
289.7489 1034.677 249.31372
295.32092 1034.677 249.31372
300.89313 1034.677 249.31372
306.46515 1034.677 249.31372
309.18973 1045.4934 222.40039
314.71112 1045.4934 222.40039
320.23227 1045.4934 222.40039
-233.11615 1061.7628 167.38403
-227.69493 1061.7628 167.38403
-222.27361 1061.7628 167.38403
-216.85228 1061.7628 167.38403
-211.43095 1061.7628 167.38403
-206.00961 1061.7628 167.38403
-200.58839 1061.7628 167.38403
-195.16707 1061.7628 167.38403
-189.74574 1061.7628 167.38403
-184.32442 1061.7628 167.38403
-178.90309 1061.7628 167.38403
-171.91087 1072.2513 141.41797
-166.53865 1072.2513 141.41797
-161.16641 1072.2513 141.41797
-154.42131 1082.3654 116.37915
-149.09642 1082.3654 116.37915
-143.77162 1082.3654 116.37915
-137.21588 1092.4792 91.34082
-131.93834 1092.4792 91.34082
-127.79694 1082.3654 116.37915
-122.47205 1082.3654 116.37915
-117.14725 1082.3654 116.37915
-111.82236 1082.3654 116.37915
-106.49747 1082.3654 116.37915
-101.17258 1082.3654 116.37915
-95.847679 1082.3654 116.37915
-89.718109 1092.4792 91.34082
-84.440552 1092.4792 91.34082
-79.163002 1092.4792 91.34082
-73.885452 1092.4792 91.34082
-68.607895 1092.4792 91.34082
-63.330441 1092.4792 91.34082
-58.052891 1092.4792 91.34082
-52.775333 1092.4792 91.34082
-47.49778 1092.4792 91.34082
-42.22023 1092.4792 91.34082
-36.942772 1092.4792 91.34082
-31.66522 1092.4792 91.34082
-26.624367 1082.3654 116.37915
-21.299473 1082.3654 116.37915
-15.97458 1082.3654 116.37915
-10.649788 1082.3654 116.37915
-5.324894 1082.3654 116.37915
0 1082.3654 116.37915
5.3247924 1082.3654 116.37915
10.649788 1082.3654 116.37915
15.97458 1082.3654 116.37915
21.299576 1082.3654 116.37915
26.624367 1082.3654 116.37915
31.94916 1082.3654 116.37915
37.274155 1082.3654 116.37915
42.598946 1082.3654 116.37915
47.923943 1082.3654 116.37915
53.248734 1082.3654 116.37915
58.573528 1082.3654 116.37915
63.898525 1082.3654 116.37915
69.223312 1082.3654 116.37915
74.548309 1082.3654 116.37915
79.8731 1082.3654 116.37915
85.197891 1082.3654 116.37915
90.522888 1082.3654 116.37915
95.847679 1082.3654 116.37915
101.17268 1082.3654 116.37915
106.49747 1082.3654 116.37915
112.81641 1072.2513 141.41797
118.18874 1072.2513 141.41797
123.56087 1072.2513 141.41797
128.9332 1072.2513 141.41797
134.30534 1072.2513 141.41797
140.9539 1061.7628 167.38403
146.37532 1061.7628 167.38403
151.79655 1061.7628 167.38403
157.21799 1061.7628 167.38403
162.63921 1061.7628 167.38403
168.06042 1061.7628 167.38403
175.05284 1051.2743 193.34961
180.52318 1051.2743 193.34961
185.9937 1051.2743 193.34961
191.464 1051.2743 193.34961
198.7648 1040.411 220.24316
204.28618 1040.411 220.24316
209.80733 1040.411 220.24316
215.3287 1040.411 220.24316
220.84987 1040.411 220.24316
226.37105 1040.411 220.24316
231.89241 1040.411 220.24316
237.41357 1040.411 220.24316
242.93494 1040.411 220.24316
248.45612 1040.411 220.24316
253.97728 1040.411 220.24316
259.49866 1040.411 220.24316
265.01981 1040.411 220.24316
270.54117 1040.411 220.24316
276.06235 1040.411 220.24316
281.58353 1040.411 220.24316
289.7489 1029.5479 247.13647
295.32092 1029.5479 247.13647
300.89313 1029.5479 247.13647
306.46515 1029.5479 247.13647
309.18973 1040.411 220.24316
314.71112 1040.411 220.24316
320.23227 1040.411 220.24316
-243.9588 1056.7725 165.26562
-238.53748 1056.7725 165.26562
-233.11615 1056.7725 165.26562
-227.69493 1056.7725 165.26562
-222.27361 1056.7725 165.26562
-216.85228 1056.7725 165.26562
-211.43095 1056.7725 165.26562
-206.00961 1056.7725 165.26562
-200.58839 1056.7725 165.26562
-195.16707 1056.7725 165.26562
-189.74574 1056.7725 165.26562
-184.32442 1056.7725 165.26562
-178.90309 1056.7725 165.26562
-173.48186 1056.7725 165.26562
-166.53865 1067.3062 139.31885
-161.16641 1067.3062 139.31885
-155.79417 1067.3062 139.31885
-149.09642 1077.4637 114.29858
-143.77162 1077.4637 114.29858
-138.44673 1077.4637 114.29858
-133.12184 1077.4637 114.29858
-127.79694 1077.4637 114.29858
-122.47205 1077.4637 114.29858
-117.14725 1077.4637 114.29858
-111.82236 1077.4637 114.29858
-107.44427 1067.3062 139.31885
-102.07204 1067.3062 139.31885
-95.847679 1077.4637 114.29858
-90.522888 1077.4637 114.29858
-84.440552 1087.6213 89.278564
-79.163002 1087.6213 89.278564
-73.885452 1087.6213 89.278564
-68.607895 1087.6213 89.278564
-63.330441 1087.6213 89.278564
-58.052891 1087.6213 89.278564
-52.775333 1087.6213 89.278564
-47.49778 1087.6213 89.278564
-42.22023 1087.6213 89.278564
-36.942772 1087.6213 89.278564
-31.66522 1087.6213 89.278564
-26.624367 1077.4637 114.29858
-21.299473 1077.4637 114.29858
-15.97458 1077.4637 114.29858
-10.649788 1077.4637 114.29858
-5.324894 1077.4637 114.29858
0 1077.4637 114.29858
5.3247924 1077.4637 114.29858
10.649788 1077.4637 114.29858
15.97458 1077.4637 114.29858
21.299576 1077.4637 114.29858
26.624367 1077.4637 114.29858
31.94916 1077.4637 114.29858
37.274155 1077.4637 114.29858
42.598946 1077.4637 114.29858
47.923943 1077.4637 114.29858
53.248734 1077.4637 114.29858
58.573528 1077.4637 114.29858
63.898525 1077.4637 114.29858
69.223312 1077.4637 114.29858
74.548309 1077.4637 114.29858
79.8731 1077.4637 114.29858
85.197891 1077.4637 114.29858
90.522888 1077.4637 114.29858
95.847679 1077.4637 114.29858
101.17268 1077.4637 114.29858
106.49747 1077.4637 114.29858
112.81641 1067.3062 139.31885
118.18874 1067.3062 139.31885
123.56087 1067.3062 139.31885
128.9332 1067.3062 139.31885
135.53267 1056.7725 165.26562
140.9539 1056.7725 165.26562
146.37532 1056.7725 165.26562
151.79655 1056.7725 165.26562
157.21799 1056.7725 165.26562
162.63921 1056.7725 165.26562
168.06042 1056.7725 165.26562
175.05284 1046.2388 191.21216
180.52318 1046.2388 191.21216
185.9937 1046.2388 191.21216
191.464 1046.2388 191.21216
198.7648 1035.3287 218.08594
204.28618 1035.3287 218.08594
209.80733 1035.3287 218.08594
215.3287 1035.3287 218.08594
220.84987 1035.3287 218.08594
226.37105 1035.3287 218.08594
231.89241 1035.3287 218.08594
237.41357 1035.3287 218.08594
242.93494 1035.3287 218.08594
248.45612 1035.3287 218.08594
253.97728 1035.3287 218.08594
259.49866 1035.3287 218.08594
265.01981 1035.3287 218.08594
270.54117 1035.3287 218.08594
276.06235 1035.3287 218.08594
281.58353 1035.3287 218.08594
289.7489 1024.4187 244.95923
295.32092 1024.4187 244.95923
300.89313 1024.4187 244.95923
309.35815 1013.1326 272.75952
314.98276 1013.1326 272.75952
317.60934 1024.4187 244.95923
323.1814 1024.4187 244.95923
-243.9588 1051.7821 163.14746
-236.37737 1062.3611 137.21973
-231.00513 1062.3611 137.21973
-227.69493 1051.7821 163.14746
-222.27361 1051.7821 163.14746
-216.85228 1051.7821 163.14746
-211.43095 1051.7821 163.14746
-206.00961 1051.7821 163.14746
-200.58839 1051.7821 163.14746
-195.16707 1051.7821 163.14746
-189.74574 1051.7821 163.14746
-184.32442 1051.7821 163.14746
-178.90309 1051.7821 163.14746
-173.48186 1051.7821 163.14746
-166.53865 1062.3611 137.21973
-161.16641 1062.3611 137.21973
-155.79417 1062.3611 137.21973
-150.42194 1062.3611 137.21973
-143.77162 1072.5623 112.21802
-138.44673 1072.5623 112.21802
-133.12184 1072.5623 112.21802
-127.79694 1072.5623 112.21802
-122.47205 1072.5623 112.21802
-118.18874 1062.3611 137.21973
-112.81651 1062.3611 137.21973
-107.44427 1062.3611 137.21973
-102.07204 1062.3611 137.21973
-96.699806 1062.3611 137.21973
-90.522888 1072.5623 112.21802
-84.440552 1082.7633 87.216553
-79.163002 1082.7633 87.216553
-73.885452 1082.7633 87.216553
-68.607895 1082.7633 87.216553
-63.330441 1082.7633 87.216553
-58.052891 1082.7633 87.216553
-52.775333 1082.7633 87.216553
-47.49778 1082.7633 87.216553
-42.22023 1082.7633 87.216553
-36.942772 1082.7633 87.216553
-31.66522 1082.7633 87.216553
-26.624367 1072.5623 112.21802
-21.299473 1072.5623 112.21802
-15.97458 1072.5623 112.21802
-10.649788 1072.5623 112.21802
-5.324894 1072.5623 112.21802
0 1072.5623 112.21802
5.3247924 1072.5623 112.21802
10.649788 1072.5623 112.21802
15.97458 1072.5623 112.21802
21.299576 1072.5623 112.21802
26.624367 1072.5623 112.21802
31.94916 1072.5623 112.21802
37.274155 1072.5623 112.21802
42.598946 1072.5623 112.21802
47.923943 1072.5623 112.21802
53.248734 1072.5623 112.21802
58.573528 1072.5623 112.21802
63.898525 1072.5623 112.21802
69.223312 1072.5623 112.21802
74.548309 1072.5623 112.21802
79.8731 1072.5623 112.21802
85.197891 1072.5623 112.21802
90.522888 1072.5623 112.21802
95.847679 1072.5623 112.21802
101.17268 1072.5623 112.21802
106.49747 1072.5623 112.21802
112.81641 1062.3611 137.21973
118.18874 1062.3611 137.21973
123.56087 1062.3611 137.21973
128.9332 1062.3611 137.21973
135.53267 1051.7821 163.14746
140.9539 1051.7821 163.14746
146.37532 1051.7821 163.14746
151.79655 1051.7821 163.14746
157.21799 1051.7821 163.14746
162.63921 1051.7821 163.14746
168.06042 1051.7821 163.14746
175.05284 1041.2032 189.07471
180.52318 1041.2032 189.07471
185.9937 1041.2032 189.07471
191.464 1041.2032 189.07471
198.7648 1030.2463 215.92847
204.28618 1030.2463 215.92847
209.80733 1030.2463 215.92847
215.3287 1030.2463 215.92847
220.84987 1030.2463 215.92847
226.37105 1030.2463 215.92847
231.89241 1030.2463 215.92847
237.41357 1030.2463 215.92847
242.93494 1030.2463 215.92847
248.45612 1030.2463 215.92847
253.97728 1030.2463 215.92847
259.49866 1030.2463 215.92847
265.01981 1030.2463 215.92847
270.54117 1030.2463 215.92847
276.06235 1030.2463 215.92847
284.17667 1019.2897 242.78198
289.7489 1019.2897 242.78198
295.32092 1019.2897 242.78198
300.89313 1019.2897 242.78198
309.35815 1007.9551 270.56177
314.98276 1007.9551 270.56177
323.60577 996.62048 298.34106
329.28299 996.62048 298.34106
-243.9588 1046.7917 161.02905
-236.37737 1057.4158 135.12061
-231.00513 1057.4158 135.12061
-227.69493 1046.7917 161.02905
-222.27361 1046.7917 161.02905
-216.85228 1046.7917 161.02905
-211.43095 1046.7917 161.02905
-206.00961 1046.7917 161.02905
-200.58839 1046.7917 161.02905
-195.16707 1046.7917 161.02905
-189.74574 1046.7917 161.02905
-184.32442 1046.7917 161.02905
-178.90309 1046.7917 161.02905
-173.48186 1046.7917 161.02905
-168.06053 1046.7917 161.02905
-161.16641 1057.4158 135.12061
-155.79417 1057.4158 135.12061
-150.42194 1057.4158 135.12061
-143.77162 1067.6605 110.13745
-138.44673 1067.6605 110.13745
-133.12184 1067.6605 110.13745
-127.79694 1067.6605 110.13745
-122.47205 1067.6605 110.13745
-118.18874 1057.4158 135.12061
-112.81651 1057.4158 135.12061
-107.44427 1057.4158 135.12061
-102.07204 1057.4158 135.12061
-96.699806 1057.4158 135.12061
-91.327667 1057.4158 135.12061
-85.197998 1067.6605 110.13745
-79.163002 1077.9053 85.154297
-73.885452 1077.9053 85.154297
-68.607895 1077.9053 85.154297
-63.330441 1077.9053 85.154297
-58.052891 1077.9053 85.154297
-52.775333 1077.9053 85.154297
-47.49778 1077.9053 85.154297
-42.22023 1077.9053 85.154297
-36.942772 1077.9053 85.154297
-31.66522 1077.9053 85.154297
-26.624367 1067.6605 110.13745
-21.299473 1067.6605 110.13745
-15.97458 1067.6605 110.13745
-10.649788 1067.6605 110.13745
-5.324894 1067.6605 110.13745
0 1067.6605 110.13745
5.3247924 1067.6605 110.13745
10.649788 1067.6605 110.13745
15.97458 1067.6605 110.13745
21.299576 1067.6605 110.13745
26.624367 1067.6605 110.13745
31.94916 1067.6605 110.13745
37.274155 1067.6605 110.13745
42.598946 1067.6605 110.13745
47.923943 1067.6605 110.13745
53.248734 1067.6605 110.13745
58.573528 1067.6605 110.13745
63.898525 1067.6605 110.13745
69.223312 1067.6605 110.13745
74.548309 1067.6605 110.13745
79.8731 1067.6605 110.13745
85.197891 1067.6605 110.13745
90.522888 1067.6605 110.13745
95.847679 1067.6605 110.13745
101.17268 1067.6605 110.13745
106.49747 1067.6605 110.13745
112.81641 1057.4158 135.12061
118.18874 1057.4158 135.12061
123.56087 1057.4158 135.12061
128.9332 1057.4158 135.12061
135.53267 1046.7917 161.02905
140.9539 1046.7917 161.02905
146.37532 1046.7917 161.02905
151.79655 1046.7917 161.02905
157.21799 1046.7917 161.02905
162.63921 1046.7917 161.02905
168.06042 1046.7917 161.02905
173.48186 1046.7917 161.02905
178.90309 1046.7917 161.02905
185.9937 1036.1676 186.93726
191.464 1036.1676 186.93726
198.7648 1025.1639 213.77124
204.28618 1025.1639 213.77124
209.80733 1025.1639 213.77124
215.3287 1025.1639 213.77124
220.84987 1025.1639 213.77124
226.37105 1025.1639 213.77124
231.89241 1025.1639 213.77124
237.41357 1025.1639 213.77124
242.93494 1025.1639 213.77124
248.45612 1025.1639 213.77124
253.97728 1025.1639 213.77124
259.49866 1025.1639 213.77124
265.01981 1025.1639 213.77124
270.54117 1025.1639 213.77124
276.06235 1025.1639 213.77124
284.17667 1014.1604 240.60474
289.7489 1014.1604 240.60474
298.10873 1002.7775 268.36401
303.73355 1002.7775 268.36401
309.35815 1002.7775 268.36401
314.98276 1002.7775 268.36401
323.60577 991.39441 296.1228
329.28299 991.39441 296.1228
-241.7496 1052.4707 133.02148
-236.37737 1052.4707 133.02148
-231.00513 1052.4707 133.02148
-227.69493 1041.8014 158.91089
-222.27361 1041.8014 158.91089
-216.85228 1041.8014 158.91089
-211.43095 1041.8014 158.91089
-206.00961 1041.8014 158.91089
-200.58839 1041.8014 158.91089
-195.16707 1041.8014 158.91089
-189.74574 1041.8014 158.91089
-184.32442 1041.8014 158.91089
-178.90309 1041.8014 158.91089
-173.48186 1041.8014 158.91089
-168.06053 1041.8014 158.91089
-161.16641 1052.4707 133.02148
-155.79417 1052.4707 133.02148
-150.42194 1052.4707 133.02148
-143.77162 1062.759 108.05688
-138.44673 1062.759 108.05688
-133.12184 1062.759 108.05688
-127.79694 1062.759 108.05688
-122.47205 1062.759 108.05688
-118.18874 1052.4707 133.02148
-112.81651 1052.4707 133.02148
-107.44427 1052.4707 133.02148
-102.07204 1052.4707 133.02148
-96.699806 1052.4707 133.02148
-91.327667 1052.4707 133.02148
-85.197998 1062.759 108.05688
-79.163002 1073.0472 83.092285
-73.885452 1073.0472 83.092285
-68.607895 1073.0472 83.092285
-63.330441 1073.0472 83.092285
-58.052891 1073.0472 83.092285
-52.775333 1073.0472 83.092285
-47.49778 1073.0472 83.092285
-42.22023 1073.0472 83.092285
-36.942772 1073.0472 83.092285
-31.66522 1073.0472 83.092285
-26.624367 1062.759 108.05688
-21.299473 1062.759 108.05688
-15.97458 1062.759 108.05688
-10.649788 1062.759 108.05688
-5.324894 1062.759 108.05688
0 1062.759 108.05688
5.3247924 1062.759 108.05688
10.649788 1062.759 108.05688
15.97458 1062.759 108.05688
21.299576 1062.759 108.05688
26.624367 1062.759 108.05688
31.94916 1062.759 108.05688
37.274155 1062.759 108.05688
42.598946 1062.759 108.05688
47.923943 1062.759 108.05688
53.248734 1062.759 108.05688
58.573528 1062.759 108.05688
63.898525 1062.759 108.05688
69.223312 1062.759 108.05688
74.548309 1062.759 108.05688
79.8731 1062.759 108.05688
85.197891 1062.759 108.05688
90.522888 1062.759 108.05688
95.847679 1062.759 108.05688
101.17268 1062.759 108.05688
106.49747 1062.759 108.05688
112.81641 1052.4707 133.02148
118.18874 1052.4707 133.02148
123.56087 1052.4707 133.02148
128.9332 1052.4707 133.02148
135.53267 1041.8014 158.91089
140.9539 1041.8014 158.91089
145.04982 1052.4707 133.02148
150.42194 1052.4707 133.02148
157.21799 1041.8014 158.91089
162.63921 1041.8014 158.91089
168.06042 1041.8014 158.91089
173.48186 1041.8014 158.91089
178.90309 1041.8014 158.91089
185.9937 1031.1321 184.7998
191.464 1031.1321 184.7998
198.7648 1020.0817 211.61377
204.28618 1020.0817 211.61377
211.73952 1009.0312 238.42773
217.31174 1009.0312 238.42773
220.84987 1020.0817 211.61377
226.37105 1020.0817 211.61377
231.89241 1020.0817 211.61377
237.41357 1020.0817 211.61377
242.93494 1020.0817 211.61377
248.45612 1020.0817 211.61377
253.97728 1020.0817 211.61377
259.49866 1020.0817 211.61377
265.01981 1020.0817 211.61377
270.54117 1020.0817 211.61377
276.06235 1020.0817 211.61377
281.58353 1020.0817 211.61377
289.7489 1009.0312 238.42773
298.10873 997.59985 266.16626
303.73355 997.59985 266.16626
309.35815 997.59985 266.16626
317.92834 986.16846 293.90454
323.60577 986.16846 293.90454
329.28299 986.16846 293.90454
334.96042 986.16846 293.90454
-239.61931 1057.8574 105.97632
-234.29442 1057.8574 105.97632
-231.00513 1047.5255 130.92236
-227.69493 1036.811 156.79248
-222.27361 1036.811 156.79248
-216.85228 1036.811 156.79248
-211.43095 1036.811 156.79248
-206.00961 1036.811 156.79248
-200.58839 1036.811 156.79248
-195.16707 1036.811 156.79248
-189.74574 1036.811 156.79248
-184.32442 1036.811 156.79248
-178.90309 1036.811 156.79248
-173.48186 1036.811 156.79248
-168.06053 1036.811 156.79248
-161.16641 1047.5255 130.92236
-155.79417 1047.5255 130.92236
-150.42194 1047.5255 130.92236
-143.77162 1057.8574 105.97632
-138.44673 1057.8574 105.97632
-133.12184 1057.8574 105.97632
-127.79694 1057.8574 105.97632
-122.47205 1057.8574 105.97632
-118.18874 1047.5255 130.92236
-112.81651 1047.5255 130.92236
-107.44427 1047.5255 130.92236
-102.07204 1047.5255 130.92236
-96.699806 1047.5255 130.92236
-91.327667 1047.5255 130.92236
-85.197998 1057.8574 105.97632
-79.163002 1068.1892 81.030273
-73.885452 1068.1892 81.030273
-68.607895 1068.1892 81.030273
-63.330441 1068.1892 81.030273
-58.052891 1068.1892 81.030273
-52.775333 1068.1892 81.030273
-47.49778 1068.1892 81.030273
-42.22023 1068.1892 81.030273
-36.942772 1068.1892 81.030273
-31.66522 1068.1892 81.030273
-26.624367 1057.8574 105.97632
-21.299473 1057.8574 105.97632
-15.97458 1057.8574 105.97632
-10.649788 1057.8574 105.97632
-5.324894 1057.8574 105.97632
0 1057.8574 105.97632
5.3247924 1057.8574 105.97632
10.649788 1057.8574 105.97632
15.97458 1057.8574 105.97632
21.299576 1057.8574 105.97632
26.624367 1057.8574 105.97632
31.94916 1057.8574 105.97632
37.274155 1057.8574 105.97632
42.598946 1057.8574 105.97632
47.923943 1057.8574 105.97632
53.248734 1057.8574 105.97632
58.573528 1057.8574 105.97632
63.898525 1057.8574 105.97632
69.223312 1057.8574 105.97632
74.548309 1057.8574 105.97632
79.8731 1057.8574 105.97632
85.197891 1057.8574 105.97632
90.522888 1057.8574 105.97632
95.847679 1057.8574 105.97632
101.17268 1057.8574 105.97632
107.44427 1047.5255 130.92236
112.81641 1047.5255 130.92236
118.18874 1047.5255 130.92236
124.69002 1036.811 156.79248
130.11145 1036.811 156.79248
135.53267 1036.811 156.79248
140.9539 1036.811 156.79248
145.04982 1047.5255 130.92236
150.42194 1047.5255 130.92236
157.21799 1036.811 156.79248
162.63921 1036.811 156.79248
168.06042 1036.811 156.79248
173.48186 1036.811 156.79248
178.90309 1036.811 156.79248
185.9937 1026.0966 182.66235
193.24364 1014.9993 209.45654
198.7648 1014.9993 209.45654
204.28618 1014.9993 209.45654
211.73952 1003.9021 236.25049
217.31174 1003.9021 236.25049
222.88374 1003.9021 236.25049
226.37105 1014.9993 209.45654
231.89241 1014.9993 209.45654
237.41357 1014.9993 209.45654
242.93494 1014.9993 209.45654
248.45612 1014.9993 209.45654
253.97728 1014.9993 209.45654
259.49866 1014.9993 209.45654
265.01981 1014.9993 209.45654
270.54117 1014.9993 209.45654
276.06235 1014.9993 209.45654
281.58353 1014.9993 209.45654
289.7489 1003.9021 236.25049
298.10873 992.42236 263.96851
303.73355 992.42236 263.96851
309.35815 992.42236 263.96851
317.92834 980.9425 291.68628
323.60577 980.9425 291.68628
329.28299 980.9425 291.68628
334.96042 980.9425 291.68628
340.6376 980.9425 291.68628
346.31482 980.9425 291.68628
-239.61931 1052.9559 103.89551
-234.29442 1052.9559 103.89551
-231.00513 1042.5803 128.82324
-225.63301 1042.5803 128.82324
-222.27361 1031.8207 154.67432
-216.85228 1031.8207 154.67432
-211.43095 1031.8207 154.67432
-206.00961 1031.8207 154.67432
-200.58839 1031.8207 154.67432
-195.16707 1031.8207 154.67432
-189.74574 1031.8207 154.67432
-184.32442 1031.8207 154.67432
-178.90309 1031.8207 154.67432
-173.48186 1031.8207 154.67432
-168.06053 1031.8207 154.67432
-161.16641 1042.5803 128.82324
-155.79417 1042.5803 128.82324
-150.42194 1042.5803 128.82324
-143.77162 1052.9559 103.89551
-138.44673 1052.9559 103.89551
-133.12184 1052.9559 103.89551
-127.79694 1052.9559 103.89551
-123.56087 1042.5803 128.82324
-118.18874 1042.5803 128.82324
-112.81651 1042.5803 128.82324
-107.44427 1042.5803 128.82324
-102.07204 1042.5803 128.82324
-96.699806 1042.5803 128.82324
-91.327667 1042.5803 128.82324
-85.197998 1052.9559 103.89551
-79.8731 1052.9559 103.89551
-73.885452 1063.3313 78.968018
-68.607895 1063.3313 78.968018
-63.330441 1063.3313 78.968018
-58.052891 1063.3313 78.968018
-52.775333 1063.3313 78.968018
-47.49778 1063.3313 78.968018
-42.22023 1063.3313 78.968018
-36.942772 1063.3313 78.968018
-31.66522 1063.3313 78.968018
-26.624367 1052.9559 103.89551
-21.299473 1052.9559 103.89551
-15.97458 1052.9559 103.89551
-10.649788 1052.9559 103.89551
-5.324894 1052.9559 103.89551
0 1052.9559 103.89551
5.3247924 1052.9559 103.89551
10.649788 1052.9559 103.89551
15.97458 1052.9559 103.89551
21.299576 1052.9559 103.89551
26.624367 1052.9559 103.89551
31.94916 1052.9559 103.89551
37.274155 1052.9559 103.89551
42.598946 1052.9559 103.89551
47.923943 1052.9559 103.89551
53.248734 1052.9559 103.89551
58.573528 1052.9559 103.89551
63.898525 1052.9559 103.89551
69.223312 1052.9559 103.89551
74.548309 1052.9559 103.89551
79.8731 1052.9559 103.89551
85.197891 1052.9559 103.89551
90.522888 1052.9559 103.89551
95.847679 1052.9559 103.89551
101.17268 1052.9559 103.89551
106.49747 1052.9559 103.89551
112.81641 1042.5803 128.82324
118.18874 1042.5803 128.82324
124.69002 1031.8207 154.67432
130.11145 1031.8207 154.67432
135.53267 1031.8207 154.67432
140.9539 1031.8207 154.67432
146.37532 1031.8207 154.67432
151.79655 1031.8207 154.67432
157.21799 1031.8207 154.67432
162.63921 1031.8207 154.67432
168.06042 1031.8207 154.67432
173.48186 1031.8207 154.67432
178.90309 1031.8207 154.67432
185.9937 1021.061 180.5249
191.464 1021.061 180.5249
198.7648 1009.917 207.29932
206.16751 998.77295 234.07324
211.73952 998.77295 234.07324
219.36314 987.24475 261.77075
222.88374 998.77295 234.07324
226.37105 1009.917 207.29932
231.89241 1009.917 207.29932
237.41357 1009.917 207.29932
242.93494 1009.917 207.29932
248.45612 1009.917 207.29932
253.97728 1009.917 207.29932
259.49866 1009.917 207.29932
265.01981 1009.917 207.29932
270.54117 1009.917 207.29932
276.06235 1009.917 207.29932
281.58353 1009.917 207.29932
289.7489 998.77295 234.07324
295.32092 998.77295 234.07324
300.89313 998.77295 234.07324
309.35815 987.24475 261.77075
314.98276 987.24475 261.77075
323.60577 975.71655 289.46802
329.28299 975.71655 289.46802
