ply
format ascii 1.0
comment PCL generated
element vertex 1570
property float x
property float y
property float z
element camera 0
property float view_px
property float view_py
property float view_pz
property float x_axisx
property float x_axisy
property float x_axisz
property float y_axisx
property float y_axisy
property float y_axisz
property float z_axisx
property float z_axisy
property float z_axisz
property float focal
property float scalex
property float scaley
property float centerx
property float centery
property int viewportx
property int viewporty
property float k1
property float k2
end_header
147.7709 1077.9053 85.154297
153.04855 1077.9053 85.154297
158.326 1077.9053 85.154297
163.60345 1077.9053 85.154297
170.396 1067.6605 110.13745
175.72078 1067.6605 110.13745
181.04578 1067.6605 110.13745
186.37057 1067.6605 110.13745
191.69536 1067.6605 110.13745
198.77194 1057.4158 135.12061
204.14407 1057.4158 135.12061
211.43105 1046.7917 161.02905
218.81601 1036.1676 186.93726
224.28632 1036.1676 186.93726
231.89241 1025.1639 213.77124
237.41357 1025.1639 213.77124
245.17221 1014.1604 240.60474
250.7442 1014.1604 240.60474
258.73581 1002.7775 268.36401
264.36063 1002.7775 268.36401
269.98526 1002.7775 268.36401
275.61008 1002.7775 268.36401
281.23468 1002.7775 268.36401
-188.35011 1082.9545 59.052246
-183.11813 1082.9545 59.052246
-176.33623 1092.8617 35.012451
-171.14984 1092.8617 35.012451
-165.96358 1092.8617 35.012451
-160.77718 1092.8617 35.012451
-155.59081 1092.8617 35.012451
-149.13327 1102.3879 11.896973
-143.99071 1102.3879 11.896973
-138.84827 1102.3879 11.896973
-133.70572 1102.3879 11.896973
-127.46734 1111.9141 -11.218506
-122.36862 1111.9141 -11.218506
-117.26991 1111.9141 -11.218506
-112.1713 1111.9141 -11.218506
-107.07259 1111.9141 -11.218506
-101.97387 1111.9141 -11.218506
-96.875153 1111.9141 -11.218506
-91.776451 1111.9141 -11.218506
-86.677826 1111.9141 -11.218506
-80.877785 1121.4403 -34.333984
-75.822906 1121.4403 -34.333984
-70.768028 1121.4403 -34.333984
-65.713142 1121.4403 -34.333984
-60.658363 1121.4403 -34.333984
-56.085648 1111.9141 -11.218506
-50.986935 1111.9141 -11.218506
-45.888226 1111.9141 -11.218506
-40.789509 1111.9141 -11.218506
-35.690891 1111.9141 -11.218506
-30.592182 1111.9141 -11.218506
-25.493467 1111.9141 -11.218506
-20.394754 1111.9141 -11.218506
-15.427542 1102.3879 11.896973
-10.285093 1102.3879 11.896973
-5.1425467 1102.3879 11.896973
0 1102.3879 11.896973
5.1424484 1102.3879 11.896973
10.285093 1102.3879 11.896973
15.427542 1102.3879 11.896973
20.570187 1102.3879 11.896973
25.712635 1102.3879 11.896973
30.855083 1102.3879 11.896973
36.304562 1092.8617 35.012451
41.490841 1092.8617 35.012451
47.087601 1082.9545 59.052246
52.319469 1082.9545 59.052246
57.551338 1082.9545 59.052246
62.783401 1082.9545 59.052246
68.015266 1082.9545 59.052246
73.247337 1082.9545 59.052246
78.479202 1082.9545 59.052246
83.711067 1082.9545 59.052246
88.943138 1082.9545 59.052246
94.175003 1082.9545 59.052246
99.407066 1082.9545 59.052246
104.63894 1082.9545 59.052246
109.8708 1082.9545 59.052246
115.10287 1082.9545 59.052246
120.33474 1082.9545 59.052246
125.5668 1082.9545 59.052246
130.79868 1082.9545 59.052246
136.03053 1082.9545 59.052246
141.2626 1082.9545 59.052246
146.49446 1082.9545 59.052246
153.04855 1073.0472 83.092285
158.326 1073.0472 83.092285
163.60345 1073.0472 83.092285
170.396 1062.759 108.05688
175.72078 1062.759 108.05688
181.04578 1062.759 108.05688
186.37057 1062.759 108.05688
191.69536 1062.759 108.05688
198.77194 1052.4707 133.02148
204.14407 1052.4707 133.02148
211.43105 1041.8014 158.91089
218.81601 1031.1321 184.7998
224.28632 1031.1321 184.7998
231.89241 1020.0817 211.61377
237.41357 1020.0817 211.61377
242.93494 1020.0817 211.61377
250.7442 1009.0312 238.42773
258.73581 997.59985 266.16626
264.36063 997.59985 266.16626
269.98526 997.59985 266.16626
278.18747 986.16846 293.90454
283.86469 986.16846 293.90454
-188.35011 1078.1384 57.008057
-181.52261 1088.0876 32.98584
-176.33623 1088.0876 32.98584
-171.14984 1088.0876 32.98584
-165.96358 1088.0876 32.98584
-160.77718 1088.0876 32.98584
-155.59081 1088.0876 32.98584
-149.13327 1097.6542 9.8874512
-143.99071 1097.6542 9.8874512
-138.84827 1097.6542 9.8874512
-133.70572 1097.6542 9.8874512
-127.46734 1107.2207 -13.210693
-122.36862 1107.2207 -13.210693
-117.26991 1107.2207 -13.210693
-112.1713 1107.2207 -13.210693
-107.07259 1107.2207 -13.210693
-101.97387 1107.2207 -13.210693
-96.875153 1107.2207 -13.210693
-91.776451 1107.2207 -13.210693
-86.677826 1107.2207 -13.210693
-81.579117 1107.2207 -13.210693
-76.4804 1107.2207 -13.210693
-70.768028 1116.7874 -36.309082
-65.713142 1116.7874 -36.309082
-60.658363 1116.7874 -36.309082
-55.603481 1116.7874 -36.309082
-50.548603 1116.7874 -36.309082
-45.888226 1107.2207 -13.210693
-40.789509 1107.2207 -13.210693
-35.690891 1107.2207 -13.210693
-30.592182 1107.2207 -13.210693
-25.493467 1107.2207 -13.210693
-20.394754 1107.2207 -13.210693
-15.427542 1097.6542 9.8874512
-10.285093 1097.6542 9.8874512
-5.1425467 1097.6542 9.8874512
0 1097.6542 9.8874512
5.1424484 1097.6542 9.8874512
10.285093 1097.6542 9.8874512
15.427542 1097.6542 9.8874512
20.570187 1097.6542 9.8874512
25.931801 1088.0876 32.98584
31.118082 1088.0876 32.98584
36.304562 1088.0876 32.98584
41.490841 1088.0876 32.98584
47.087601 1078.1384 57.008057
52.319469 1078.1384 57.008057
58.052788 1068.1892 81.030273
63.330441 1068.1892 81.030273
68.015266 1078.1384 57.008057
73.247337 1078.1384 57.008057
78.479202 1078.1384 57.008057
83.711067 1078.1384 57.008057
88.943138 1078.1384 57.008057
94.175003 1078.1384 57.008057
99.407066 1078.1384 57.008057
104.63894 1078.1384 57.008057
109.8708 1078.1384 57.008057
115.10287 1078.1384 57.008057
120.33474 1078.1384 57.008057
125.5668 1078.1384 57.008057
130.79868 1078.1384 57.008057
136.03053 1078.1384 57.008057
141.2626 1078.1384 57.008057
146.49446 1078.1384 57.008057
153.04855 1068.1892 81.030273
158.326 1068.1892 81.030273
163.60345 1068.1892 81.030273
170.396 1057.8574 105.97632
175.72078 1057.8574 105.97632
181.04578 1057.8574 105.97632
186.37057 1057.8574 105.97632
191.69536 1057.8574 105.97632
198.77194 1047.5255 130.92236
204.14407 1047.5255 130.92236
211.43105 1036.811 156.79248
218.81601 1026.0966 182.66235
224.28632 1026.0966 182.66235
231.89241 1014.9993 209.45654
237.41357 1014.9993 209.45654
242.93494 1014.9993 209.45654
250.7442 1003.9021 236.25049
258.73581 992.42236 263.96851
264.36063 992.42236 263.96851
269.98526 992.42236 263.96851
278.18747 980.9425 291.68628
283.86469 980.9425 291.68628
-179.98843 1092.9204 7.8781738
-174.8459 1092.9204 7.8781738
-171.14984 1083.3136 30.959473
-165.96358 1083.3136 30.959473
-160.77718 1083.3136 30.959473
-155.59081 1083.3136 30.959473
-149.13327 1092.9204 7.8781738
-143.99071 1092.9204 7.8781738
-138.84827 1092.9204 7.8781738
-133.70572 1092.9204 7.8781738
-128.56317 1092.9204 7.8781738
-123.42062 1092.9204 7.8781738
-118.27808 1092.9204 7.8781738
-112.1713 1102.5273 -15.203125
-107.07259 1102.5273 -15.203125
-101.97387 1102.5273 -15.203125
-96.875153 1102.5273 -15.203125
-91.776451 1102.5273 -15.203125
-86.677826 1102.5273 -15.203125
-81.579117 1102.5273 -15.203125
-76.4804 1102.5273 -15.203125
-71.381691 1102.5273 -15.203125
-66.282974 1102.5273 -15.203125
-61.184364 1102.5273 -15.203125
-55.603481 1112.1343 -38.28418
-50.548603 1112.1343 -38.28418
-45.888226 1102.5273 -15.203125
-40.789509 1102.5273 -15.203125
-35.690891 1102.5273 -15.203125
-30.592182 1102.5273 -15.203125
-25.493467 1102.5273 -15.203125
-20.394754 1102.5273 -15.203125
-15.427542 1092.9204 7.8781738
-10.285093 1092.9204 7.8781738
-5.1425467 1092.9204 7.8781738
0 1083.3136 30.959473
5.1424484 1092.9204 7.8781738
10.285093 1092.9204 7.8781738
15.559041 1083.3136 30.959473
20.74552 1083.3136 30.959473
25.931801 1083.3136 30.959473
31.118082 1083.3136 30.959473
36.304562 1083.3136 30.959473
41.490841 1083.3136 30.959473
47.087601 1073.3225 54.963867
52.319469 1073.3225 54.963867
57.551338 1073.3225 54.963867
62.783401 1073.3225 54.963867
68.015266 1073.3225 54.963867
73.247337 1073.3225 54.963867
78.479202 1073.3225 54.963867
83.711067 1073.3225 54.963867
88.943138 1073.3225 54.963867
94.175003 1073.3225 54.963867
99.407066 1073.3225 54.963867
104.63894 1073.3225 54.963867
109.8708 1073.3225 54.963867
115.10287 1073.3225 54.963867
120.33474 1073.3225 54.963867
125.5668 1073.3225 54.963867
130.79868 1073.3225 54.963867
136.03053 1073.3225 54.963867
142.49345 1063.3313 78.968018
147.7709 1063.3313 78.968018
153.04855 1063.3313 78.968018
158.326 1063.3313 78.968018
163.60345 1063.3313 78.968018
168.8811 1063.3313 78.968018
175.72078 1052.9559 103.89551
181.04578 1052.9559 103.89551
186.37057 1052.9559 103.89551
191.69536 1052.9559 103.89551
198.77194 1042.5803 128.82324
204.14407 1042.5803 128.82324
211.43105 1031.8207 154.67432
218.81601 1021.061 180.5249
224.28632 1021.061 180.5249
231.89241 1009.917 207.29932
237.41357 1009.917 207.29932
242.93494 1009.917 207.29932
250.7442 998.77295 234.07324
258.73581 987.24475 261.77075
264.36063 987.24475 261.77075
269.98526 987.24475 261.77075
275.61008 987.24475 261.77075
281.23468 987.24475 261.77075
-179.98843 1088.1868 5.8688965
-174.8459 1088.1868 5.8688965
-171.14984 1078.5394 28.932861
-164.5609 1088.1868 5.8688965
-159.41835 1088.1868 5.8688965
-155.59081 1078.5394 28.932861
-149.13327 1088.1868 5.8688965
-143.99071 1088.1868 5.8688965
-138.84827 1088.1868 5.8688965
-133.70572 1088.1868 5.8688965
-128.56317 1088.1868 5.8688965
-123.42062 1088.1868 5.8688965
-118.27808 1088.1868 5.8688965
-113.13563 1088.1868 5.8688965
-107.99309 1088.1868 5.8688965
-102.85054 1088.1868 5.8688965
-97.707985 1088.1868 5.8688965
-91.776451 1097.834 -17.195312
-86.677826 1097.834 -17.195312
-81.579117 1097.834 -17.195312
-76.4804 1097.834 -17.195312
-71.381691 1097.834 -17.195312
-66.282974 1097.834 -17.195312
-61.184364 1097.834 -17.195312
-55.603481 1107.4813 -40.259277
-50.548603 1107.4813 -40.259277
-45.888226 1097.834 -17.195312
-40.789509 1097.834 -17.195312
-35.690891 1097.834 -17.195312
-30.592182 1097.834 -17.195312
-25.493467 1097.834 -17.195312
-20.394754 1097.834 -17.195312
-15.427542 1088.1868 5.8688965
-10.285093 1088.1868 5.8688965
-5.1425467 1088.1868 5.8688965
0 1088.1868 5.8688965
5.1424484 1088.1868 5.8688965
10.285093 1088.1868 5.8688965
15.427542 1088.1868 5.8688965
20.74552 1078.5394 28.932861
25.931801 1078.5394 28.932861
31.118082 1078.5394 28.932861
36.304562 1078.5394 28.932861
41.855534 1068.5065 52.919434
47.087601 1068.5065 52.919434
52.319469 1068.5065 52.919434
57.551338 1068.5065 52.919434
62.783401 1068.5065 52.919434
68.015266 1068.5065 52.919434
73.247337 1068.5065 52.919434
78.479202 1068.5065 52.919434
83.711067 1068.5065 52.919434
88.943138 1068.5065 52.919434
94.175003 1068.5065 52.919434
99.407066 1068.5065 52.919434
104.63894 1068.5065 52.919434
109.8708 1068.5065 52.919434
115.10287 1068.5065 52.919434
120.33474 1068.5065 52.919434
125.5668 1068.5065 52.919434
130.79868 1068.5065 52.919434
136.03053 1068.5065 52.919434
142.49345 1058.4733 76.906006
147.7709 1058.4733 76.906006
153.04855 1058.4733 76.906006
158.326 1058.4733 76.906006
163.60345 1058.4733 76.906006
168.8811 1058.4733 76.906006
175.72078 1048.0543 101.81494
181.04578 1048.0543 101.81494
186.37057 1048.0543 101.81494
191.69536 1048.0543 101.81494
198.77194 1037.6353 126.72437
204.14407 1037.6353 126.72437
211.43105 1026.8303 152.55591
218.81601 1016.0255 178.38745
224.28632 1016.0255 178.38745
231.89241 1004.8346 205.14185
237.41357 1004.8346 205.14185
245.17221 993.64392 231.896
250.7442 993.64392 231.896
258.73581 982.06726 259.573
264.36063 982.06726 259.573
269.98526 982.06726 259.573
275.61008 982.06726 259.573
281.23468 982.06726 259.573
-179.98843 1083.453 3.8596191
-174.8459 1083.453 3.8596191
-171.14984 1073.7654 26.906494
-164.5609 1083.453 3.8596191
-159.41835 1083.453 3.8596191
-155.59081 1073.7654 26.906494
-149.13327 1083.453 3.8596191
-143.99071 1083.453 3.8596191
-137.66476 1093.1406 -19.1875
-132.56606 1093.1406 -19.1875
-127.46734 1093.1406 -19.1875
-122.36862 1093.1406 -19.1875
-117.26991 1093.1406 -19.1875
-112.1713 1093.1406 -19.1875
-107.07259 1093.1406 -19.1875
-101.97387 1093.1406 -19.1875
-97.707985 1083.453 3.8596191
-91.776451 1093.1406 -19.1875
-86.677826 1093.1406 -19.1875
-81.579117 1093.1406 -19.1875
-76.4804 1093.1406 -19.1875
-71.381691 1093.1406 -19.1875
-66.282974 1093.1406 -19.1875
-61.184364 1093.1406 -19.1875
-55.603481 1102.8282 -42.234375
-50.548603 1102.8282 -42.234375
-45.888226 1093.1406 -19.1875
-40.789509 1093.1406 -19.1875
-35.690891 1093.1406 -19.1875
-30.592182 1093.1406 -19.1875
-25.493467 1093.1406 -19.1875
-20.394754 1093.1406 -19.1875
-15.427542 1083.453 3.8596191
-10.285093 1083.453 3.8596191
-5.1425467 1083.453 3.8596191
0 1083.453 3.8596191
5.1424484 1083.453 3.8596191
10.285093 1083.453 3.8596191
15.427542 1083.453 3.8596191
20.74552 1073.7654 26.906494
25.931801 1073.7654 26.906494
31.118082 1073.7654 26.906494
36.304562 1073.7654 26.906494
41.855534 1063.6904 50.875244
47.087601 1063.6904 50.875244
52.319469 1063.6904 50.875244
57.551338 1063.6904 50.875244
62.783401 1063.6904 50.875244
68.015266 1063.6904 50.875244
73.247337 1063.6904 50.875244
78.479202 1063.6904 50.875244
83.711067 1063.6904 50.875244
88.943138 1063.6904 50.875244
94.175003 1063.6904 50.875244
99.407066 1063.6904 50.875244
104.63894 1063.6904 50.875244
109.8708 1063.6904 50.875244
115.10287 1063.6904 50.875244
120.33474 1063.6904 50.875244
125.5668 1063.6904 50.875244
130.79868 1063.6904 50.875244
136.03053 1063.6904 50.875244
142.49345 1053.6152 74.843994
147.7709 1053.6152 74.843994
153.04855 1053.6152 74.843994
158.326 1053.6152 74.843994
163.60345 1053.6152 74.843994
168.8811 1053.6152 74.843994
175.72078 1043.1527 99.734375
181.04578 1043.1527 99.734375
186.37057 1043.1527 99.734375
191.69536 1043.1527 99.734375
198.77194 1032.6901 124.62524
204.14407 1032.6901 124.62524
211.43105 1021.8401 150.43774
218.81601 1010.99 176.25
226.37105 999.75232 202.98462
231.89241 999.75232 202.98462
239.59998 988.51477 229.71899
245.17221 988.51477 229.71899
250.7442 988.51477 229.71899
258.73581 976.88965 257.37524
261.88843 988.51477 229.71899
267.46045 988.51477 229.71899
275.61008 976.88965 257.37524
281.23468 976.88965 257.37524
-181.52261 1068.9913 24.879883
-176.33623 1068.9913 24.879883
-169.70334 1078.7194 1.8500977
-164.5609 1078.7194 1.8500977
-159.41835 1078.7194 1.8500977
-154.2758 1078.7194 1.8500977
-149.13327 1078.7194 1.8500977
-142.76338 1088.4473 -21.179688
-137.66476 1088.4473 -21.179688
-132.56606 1088.4473 -21.179688
-127.46734 1088.4473 -21.179688
-122.36862 1088.4473 -21.179688
-117.26991 1088.4473 -21.179688
-112.1713 1088.4473 -21.179688
-107.07259 1088.4473 -21.179688
-101.97387 1088.4473 -21.179688
-96.875153 1088.4473 -21.179688
-91.776451 1088.4473 -21.179688
-86.677826 1088.4473 -21.179688
-81.579117 1088.4473 -21.179688
-76.4804 1088.4473 -21.179688
-71.381691 1088.4473 -21.179688
-66.282974 1088.4473 -21.179688
-61.184364 1088.4473 -21.179688
-55.603481 1098.1753 -44.209473
-50.548603 1098.1753 -44.209473
-45.888226 1088.4473 -21.179688
-40.789509 1088.4473 -21.179688
-35.690891 1088.4473 -21.179688
-30.592182 1088.4473 -21.179688
-25.493467 1088.4473 -21.179688
-20.394754 1088.4473 -21.179688
-15.427542 1078.7194 1.8500977
-10.285093 1078.7194 1.8500977
-5.1425467 1078.7194 1.8500977
0 1078.7194 1.8500977
5.1424484 1078.7194 1.8500977
10.37276 1068.9913 24.879883
15.559041 1068.9913 24.879883
20.74552 1068.9913 24.879883
25.931801 1068.9913 24.879883
31.118082 1068.9913 24.879883
36.304562 1068.9913 24.879883
41.855534 1058.8744 48.830811
47.087601 1058.8744 48.830811
52.319469 1058.8744 48.830811
58.052788 1048.7573 72.781738
63.330441 1048.7573 72.781738
68.015266 1058.8744 48.830811
73.247337 1058.8744 48.830811
78.479202 1058.8744 48.830811
83.711067 1058.8744 48.830811
88.943138 1058.8744 48.830811
94.175003 1058.8744 48.830811
99.407066 1058.8744 48.830811
104.63894 1058.8744 48.830811
109.8708 1058.8744 48.830811
115.10287 1058.8744 48.830811
120.33474 1058.8744 48.830811
125.5668 1058.8744 48.830811
130.79868 1058.8744 48.830811
136.03053 1058.8744 48.830811
142.49345 1048.7573 72.781738
147.7709 1048.7573 72.781738
153.04855 1048.7573 72.781738
158.326 1048.7573 72.781738
163.60345 1048.7573 72.781738
168.8811 1048.7573 72.781738
175.72078 1038.2512 97.653809
181.04578 1038.2512 97.653809
186.37057 1038.2512 97.653809
191.69536 1038.2512 97.653809
198.77194 1027.745 122.52612
204.14407 1027.745 122.52612
211.43105 1016.8497 148.31934
218.81601 1005.9545 174.11255
226.37105 994.66992 200.82715
231.89241 994.66992 200.82715
239.59998 983.38562 227.54175
245.17221 983.38562 227.54175
250.7442 983.38562 227.54175
256.31622 983.38562 227.54175
261.88843 983.38562 227.54175
267.46045 983.38562 227.54175
275.61008 971.71216 255.17749
281.23468 971.71216 255.17749
-174.8459 1073.9856 -0.15917969
-169.70334 1073.9856 -0.15917969
-164.5609 1073.9856 -0.15917969
-159.41835 1073.9856 -0.15917969
-154.2758 1073.9856 -0.15917969
-149.13327 1073.9856 -0.15917969
-142.76338 1083.7539 -23.171875
-137.66476 1083.7539 -23.171875
-132.56606 1083.7539 -23.171875
-127.46734 1083.7539 -23.171875
-122.36862 1083.7539 -23.171875
-117.26991 1083.7539 -23.171875
-112.1713 1083.7539 -23.171875
-107.07259 1083.7539 -23.171875
-101.97387 1083.7539 -23.171875
-96.875153 1083.7539 -23.171875
-91.776451 1083.7539 -23.171875
-86.677826 1083.7539 -23.171875
-81.579117 1083.7539 -23.171875
-76.4804 1083.7539 -23.171875
-71.381691 1083.7539 -23.171875
-66.282974 1083.7539 -23.171875
-61.184364 1083.7539 -23.171875
-56.085648 1083.7539 -23.171875
-50.986935 1083.7539 -23.171875
-45.888226 1083.7539 -23.171875
-40.789509 1083.7539 -23.171875
-35.690891 1083.7539 -23.171875
-30.592182 1083.7539 -23.171875
-25.493467 1083.7539 -23.171875
-20.394754 1083.7539 -23.171875
-15.427542 1073.9856 -0.15917969
-10.285093 1073.9856 -0.15917969
-5.1425467 1073.9856 -0.15917969
0 1073.9856 -0.15917969
5.1424484 1073.9856 -0.15917969
10.37276 1064.2173 22.853516
15.559041 1064.2173 22.853516
20.74552 1064.2173 22.853516
25.931801 1064.2173 22.853516
31.118082 1064.2173 22.853516
36.623669 1054.0583 46.786621
41.855534 1054.0583 46.786621
47.087601 1054.0583 46.786621
52.775333 1043.8993 70.719727
58.052788 1043.8993 70.719727
63.330441 1043.8993 70.719727
68.015266 1054.0583 46.786621
73.247337 1054.0583 46.786621
78.479202 1054.0583 46.786621
83.711067 1054.0583 46.786621
88.943138 1054.0583 46.786621
94.175003 1054.0583 46.786621
99.407066 1054.0583 46.786621
104.63894 1054.0583 46.786621
109.8708 1054.0583 46.786621
115.10287 1054.0583 46.786621
121.38322 1043.8993 70.719727
126.66088 1043.8993 70.719727
131.93834 1043.8993 70.719727
137.21579 1043.8993 70.719727
142.49345 1043.8993 70.719727
147.7709 1043.8993 70.719727
153.04855 1043.8993 70.719727
158.326 1043.8993 70.719727
163.60345 1043.8993 70.719727
170.396 1033.3496 95.573242
175.72078 1033.3496 95.573242
181.04578 1033.3496 95.573242
186.37057 1033.3496 95.573242
191.69536 1033.3496 95.573242
198.77194 1022.7998 120.427
204.14407 1022.7998 120.427
211.43105 1011.8594 146.20117
218.81601 1000.9189 171.9751
226.37105 989.58765 198.66992
231.89241 989.58765 198.66992
239.59998 978.25647 225.3645
245.17221 978.25647 225.3645
250.7442 978.25647 225.3645
256.31622 978.25647 225.3645
261.88843 978.25647 225.3645
267.46045 978.25647 225.3645
273.03268 978.25647 225.3645
-174.8459 1069.2518 -2.168457
-169.70334 1069.2518 -2.168457
-164.5609 1069.2518 -2.168457
-159.41835 1069.2518 -2.168457
-154.2758 1069.2518 -2.168457
-149.13327 1069.2518 -2.168457
-142.76338 1079.0604 -25.164062
-137.66476 1079.0604 -25.164062
-132.56606 1079.0604 -25.164062
-127.46734 1079.0604 -25.164062
-122.36862 1079.0604 -25.164062
-117.26991 1079.0604 -25.164062
-112.1713 1079.0604 -25.164062
-107.07259 1079.0604 -25.164062
-101.97387 1079.0604 -25.164062
-97.707985 1069.2518 -2.168457
-91.776451 1079.0604 -25.164062
-86.677826 1079.0604 -25.164062
-81.579117 1079.0604 -25.164062
-76.4804 1079.0604 -25.164062
-71.381691 1079.0604 -25.164062
-66.282974 1079.0604 -25.164062
-61.184364 1079.0604 -25.164062
-56.085648 1079.0604 -25.164062
-50.986935 1079.0604 -25.164062
-45.888226 1079.0604 -25.164062
-40.789509 1079.0604 -25.164062
-35.690891 1079.0604 -25.164062
-30.592182 1079.0604 -25.164062
-25.493467 1079.0604 -25.164062
-20.394754 1079.0604 -25.164062
-15.427542 1069.2518 -2.168457
-10.285093 1069.2518 -2.168457
-5.1425467 1069.2518 -2.168457
0 1069.2518 -2.168457
5.1424484 1069.2518 -2.168457
10.285093 1069.2518 -2.168457
15.427542 1069.2518 -2.168457
20.74552 1059.4431 20.826904
25.931801 1059.4431 20.826904
31.118082 1059.4431 20.826904
36.623669 1049.2423 44.742188
41.855534 1049.2423 44.742188
47.087601 1049.2423 44.742188
52.775333 1039.0413 68.657715
58.052788 1039.0413 68.657715
63.330441 1039.0413 68.657715
68.607895 1039.0413 68.657715
73.247337 1049.2423 44.742188
78.479202 1049.2423 44.742188
83.711067 1049.2423 44.742188
88.943138 1049.2423 44.742188
94.175003 1049.2423 44.742188
99.407066 1049.2423 44.742188
104.63894 1049.2423 44.742188
109.8708 1049.2423 44.742188
115.10287 1049.2423 44.742188
121.38322 1039.0413 68.657715
126.66088 1039.0413 68.657715
131.93834 1039.0413 68.657715
137.21579 1039.0413 68.657715
142.49345 1039.0413 68.657715
147.7709 1039.0413 68.657715
153.04855 1039.0413 68.657715
158.326 1039.0413 68.657715
163.60345 1039.0413 68.657715
170.396 1028.448 93.492676
175.72078 1028.448 93.492676
181.04578 1028.448 93.492676
186.37057 1028.448 93.492676
191.69536 1028.448 93.492676
198.77194 1017.8546 118.32788
204.14407 1017.8546 118.32788
211.43105 1006.869 144.08276
218.81601 995.8833 169.83765
226.37105 984.50525 196.51245
231.89241 984.50525 196.51245
239.59998 973.12732 223.18726
245.17221 973.12732 223.18726
250.7442 973.12732 223.18726
256.31622 973.12732 223.18726
261.88843 973.12732 223.18726
267.46045 973.12732 223.18726
273.03268 973.12732 223.18726
-176.33623 1054.6692 18.800537
-171.14984 1054.6692 18.800537
-165.96358 1054.6692 18.800537
-160.77718 1054.6692 18.800537
-154.2758 1064.5182 -4.1779785
-149.13327 1064.5182 -4.1779785
-142.76338 1074.3672 -27.15625
-137.66476 1074.3672 -27.15625
-132.56606 1074.3672 -27.15625
-127.46734 1074.3672 -27.15625
-122.36862 1074.3672 -27.15625
-117.26991 1074.3672 -27.15625
-112.1713 1074.3672 -27.15625
-107.07259 1074.3672 -27.15625
-101.97387 1074.3672 -27.15625
-96.875153 1074.3672 -27.15625
-91.776451 1074.3672 -27.15625
-86.677826 1074.3672 -27.15625
-81.579117 1074.3672 -27.15625
-76.4804 1074.3672 -27.15625
-71.381691 1074.3672 -27.15625
-66.282974 1074.3672 -27.15625
-61.184364 1074.3672 -27.15625
-56.085648 1074.3672 -27.15625
-50.986935 1074.3672 -27.15625
-45.888226 1074.3672 -27.15625
-40.789509 1074.3672 -27.15625
-35.690891 1074.3672 -27.15625
-30.592182 1074.3672 -27.15625
-25.493467 1074.3672 -27.15625
-20.394754 1074.3672 -27.15625
-15.427542 1064.5182 -4.1779785
-10.285093 1064.5182 -4.1779785
-5.1425467 1064.5182 -4.1779785
0 1064.5182 -4.1779785
5.1424484 1064.5182 -4.1779785
10.285093 1064.5182 -4.1779785
15.427542 1064.5182 -4.1779785
20.74552 1054.6692 18.800537
25.931801 1054.6692 18.800537
31.118082 1054.6692 18.800537
36.623669 1044.4263 42.697998
41.855534 1044.4263 42.697998
47.087601 1044.4263 42.697998
52.775333 1034.1833 66.595459
58.052788 1034.1833 66.595459
63.330441 1034.1833 66.595459
68.607895 1034.1833 66.595459
73.247337 1044.4263 42.697998
78.479202 1044.4263 42.697998
83.711067 1044.4263 42.697998
88.943138 1044.4263 42.697998
94.175003 1044.4263 42.697998
99.407066 1044.4263 42.697998
104.63894 1044.4263 42.697998
109.8708 1044.4263 42.697998
115.10287 1044.4263 42.697998
121.38322 1034.1833 66.595459
126.66088 1034.1833 66.595459
131.93834 1034.1833 66.595459
137.21579 1034.1833 66.595459
142.49345 1034.1833 66.595459
147.7709 1034.1833 66.595459
153.04855 1034.1833 66.595459
159.7462 1023.5465 91.412109
165.071 1023.5465 91.412109
170.396 1023.5465 91.412109
175.72078 1023.5465 91.412109
181.04578 1023.5465 91.412109
186.37057 1023.5465 91.412109
191.69536 1023.5465 91.412109
198.77194 1012.9095 116.22876
204.14407 1012.9095 116.22876
211.43105 1001.8787 141.9646
218.81601 990.8479 167.7002
226.37105 979.42297 194.35522
234.02797 967.99817 221.01001
239.59998 967.99817 221.01001
245.17221 967.99817 221.01001
253.11121 956.17944 248.58423
256.31622 967.99817 221.01001
261.88843 967.99817 221.01001
267.46045 967.99817 221.01001
273.03268 967.99817 221.01001
281.23468 956.17944 248.58423
-177.88617 1039.6102 40.653809
-171.14984 1049.895 16.77417
-165.96358 1049.895 16.77417
-160.77718 1049.895 16.77417
-154.2758 1059.7844 -6.1872559
-149.13327 1059.7844 -6.1872559
-143.99071 1059.7844 -6.1872559
-137.66476 1069.6737 -29.148438
-132.56606 1069.6737 -29.148438
-127.46734 1069.6737 -29.148438
-122.36862 1069.6737 -29.148438
-117.26991 1069.6737 -29.148438
-112.1713 1069.6737 -29.148438
-107.07259 1069.6737 -29.148438
-101.97387 1069.6737 -29.148438
-96.875153 1069.6737 -29.148438
-91.776451 1069.6737 -29.148438
-86.677826 1069.6737 -29.148438
-81.579117 1069.6737 -29.148438
-76.4804 1069.6737 -29.148438
-71.381691 1069.6737 -29.148438
-66.282974 1069.6737 -29.148438
-61.184364 1069.6737 -29.148438
-56.085648 1069.6737 -29.148438
-50.986935 1069.6737 -29.148438
-45.888226 1069.6737 -29.148438
-40.789509 1069.6737 -29.148438
-35.690891 1069.6737 -29.148438
-30.592182 1069.6737 -29.148438
-25.493467 1069.6737 -29.148438
-20.394754 1069.6737 -29.148438
-15.427542 1059.7844 -6.1872559
-10.285093 1059.7844 -6.1872559
-5.1425467 1059.7844 -6.1872559
0 1059.7844 -6.1872559
5.1424484 1059.7844 -6.1872559
10.37276 1049.895 16.77417
15.559041 1049.895 16.77417
20.74552 1049.895 16.77417
25.931801 1049.895 16.77417
31.118082 1049.895 16.77417
36.623669 1039.6102 40.653809
41.855534 1039.6102 40.653809
47.087601 1039.6102 40.653809
52.775333 1029.3252 64.533447
58.052788 1029.3252 64.533447
63.330441 1029.3252 64.533447
68.015266 1039.6102 40.653809
73.247337 1039.6102 40.653809
78.479202 1039.6102 40.653809
83.711067 1039.6102 40.653809
88.943138 1039.6102 40.653809
94.175003 1039.6102 40.653809
99.407066 1039.6102 40.653809
104.63894 1039.6102 40.653809
109.8708 1039.6102 40.653809
115.10287 1039.6102 40.653809
121.38322 1029.3252 64.533447
126.66088 1029.3252 64.533447
131.93834 1029.3252 64.533447
137.21579 1029.3252 64.533447
142.49345 1029.3252 64.533447
147.7709 1029.3252 64.533447
153.04855 1029.3252 64.533447
159.7462 1018.6449 89.331543
165.071 1018.6449 89.331543
170.396 1018.6449 89.331543
175.72078 1018.6449 89.331543
181.04578 1018.6449 89.331543
186.37057 1018.6449 89.331543
191.69536 1018.6449 89.331543
198.77194 1007.9644 114.12964
204.14407 1007.9644 114.12964
209.5164 1007.9644 114.12964
216.85228 996.88831 139.84644
226.37105 974.34058 192.198
234.02797 962.86902 218.83301
241.86177 951.00183 246.38647
247.4866 951.00183 246.38647
253.11121 951.00183 246.38647
256.31622 962.86902 218.83301
261.88843 962.86902 218.83301
269.98526 951.00183 246.38647
275.61008 951.00183 246.38647
281.23468 951.00183 246.38647
-179.43613 1024.4673 62.471436
-172.65421 1034.7942 38.609375
-167.42235 1034.7942 38.609375
-162.19038 1034.7942 38.609375
-155.59081 1045.121 14.747559
-149.13327 1055.0508 -8.1965332
-143.99071 1055.0508 -8.1965332
-137.66476 1064.9805 -31.140625
-132.56606 1064.9805 -31.140625
-127.46734 1064.9805 -31.140625
-122.36862 1064.9805 -31.140625
-117.26991 1064.9805 -31.140625
-112.1713 1064.9805 -31.140625
-107.07259 1064.9805 -31.140625
-101.97387 1064.9805 -31.140625
-96.875153 1064.9805 -31.140625
-91.776451 1064.9805 -31.140625
-86.677826 1064.9805 -31.140625
-81.579117 1064.9805 -31.140625
-76.4804 1064.9805 -31.140625
-71.381691 1064.9805 -31.140625
-66.282974 1064.9805 -31.140625
-61.184364 1064.9805 -31.140625
-56.085648 1064.9805 -31.140625
-50.986935 1064.9805 -31.140625
-45.888226 1064.9805 -31.140625
-40.789509 1064.9805 -31.140625
-35.690891 1064.9805 -31.140625
-30.592182 1064.9805 -31.140625
-25.493467 1064.9805 -31.140625
-20.394754 1064.9805 -31.140625
-15.427542 1055.0508 -8.1965332
-10.37276 1045.121 14.747559
-5.1863799 1045.121 14.747559
0 1045.121 14.747559
5.1862807 1045.121 14.747559
10.37276 1045.121 14.747559
15.559041 1045.121 14.747559
20.74552 1045.121 14.747559
25.931801 1045.121 14.747559
31.118082 1045.121 14.747559
36.623669 1034.7942 38.609375
41.855534 1034.7942 38.609375
47.087601 1034.7942 38.609375
52.775333 1024.4673 62.471436
58.052788 1024.4673 62.471436
63.330441 1024.4673 62.471436
68.015266 1034.7942 38.609375
73.247337 1034.7942 38.609375
78.479202 1034.7942 38.609375
83.711067 1034.7942 38.609375
88.943138 1034.7942 38.609375
94.175003 1034.7942 38.609375
99.407066 1034.7942 38.609375
104.63894 1034.7942 38.609375
109.8708 1034.7942 38.609375
115.10287 1034.7942 38.609375
121.38322 1024.4673 62.471436
126.66088 1024.4673 62.471436
131.93834 1024.4673 62.471436
137.21579 1024.4673 62.471436
142.49345 1024.4673 62.471436
147.7709 1024.4673 62.471436
153.04855 1024.4673 62.471436
159.7462 1013.7433 87.250977
165.071 1013.7433 87.250977
170.396 1013.7433 87.250977
175.72078 1013.7433 87.250977
181.04578 1013.7433 87.250977
186.37057 1013.7433 87.250977
191.69536 1013.7433 87.250977
198.77194 1003.0193 112.03076
204.14407 1003.0193 112.03076
209.5164 1003.0193 112.03076
216.85228 991.89807 137.72803
226.37105 969.2583 190.04053
231.89241 969.2583 190.04053
239.59998 957.73999 216.65576
247.4866 945.82434 244.18872
253.11121 945.82434 244.18872
256.31622 957.73999 216.65576
261.88843 957.73999 216.65576
269.98526 945.82434 244.18872
275.61008 945.82434 244.18872
283.86469 933.90869 271.72144
289.54187 933.90869 271.72144
295.2193 933.90869 271.72144
-174.15857 1019.6093 60.40918
-167.42235 1029.9781 36.565186
-162.19038 1029.9781 36.565186
-155.59081 1040.3469 12.721191
-149.13327 1050.3169 -10.205811
-143.99071 1050.3169 -10.205811
-137.66476 1060.287 -33.133057
-132.56606 1060.287 -33.133057
-127.46734 1060.287 -33.133057
-122.36862 1060.287 -33.133057
-117.26991 1060.287 -33.133057
-112.1713 1060.287 -33.133057
-107.07259 1060.287 -33.133057
-101.97387 1060.287 -33.133057
-96.875153 1060.287 -33.133057
-91.776451 1060.287 -33.133057
-86.677826 1060.287 -33.133057
-81.579117 1060.287 -33.133057
-76.4804 1060.287 -33.133057
-71.381691 1060.287 -33.133057
-66.282974 1060.287 -33.133057
-61.184364 1060.287 -33.133057
-56.085648 1060.287 -33.133057
-50.986935 1060.287 -33.133057
-45.888226 1060.287 -33.133057
-40.789509 1060.287 -33.133057
-35.997726 1050.3169 -10.205811
-30.855181 1050.3169 -10.205811
-25.712635 1050.3169 -10.205811
-20.570087 1050.3169 -10.205811
-15.559041 1040.3469 12.721191
-10.37276 1040.3469 12.721191
-5.1863799 1040.3469 12.721191
0 1040.3469 12.721191
5.1862807 1040.3469 12.721191
10.37276 1040.3469 12.721191
15.559041 1040.3469 12.721191
20.74552 1040.3469 12.721191
25.931801 1040.3469 12.721191
31.118082 1040.3469 12.721191
36.623669 1029.9781 36.565186
41.855534 1029.9781 36.565186
47.087601 1029.9781 36.565186
52.775333 1019.6093 60.40918
58.052788 1019.6093 60.40918
63.330441 1019.6093 60.40918
68.015266 1029.9781 36.565186
73.247337 1029.9781 36.565186
78.479202 1029.9781 36.565186
83.711067 1029.9781 36.565186
88.943138 1029.9781 36.565186
94.175003 1029.9781 36.565186
99.407066 1029.9781 36.565186
105.55067 1019.6093 60.40918
109.8708 1029.9781 36.565186
115.10287 1029.9781 36.565186
121.38322 1019.6093 60.40918
126.66088 1019.6093 60.40918
131.93834 1019.6093 60.40918
137.21579 1019.6093 60.40918
142.49345 1019.6093 60.40918
147.7709 1019.6093 60.40918
153.04855 1019.6093 60.40918
159.7462 1008.8417 85.170166
165.071 1008.8417 85.170166
170.396 1008.8417 85.170166
175.72078 1008.8417 85.170166
181.04578 1008.8417 85.170166
186.37057 1008.8417 85.170166
191.69536 1008.8417 85.170166
197.02036 1008.8417 85.170166
204.14407 998.07397 109.93164
209.5164 998.07397 109.93164
214.88853 998.07397 109.93164
226.37105 964.1759 187.8833
231.89241 964.1759 187.8833
239.59998 952.61072 214.47852
247.4866 940.64673 241.99097
253.11121 940.64673 241.99097
258.73581 940.64673 241.99097
264.36063 940.64673 241.99097
272.51004 928.68274 269.50317
278.18747 928.68274 269.50317
283.86469 928.68274 269.50317
289.54187 928.68274 269.50317
295.2193 928.68274 269.50317
300.89655 928.68274 269.50317
306.57394 928.68274 269.50317
-174.15857 1014.7513 58.347168
-168.8811 1014.7513 58.347168
-163.60356 1014.7513 58.347168
-155.59081 1035.5729 10.69458
-149.13327 1045.5833 -12.215332
-143.99071 1045.5833 -12.215332
-137.66476 1055.5938 -35.125244
-132.56606 1055.5938 -35.125244
-127.46734 1055.5938 -35.125244
-122.36862 1055.5938 -35.125244
-117.26991 1055.5938 -35.125244
-112.1713 1055.5938 -35.125244
-107.07259 1055.5938 -35.125244
-101.97387 1055.5938 -35.125244
-96.875153 1055.5938 -35.125244
-91.776451 1055.5938 -35.125244
-86.677826 1055.5938 -35.125244
-81.579117 1055.5938 -35.125244
-76.4804 1055.5938 -35.125244
-71.381691 1055.5938 -35.125244
-66.282974 1055.5938 -35.125244
-61.710361 1045.5833 -12.215332
-56.085648 1055.5938 -35.125244
-50.986935 1055.5938 -35.125244
-45.888226 1055.5938 -35.125244
-41.140175 1045.5833 -12.215332
-35.997726 1045.5833 -12.215332
-30.855181 1045.5833 -12.215332
-25.712635 1045.5833 -12.215332
-20.570087 1045.5833 -12.215332
-15.559041 1035.5729 10.69458
-10.37276 1035.5729 10.69458
-5.1863799 1035.5729 10.69458
0 1035.5729 10.69458
5.1862807 1035.5729 10.69458
10.37276 1035.5729 10.69458
15.559041 1035.5729 10.69458
20.74552 1035.5729 10.69458
25.931801 1035.5729 10.69458
31.118082 1035.5729 10.69458
36.623669 1025.1622 34.520996
41.855534 1025.1622 34.520996
47.087601 1025.1622 34.520996
52.775333 1014.7513 58.347168
58.052788 1014.7513 58.347168
63.330441 1014.7513 58.347168
68.015266 1025.1622 34.520996
73.247337 1025.1622 34.520996
78.479202 1025.1622 34.520996
83.711067 1025.1622 34.520996
88.943138 1025.1622 34.520996
94.175003 1025.1622 34.520996
99.407066 1025.1622 34.520996
104.63894 1025.1622 34.520996
109.8708 1025.1622 34.520996
115.10287 1025.1622 34.520996
121.38322 1014.7513 58.347168
126.66088 1014.7513 58.347168
131.93834 1014.7513 58.347168
137.21579 1014.7513 58.347168
142.49345 1014.7513 58.347168
147.7709 1014.7513 58.347168
154.42142 1003.9402 83.0896
159.7462 1003.9402 83.0896
165.071 1003.9402 83.0896
170.396 1003.9402 83.0896
175.72078 1003.9402 83.0896
181.04578 1003.9402 83.0896
186.37057 1003.9402 83.0896
191.69536 1003.9402 83.0896
197.02036 1003.9402 83.0896
204.14407 993.12891 107.83252
209.5164 993.12891 107.83252
214.88853 993.12891 107.83252
226.37105 959.09363 185.72607
234.02797 947.48169 212.30127
239.59998 947.48169 212.30127
247.4866 935.46924 239.79321
255.47821 923.45679 267.28491
261.15543 923.45679 267.28491
266.83286 923.45679 267.28491
272.51004 923.45679 267.28491
278.18747 923.45679 267.28491
283.86469 923.45679 267.28491
289.54187 923.45679 267.28491
295.2193 923.45679 267.28491
300.89655 923.45679 267.28491
306.57394 923.45679 267.28491
315.24057 911.04395 295.69312
-174.15857 1009.8933 56.285156
-168.8811 1009.8933 56.285156
-162.19038 1020.3461 32.476562
-155.59081 1030.7987 8.6682129
-149.13327 1040.8495 -14.224609
-143.99071 1040.8495 -14.224609
-137.66476 1050.9003 -37.117432
-132.56606 1050.9003 -37.117432
-127.46734 1050.9003 -37.117432
-122.36862 1050.9003 -37.117432
-117.26991 1050.9003 -37.117432
-112.1713 1050.9003 -37.117432
-107.07259 1050.9003 -37.117432
-101.97387 1050.9003 -37.117432
-96.875153 1050.9003 -37.117432
-91.776451 1050.9003 -37.117432
-86.677826 1050.9003 -37.117432
-81.579117 1050.9003 -37.117432
-76.4804 1050.9003 -37.117432
-71.381691 1050.9003 -37.117432
-66.282974 1050.9003 -37.117432
-61.184364 1050.9003 -37.117432
-56.567814 1040.8495 -14.224609
-51.42527 1040.8495 -14.224609
-46.282722 1040.8495 -14.224609
-41.140175 1040.8495 -14.224609
-35.997726 1040.8495 -14.224609
-30.855181 1040.8495 -14.224609
-25.712635 1040.8495 -14.224609
-20.570087 1040.8495 -14.224609
-15.559041 1030.7987 8.6682129
-10.37276 1030.7987 8.6682129
-5.1863799 1030.7987 8.6682129
0 1030.7987 8.6682129
5.1862807 1030.7987 8.6682129
10.37276 1030.7987 8.6682129
15.695801 1020.3461 32.476562
20.74552 1030.7987 8.6682129
25.931801 1030.7987 8.6682129
31.391602 1020.3461 32.476562
36.623669 1020.3461 32.476562
41.855534 1020.3461 32.476562
47.087601 1020.3461 32.476562
52.775333 1009.8933 56.285156
58.052788 1009.8933 56.285156
63.330441 1009.8933 56.285156
68.015266 1020.3461 32.476562
73.247337 1020.3461 32.476562
78.479202 1020.3461 32.476562
83.711067 1020.3461 32.476562
88.943138 1020.3461 32.476562
94.175003 1020.3461 32.476562
100.27322 1009.8933 56.285156
104.63894 1020.3461 32.476562
109.8708 1020.3461 32.476562
115.10287 1020.3461 32.476562
121.38322 1009.8933 56.285156
126.66088 1009.8933 56.285156
131.93834 1009.8933 56.285156
137.21579 1009.8933 56.285156
142.49345 1009.8933 56.285156
147.7709 1009.8933 56.285156
153.04855 1009.8933 56.285156
159.7462 999.03857 81.009033
165.071 999.03857 81.009033
170.396 999.03857 81.009033
175.72078 999.03857 81.009033
181.04578 999.03857 81.009033
186.37057 999.03857 81.009033
191.69536 999.03857 81.009033
198.77194 988.18372 105.7334
204.14407 988.18372 105.7334
209.5164 988.18372 105.7334
214.88853 988.18372 105.7334
222.2735 976.927 131.37329
231.89241 954.01123 183.5686
239.59998 942.35242 210.12427
247.4866 930.29163 237.59546
255.47821 918.23071 265.06665
261.15543 918.23071 265.06665
266.83286 918.23071 265.06665
272.51004 918.23071 265.06665
278.18747 918.23071 265.06665
283.86469 918.23071 265.06665
289.54187 918.23071 265.06665
295.2193 918.23071 265.06665
300.89655 918.23071 265.06665
306.57394 918.23071 265.06665
315.24057 905.76782 293.45361
-168.8811 1005.0354 54.2229
-162.19038 1015.5302 30.432373
-156.9584 1015.5302 30.432373
-150.40443 1026.0248 6.6418457
-143.99071 1036.1158 -16.233887
-138.84827 1036.1158 -16.233887
-132.56606 1046.2069 -39.109619
-127.46734 1046.2069 -39.109619
-122.36862 1046.2069 -39.109619
-117.26991 1046.2069 -39.109619
-112.1713 1046.2069 -39.109619
-107.07259 1046.2069 -39.109619
-101.97387 1046.2069 -39.109619
-96.875153 1046.2069 -39.109619
-91.776451 1046.2069 -39.109619
-86.677826 1046.2069 -39.109619
-81.579117 1046.2069 -39.109619
-76.4804 1046.2069 -39.109619
-71.381691 1046.2069 -39.109619
-66.282974 1046.2069 -39.109619
-61.184364 1046.2069 -39.109619
-56.567814 1036.1158 -16.233887
-51.42527 1036.1158 -16.233887
-46.282722 1036.1158 -16.233887
-41.140175 1036.1158 -16.233887
-35.997726 1036.1158 -16.233887
-30.855181 1036.1158 -16.233887
-25.712635 1036.1158 -16.233887
-20.570087 1036.1158 -16.233887
-15.559041 1026.0248 6.6418457
-10.37276 1026.0248 6.6418457
-5.1863799 1026.0248 6.6418457
0 1026.0248 6.6418457
5.2318668 1015.5302 30.432373
10.463933 1015.5302 30.432373
15.695801 1015.5302 30.432373
20.927866 1015.5302 30.432373
26.159735 1015.5302 30.432373
31.391602 1015.5302 30.432373
36.623669 1015.5302 30.432373
41.855534 1015.5302 30.432373
47.087601 1015.5302 30.432373
52.775333 1005.0354 54.2229
58.052788 1005.0354 54.2229
63.330441 1005.0354 54.2229
68.015266 1015.5302 30.432373
73.247337 1015.5302 30.432373
78.479202 1015.5302 30.432373
83.711067 1015.5302 30.432373
88.943138 1015.5302 30.432373
94.175003 1015.5302 30.432373
100.27322 1005.0354 54.2229
105.55067 1005.0354 54.2229
110.82812 1005.0354 54.2229
116.10578 1005.0354 54.2229
121.38322 1005.0354 54.2229
126.66088 1005.0354 54.2229
131.93834 1005.0354 54.2229
137.21579 1005.0354 54.2229
142.49345 1005.0354 54.2229
147.7709 1005.0354 54.2229
153.04855 1005.0354 54.2229
159.7462 994.13708 78.928467
165.071 994.13708 78.928467
170.396 994.13708 78.928467
175.72078 994.13708 78.928467
181.04578 994.13708 78.928467
186.37057 994.13708 78.928467
191.69536 994.13708 78.928467
198.77194 983.23865 103.63428
204.14407 983.23865 103.63428
209.5164 983.23865 103.63428
214.88853 983.23865 103.63428
222.2735 971.93665 129.25488
231.89241 948.92896 181.41138
239.59998 937.22339 207.94702
247.4866 925.11414 235.39771
255.47821 913.00488 262.84839
261.15543 913.00488 262.84839
266.83286 913.00488 262.84839
272.51004 913.00488 262.84839
278.18747 913.00488 262.84839
283.86469 913.00488 262.84839
289.54187 913.00488 262.84839
295.2193 913.00488 262.84839
303.77722 900.49194 291.21411
309.50903 900.49194 291.21411
315.24057 900.49194 291.21411
-163.60356 1000.1772 52.160889
-156.9584 1010.714 28.387939
-150.40443 1021.2506 4.6152344
-143.99071 1031.3821 -18.243408
-138.84827 1031.3821 -18.243408
-132.56606 1041.5135 -41.101807
-127.46734 1041.5135 -41.101807
-122.36862 1041.5135 -41.101807
-117.26991 1041.5135 -41.101807
-112.1713 1041.5135 -41.101807
-107.07259 1041.5135 -41.101807
-101.97387 1041.5135 -41.101807
-96.875153 1041.5135 -41.101807
-91.776451 1041.5135 -41.101807
-86.677826 1041.5135 -41.101807
-81.579117 1041.5135 -41.101807
-76.4804 1041.5135 -41.101807
-71.381691 1041.5135 -41.101807
-66.282974 1041.5135 -41.101807
-61.184364 1041.5135 -41.101807
-56.567814 1031.3821 -18.243408
-51.42527 1031.3821 -18.243408
-46.282722 1031.3821 -18.243408
-41.140175 1031.3821 -18.243408
-36.304562 1021.2506 4.6152344
-31.118181 1021.2506 4.6152344
-25.712635 1031.3821 -18.243408
-20.570087 1031.3821 -18.243408
-15.695801 1010.714 28.387939
-10.463933 1010.714 28.387939
-5.2319665 1010.714 28.387939
0 1010.714 28.387939
5.2318668 1010.714 28.387939
10.463933 1010.714 28.387939
15.695801 1010.714 28.387939
20.927866 1010.714 28.387939
26.159735 1010.714 28.387939
31.391602 1010.714 28.387939
36.623669 1010.714 28.387939
41.855534 1010.714 28.387939
47.087601 1010.714 28.387939
52.775333 1000.1772 52.160889
58.052788 1000.1772 52.160889
63.330441 1000.1772 52.160889
68.015266 1010.714 28.387939
73.247337 1010.714 28.387939
78.479202 1010.714 28.387939
84.44046 1000.1772 52.160889
89.718109 1000.1772 52.160889
94.99556 1000.1772 52.160889
100.27322 1000.1772 52.160889
105.55067 1000.1772 52.160889
110.82812 1000.1772 52.160889
116.10578 1000.1772 52.160889
121.38322 1000.1772 52.160889
126.66088 1000.1772 52.160889
131.93834 1000.1772 52.160889
137.21579 1000.1772 52.160889
142.49345 1000.1772 52.160889
149.09642 989.23547 76.8479
154.42142 989.23547 76.8479
159.7462 989.23547 76.8479
165.071 989.23547 76.8479
170.396 989.23547 76.8479
177.283 978.29346 101.53516
182.65533 978.29346 101.53516
188.02748 978.29346 101.53516
193.39961 978.29346 101.53516
198.77194 978.29346 101.53516
204.14407 978.29346 101.53516
209.5164 978.29346 101.53516
214.88853 978.29346 101.53516
222.2735 966.94629 127.13672
231.89241 943.84656 179.25391
239.59998 932.09424 205.76978
247.4866 919.93652 233.19995
255.47821 907.77881 260.63013
261.15543 907.77881 260.63013
266.83286 907.77881 260.63013
272.51004 907.77881 260.63013
278.18747 907.77881 260.63013
283.86469 907.77881 260.63013
289.54187 907.77881 260.63013
295.2193 907.77881 260.63013
300.89655 907.77881 260.63013
309.50903 895.21582 288.97461
315.24057 895.21582 288.97461
-163.60356 995.31934 50.098877
-156.9584 1005.8981 26.34375
-149.13327 1026.6484 -20.252686
-143.99071 1026.6484 -20.252686
-137.66476 1036.8202 -43.093994
-132.56606 1036.8202 -43.093994
-127.46734 1036.8202 -43.093994
-122.36862 1036.8202 -43.093994
-117.26991 1036.8202 -43.093994
-112.1713 1036.8202 -43.093994
-106.15208 1046.9921 -65.935547
-101.09721 1046.9921 -65.935547
-96.04232 1046.9921 -65.935547
-90.98745 1046.9921 -65.935547
-86.677826 1036.8202 -43.093994
-80.877785 1046.9921 -65.935547
-75.822906 1046.9921 -65.935547
-71.381691 1036.8202 -43.093994
-66.282974 1036.8202 -43.093994
-61.184364 1036.8202 -43.093994
-56.567814 1026.6484 -20.252686
-51.42527 1026.6484 -20.252686
-46.282722 1026.6484 -20.252686
-41.490841 1016.4767 2.5888672
-36.304562 1016.4767 2.5888672
-31.118181 1016.4767 2.5888672
-25.712635 1026.6484 -20.252686
-20.570087 1026.6484 -20.252686
-15.695801 1005.8981 26.34375
-10.463933 1005.8981 26.34375
-5.2319665 1005.8981 26.34375
0 1005.8981 26.34375
5.2318668 1005.8981 26.34375
10.555108 995.31934 50.098877
15.83256 995.31934 50.098877
21.110216 995.31934 50.098877
26.387667 995.31934 50.098877
31.665119 995.31934 50.098877
36.623669 1005.8981 26.34375
41.855534 1005.8981 26.34375
47.497883 995.31934 50.098877
52.775333 995.31934 50.098877
58.052788 995.31934 50.098877
63.330441 995.31934 50.098877
68.607895 995.31934 50.098877
73.885544 995.31934 50.098877
79.163002 995.31934 50.098877
84.44046 995.31934 50.098877
89.718109 995.31934 50.098877
94.99556 995.31934 50.098877
100.27322 995.31934 50.098877
105.55067 995.31934 50.098877
110.82812 995.31934 50.098877
116.10578 995.31934 50.098877
121.38322 995.31934 50.098877
126.66088 995.31934 50.098877
131.93834 995.31934 50.098877
137.21579 995.31934 50.098877
142.49345 995.31934 50.098877
149.09642 984.33398 74.767334
154.42142 984.33398 74.767334
159.7462 984.33398 74.767334
165.071 984.33398 74.767334
171.91087 973.34839 99.436035
177.283 973.34839 99.436035
182.65533 973.34839 99.436035
188.02748 973.34839 99.436035
193.39961 973.34839 99.436035
198.77194 973.34839 99.436035
204.14407 973.34839 99.436035
211.43105 961.95605 125.01855
216.85228 961.95605 125.01855
224.28632 950.56372 150.60059
231.89241 938.7644 177.09668
239.59998 926.96509 203.59253
247.4866 914.75903 231.00244
255.47821 902.55286 258.41187
261.15543 902.55286 258.41187
266.83286 902.55286 258.41187
272.51004 902.55286 258.41187
278.18747 902.55286 258.41187
283.86469 902.55286 258.41187
289.54187 902.55286 258.41187
295.2193 902.55286 258.41187
300.89655 902.55286 258.41187
309.50903 889.93994 286.73511
315.24057 889.93994 286.73511
320.97214 889.93994 286.73511
-172.65421 1001.082 24.299561
-167.42235 1001.082 24.299561
-163.60356 990.4613 48.036621
-156.9584 1001.082 24.299561
-149.13327 1021.9147 -22.261963
-143.99071 1021.9147 -22.261963
-137.66476 1032.1268 -45.086182
-132.56606 1032.1268 -45.086182
-127.46734 1032.1268 -45.086182
-122.36862 1032.1268 -45.086182
-117.26991 1032.1268 -45.086182
-111.20696 1042.339 -67.910645
-106.15208 1042.339 -67.910645
-101.09721 1042.339 -67.910645
-96.04232 1042.339 -67.910645
-90.98745 1042.339 -67.910645
-85.932655 1042.339 -67.910645
-80.877785 1042.339 -67.910645
-75.822906 1042.339 -67.910645
-70.768028 1042.339 -67.910645
-65.713142 1042.339 -67.910645
-61.184364 1032.1268 -45.086182
-56.085648 1032.1268 -45.086182
-51.42527 1021.9147 -22.261963
-46.282722 1021.9147 -22.261963
-41.490841 1011.7025 0.56225586
-36.304562 1011.7025 0.56225586
-31.118181 1011.7025 0.56225586
-25.931801 1011.7025 0.56225586
-20.74542 1011.7025 0.56225586
-15.559041 1011.7025 0.56225586
-10.37276 1011.7025 0.56225586
-5.2319665 1001.082 24.299561
0 1001.082 24.299561
5.2318668 1001.082 24.299561
10.463933 1001.082 24.299561
15.695801 1001.082 24.299561
21.110216 990.4613 48.036621
26.387667 990.4613 48.036621
31.665119 990.4613 48.036621
36.942772 990.4613 48.036621
42.22023 990.4613 48.036621
47.497883 990.4613 48.036621
52.775333 990.4613 48.036621
58.052788 990.4613 48.036621
63.330441 990.4613 48.036621
68.607895 990.4613 48.036621
73.885544 990.4613 48.036621
79.163002 990.4613 48.036621
84.44046 990.4613 48.036621
89.718109 990.4613 48.036621
94.99556 990.4613 48.036621
100.27322 990.4613 48.036621
105.55067 990.4613 48.036621
110.82812 990.4613 48.036621
116.10578 990.4613 48.036621
121.38322 990.4613 48.036621
126.66088 990.4613 48.036621
131.93834 990.4613 48.036621
137.21579 990.4613 48.036621
142.49345 990.4613 48.036621
149.09642 979.43225 72.686768
154.42142 979.43225 72.686768
159.7462 979.43225 72.686768
165.071 979.43225 72.686768
171.91087 968.4032 97.336914
177.283 968.4032 97.336914
182.65533 968.4032 97.336914
188.02748 968.4032 97.336914
193.39961 968.4032 97.336914
198.77194 968.4032 97.336914
204.14407 968.4032 97.336914
211.43105 956.96558 122.90015
216.85228 956.96558 122.90015
224.28632 945.52808 148.46313
