ply
format ascii 1.0
comment PCL generated
element vertex 1577
property float x
property float y
property float z
element camera 0
property float view_px
property float view_py
property float view_pz
property float x_axisx
property float x_axisy
property float x_axisz
property float y_axisx
property float y_axisy
property float y_axisz
property float z_axisx
property float z_axisy
property float z_axisz
property float focal
property float scalex
property float scaley
property float centerx
property float centery
property int viewportx
property int viewporty
property float k1
property float k2
end_header
-205.82379 1107.0532 97.5271
-198.81393 1116.6667 73.362305
-193.58208 1116.6667 73.362305
-188.35011 1116.6667 73.362305
-184.71367 1107.0532 97.5271
-179.43613 1107.0532 97.5271
-174.15857 1107.0532 97.5271
-168.8811 1107.0532 97.5271
-163.60356 1107.0532 97.5271
-158.326 1107.0532 97.5271
-153.04846 1107.0532 97.5271
-147.7709 1107.0532 97.5271
-142.49345 1107.0532 97.5271
-137.21588 1107.0532 97.5271
-131.93834 1107.0532 97.5271
-126.66079 1107.0532 97.5271
-121.38322 1107.0532 97.5271
-115.10287 1116.6667 73.362305
-109.87091 1116.6667 73.362305
-104.63894 1116.6667 73.362305
-99.406967 1116.6667 73.362305
-94.175003 1116.6667 73.362305
-88.168159 1126.2802 49.197754
-82.981789 1126.2802 49.197754
-77.795403 1126.2802 49.197754
-72.609024 1126.2802 49.197754
-67.422646 1126.2802 49.197754
-61.710361 1135.5239 25.962402
-56.567814 1135.5239 25.962402
-51.42527 1135.5239 25.962402
-46.282722 1135.5239 25.962402
-41.140175 1135.5239 25.962402
-35.997726 1135.5239 25.962402
-30.855181 1135.5239 25.962402
-25.712635 1135.5239 25.962402
-20.74542 1126.2802 49.197754
-15.559041 1126.2802 49.197754
-10.37276 1126.2802 49.197754
-5.1863799 1126.2802 49.197754
0 1126.2802 49.197754
5.1862807 1126.2802 49.197754
10.37276 1126.2802 49.197754
15.559041 1126.2802 49.197754
20.74552 1126.2802 49.197754
25.931801 1126.2802 49.197754
31.118082 1126.2802 49.197754
36.304562 1126.2802 49.197754
41.490841 1126.2802 49.197754
46.677322 1126.2802 49.197754
51.863602 1126.2802 49.197754
57.049881 1126.2802 49.197754
62.783401 1116.6667 73.362305
68.015266 1116.6667 73.362305
73.247337 1116.6667 73.362305
78.479202 1116.6667 73.362305
83.711067 1116.6667 73.362305
88.943138 1116.6667 73.362305
94.175003 1116.6667 73.362305
99.407066 1116.6667 73.362305
104.63894 1116.6667 73.362305
109.8708 1116.6667 73.362305
114.09996 1126.2802 49.197754
119.28625 1126.2802 49.197754
124.47272 1126.2802 49.197754
130.79868 1116.6667 73.362305
136.03053 1116.6667 73.362305
141.2626 1116.6667 73.362305
147.7709 1107.0532 97.5271
153.04855 1107.0532 97.5271
158.326 1107.0532 97.5271
163.60345 1107.0532 97.5271
170.396 1097.0701 122.62085
175.72078 1097.0701 122.62085
181.04578 1097.0701 122.62085
186.37057 1097.0701 122.62085
191.69536 1097.0701 122.62085
197.02036 1097.0701 122.62085
204.14407 1087.0868 147.71509
209.5164 1087.0868 147.71509
214.88853 1087.0868 147.71509
222.2735 1076.7338 173.73877
229.75684 1066.3809 199.76196
235.22717 1066.3809 199.76196
240.69769 1066.3809 199.76196
246.16801 1066.3809 199.76196
251.63832 1066.3809 199.76196
257.10886 1066.3809 199.76196
262.57916 1066.3809 199.76196
268.04968 1066.3809 199.76196
273.52002 1066.3809 199.76196
278.99033 1066.3809 199.76196
284.46085 1066.3809 199.76196
289.93118 1066.3809 199.76196
295.40167 1066.3809 199.76196
300.87201 1066.3809 199.76196
306.34235 1066.3809 199.76196
311.81284 1066.3809 199.76196
317.28317 1066.3809 199.76196
322.75369 1066.3809 199.76196
328.224 1066.3809 199.76196
336.79596 1055.658 226.71509
342.31735 1055.658 226.71509
347.8385 1055.658 226.71509
353.35989 1055.658 226.71509
358.88104 1055.658 226.71509
361.04636 1066.3809 199.76196
366.51685 1066.3809 199.76196
371.98718 1066.3809 199.76196
377.45767 1066.3809 199.76196
386.48727 1055.658 226.71509
-244.9442 1092.1685 120.54028
-239.61931 1092.1685 120.54028
-234.29442 1092.1685 120.54028
-226.93391 1102.1952 95.464844
-221.65645 1102.1952 95.464844
-216.37889 1102.1952 95.464844
-211.10133 1102.1952 95.464844
-205.82379 1102.1952 95.464844
-200.54623 1102.1952 95.464844
-195.26877 1102.1952 95.464844
-189.99123 1102.1952 95.464844
-184.71367 1102.1952 95.464844
-179.43613 1102.1952 95.464844
-174.15857 1102.1952 95.464844
-168.8811 1102.1952 95.464844
-163.60356 1102.1952 95.464844
-158.326 1102.1952 95.464844
-153.04846 1102.1952 95.464844
-147.7709 1102.1952 95.464844
-142.49345 1102.1952 95.464844
-137.21588 1102.1952 95.464844
-131.93834 1102.1952 95.464844
-126.66079 1102.1952 95.464844
-121.38322 1102.1952 95.464844
-115.10287 1111.8507 71.318115
-109.87091 1111.8507 71.318115
-104.63894 1111.8507 71.318115
-99.406967 1111.8507 71.318115
-93.354446 1121.5061 47.171143
-88.168159 1121.5061 47.171143
-82.981789 1121.5061 47.171143
-77.795403 1121.5061 47.171143
-72.609024 1121.5061 47.171143
-67.422646 1121.5061 47.171143
-61.710361 1130.7903 23.952881
-56.567814 1130.7903 23.952881
-51.42527 1130.7903 23.952881
-46.282722 1130.7903 23.952881
-41.140175 1130.7903 23.952881
-35.997726 1130.7903 23.952881
-30.855181 1130.7903 23.952881
-25.712635 1130.7903 23.952881
-20.74542 1121.5061 47.171143
-15.559041 1121.5061 47.171143
-10.37276 1121.5061 47.171143
-5.1863799 1121.5061 47.171143
0 1121.5061 47.171143
5.1862807 1121.5061 47.171143
10.37276 1121.5061 47.171143
15.559041 1121.5061 47.171143
20.74552 1121.5061 47.171143
25.931801 1121.5061 47.171143
31.118082 1121.5061 47.171143
36.304562 1121.5061 47.171143
41.490841 1121.5061 47.171143
46.677322 1121.5061 47.171143
51.863602 1121.5061 47.171143
57.049881 1121.5061 47.171143
62.783401 1111.8507 71.318115
68.015266 1111.8507 71.318115
73.247337 1111.8507 71.318115
78.479202 1111.8507 71.318115
83.711067 1111.8507 71.318115
88.943138 1111.8507 71.318115
94.175003 1111.8507 71.318115
99.407066 1111.8507 71.318115
104.63894 1111.8507 71.318115
109.8708 1111.8507 71.318115
114.09996 1121.5061 47.171143
119.28625 1121.5061 47.171143
124.47272 1121.5061 47.171143
130.79868 1111.8507 71.318115
136.03053 1111.8507 71.318115
141.2626 1111.8507 71.318115
147.7709 1102.1952 95.464844
153.04855 1102.1952 95.464844
158.326 1102.1952 95.464844
163.60345 1102.1952 95.464844
170.396 1092.1685 120.54028
175.72078 1092.1685 120.54028
181.04578 1092.1685 120.54028
186.37057 1092.1685 120.54028
191.69536 1092.1685 120.54028
197.02036 1092.1685 120.54028
202.34515 1092.1685 120.54028
207.67015 1092.1685 120.54028
214.88853 1082.1416 145.61621
222.2735 1071.7434 171.62036
229.75684 1061.3453 197.62451
235.22717 1061.3453 197.62451
240.69769 1061.3453 197.62451
246.16801 1061.3453 197.62451
251.63832 1061.3453 197.62451
257.10886 1061.3453 197.62451
262.57916 1061.3453 197.62451
268.04968 1061.3453 197.62451
273.52002 1061.3453 197.62451
278.99033 1061.3453 197.62451
284.46085 1061.3453 197.62451
289.93118 1061.3453 197.62451
295.40167 1061.3453 197.62451
300.87201 1061.3453 197.62451
306.34235 1061.3453 197.62451
311.81284 1061.3453 197.62451
317.28317 1061.3453 197.62451
322.75369 1061.3453 197.62451
328.224 1061.3453 197.62451
333.69434 1061.3453 197.62451
342.31735 1050.5757 224.55786
347.8385 1050.5757 224.55786
353.35989 1050.5757 224.55786
358.88104 1050.5757 224.55786
361.04636 1061.3453 197.62451
366.51685 1061.3453 197.62451
371.98718 1061.3453 197.62451
377.45767 1061.3453 197.62451
386.48727 1050.5757 224.55786
392.00842 1050.5757 224.55786
397.52982 1050.5757 224.55786
-253.32158 1097.3373 93.402832
-248.04411 1097.3373 93.402832
-242.76656 1097.3373 93.402832
-239.61931 1087.267 118.45972
-232.21146 1097.3373 93.402832
-226.93391 1097.3373 93.402832
-221.65645 1097.3373 93.402832
-216.37889 1097.3373 93.402832
-211.10133 1097.3373 93.402832
-205.82379 1097.3373 93.402832
-200.54623 1097.3373 93.402832
-195.26877 1097.3373 93.402832
-189.99123 1097.3373 93.402832
-184.71367 1097.3373 93.402832
-179.43613 1097.3373 93.402832
-174.15857 1097.3373 93.402832
-168.8811 1097.3373 93.402832
-163.60356 1097.3373 93.402832
-158.326 1097.3373 93.402832
-153.04846 1097.3373 93.402832
-147.7709 1097.3373 93.402832
-142.49345 1097.3373 93.402832
-137.21588 1097.3373 93.402832
-131.93834 1097.3373 93.402832
-126.66079 1097.3373 93.402832
-121.38322 1097.3373 93.402832
-116.10578 1097.3373 93.402832
-109.87091 1107.0347 69.273682
-104.63894 1107.0347 69.273682
-99.406967 1107.0347 69.273682
-93.354446 1116.7321 45.144775
-88.168159 1116.7321 45.144775
-82.981789 1116.7321 45.144775
-77.795403 1116.7321 45.144775
-72.609024 1116.7321 45.144775
-67.422646 1116.7321 45.144775
-62.236362 1116.7321 45.144775
-56.567814 1126.0565 21.943604
-51.42527 1126.0565 21.943604
-46.282722 1126.0565 21.943604
-41.140175 1126.0565 21.943604
-35.997726 1126.0565 21.943604
-30.855181 1126.0565 21.943604
-25.712635 1126.0565 21.943604
-20.74542 1116.7321 45.144775
-15.559041 1116.7321 45.144775
-10.37276 1116.7321 45.144775
-5.1863799 1116.7321 45.144775
0 1116.7321 45.144775
5.1862807 1116.7321 45.144775
10.37276 1116.7321 45.144775
15.559041 1116.7321 45.144775
20.74552 1116.7321 45.144775
25.931801 1116.7321 45.144775
31.118082 1116.7321 45.144775
36.304562 1116.7321 45.144775
41.490841 1116.7321 45.144775
46.677322 1116.7321 45.144775
51.863602 1116.7321 45.144775
57.049881 1116.7321 45.144775
62.783401 1107.0347 69.273682
68.015266 1107.0347 69.273682
73.247337 1107.0347 69.273682
78.479202 1107.0347 69.273682
83.711067 1107.0347 69.273682
88.943138 1107.0347 69.273682
94.175003 1107.0347 69.273682
99.407066 1107.0347 69.273682
104.63894 1107.0347 69.273682
109.8708 1107.0347 69.273682
114.09996 1116.7321 45.144775
119.28625 1116.7321 45.144775
124.47272 1116.7321 45.144775
130.79868 1107.0347 69.273682
136.03053 1107.0347 69.273682
141.2626 1107.0347 69.273682
147.7709 1097.3373 93.402832
153.04855 1097.3373 93.402832
158.326 1097.3373 93.402832
165.071 1087.267 118.45972
170.396 1087.267 118.45972
175.72078 1087.267 118.45972
181.04578 1087.267 118.45972
186.37057 1087.267 118.45972
193.39961 1077.1964 143.51709
198.77194 1077.1964 143.51709
202.34515 1087.267 118.45972
207.67015 1087.267 118.45972
212.99493 1087.267 118.45972
229.75684 1056.3098 195.48706
235.22717 1056.3098 195.48706
240.69769 1056.3098 195.48706
246.16801 1056.3098 195.48706
251.63832 1056.3098 195.48706
257.10886 1056.3098 195.48706
262.57916 1056.3098 195.48706
268.04968 1056.3098 195.48706
273.52002 1056.3098 195.48706
278.99033 1056.3098 195.48706
284.46085 1056.3098 195.48706
289.93118 1056.3098 195.48706
295.40167 1056.3098 195.48706
300.87201 1056.3098 195.48706
306.34235 1056.3098 195.48706
311.81284 1056.3098 195.48706
317.28317 1056.3098 195.48706
322.75369 1056.3098 195.48706
328.224 1056.3098 195.48706
333.69434 1056.3098 195.48706
342.31735 1045.4934 222.40039
347.8385 1045.4934 222.40039
353.35989 1045.4934 222.40039
358.88104 1045.4934 222.40039
361.04636 1056.3098 195.48706
366.51685 1056.3098 195.48706
375.44473 1045.4934 222.40039
380.96613 1045.4934 222.40039
386.48727 1045.4934 222.40039
392.00842 1045.4934 222.40039
397.52982 1045.4934 222.40039
-258.59912 1092.4792 91.34082
-253.32158 1092.4792 91.34082
-248.04411 1092.4792 91.34082
-242.76656 1092.4792 91.34082
-237.48901 1092.4792 91.34082
-232.21146 1092.4792 91.34082
-226.93391 1092.4792 91.34082
-221.65645 1092.4792 91.34082
-216.37889 1092.4792 91.34082
-211.10133 1092.4792 91.34082
-205.82379 1092.4792 91.34082
-200.54623 1092.4792 91.34082
-195.26877 1092.4792 91.34082
-189.99123 1092.4792 91.34082
-184.71367 1092.4792 91.34082
-179.43613 1092.4792 91.34082
-174.15857 1092.4792 91.34082
-168.8811 1092.4792 91.34082
-163.60356 1092.4792 91.34082
-158.326 1092.4792 91.34082
-153.04846 1092.4792 91.34082
-147.7709 1092.4792 91.34082
-142.49345 1092.4792 91.34082
-137.21588 1092.4792 91.34082
-131.93834 1092.4792 91.34082
-126.66079 1092.4792 91.34082
-121.38322 1092.4792 91.34082
-116.10578 1092.4792 91.34082
-109.87091 1102.2188 67.229492
-104.63894 1102.2188 67.229492
-99.406967 1102.2188 67.229492
-94.175003 1102.2188 67.229492
-88.168159 1111.958 43.118164
-82.981789 1111.958 43.118164
-77.795403 1111.958 43.118164
-72.609024 1111.958 43.118164
-67.422646 1111.958 43.118164
-62.236362 1111.958 43.118164
-56.567814 1121.3229 19.934326
-51.42527 1121.3229 19.934326
-46.282722 1121.3229 19.934326
-41.140175 1121.3229 19.934326
-35.997726 1121.3229 19.934326
-30.855181 1121.3229 19.934326
-25.712635 1121.3229 19.934326
-20.74542 1111.958 43.118164
-15.559041 1111.958 43.118164
-10.37276 1111.958 43.118164
-5.1863799 1111.958 43.118164
0 1111.958 43.118164
5.1862807 1111.958 43.118164
10.37276 1111.958 43.118164
15.559041 1111.958 43.118164
20.74552 1111.958 43.118164
25.931801 1111.958 43.118164
31.118082 1111.958 43.118164
36.304562 1111.958 43.118164
41.490841 1111.958 43.118164
46.677322 1111.958 43.118164
51.863602 1111.958 43.118164
57.049881 1111.958 43.118164
62.236362 1111.958 43.118164
68.015266 1102.2188 67.229492
73.247337 1102.2188 67.229492
78.479202 1102.2188 67.229492
83.711067 1102.2188 67.229492
88.943138 1102.2188 67.229492
94.175003 1102.2188 67.229492
99.407066 1102.2188 67.229492
104.63894 1102.2188 67.229492
109.8708 1102.2188 67.229492
114.09996 1111.958 43.118164
119.28625 1111.958 43.118164
124.47272 1111.958 43.118164
130.79868 1102.2188 67.229492
137.21579 1092.4792 91.34082
142.49345 1092.4792 91.34082
147.7709 1092.4792 91.34082
153.04855 1092.4792 91.34082
158.326 1092.4792 91.34082
165.071 1082.3654 116.37915
170.396 1082.3654 116.37915
175.72078 1082.3654 116.37915
181.04578 1082.3654 116.37915
186.37057 1082.3654 116.37915
193.39961 1072.2513 141.41797
198.77194 1072.2513 141.41797
202.34515 1082.3654 116.37915
207.67015 1082.3654 116.37915
246.16801 1051.2743 193.34961
251.63832 1051.2743 193.34961
257.10886 1051.2743 193.34961
262.57916 1051.2743 193.34961
268.04968 1051.2743 193.34961
273.52002 1051.2743 193.34961
278.99033 1051.2743 193.34961
284.46085 1051.2743 193.34961
289.93118 1051.2743 193.34961
295.40167 1051.2743 193.34961
300.87201 1051.2743 193.34961
306.34235 1051.2743 193.34961
311.81284 1051.2743 193.34961
317.28317 1051.2743 193.34961
322.75369 1051.2743 193.34961
328.224 1051.2743 193.34961
333.69434 1051.2743 193.34961
339.16486 1051.2743 193.34961
347.8385 1040.411 220.24316
350.10568 1051.2743 193.34961
355.57602 1051.2743 193.34961
361.04636 1051.2743 193.34961
366.51685 1051.2743 193.34961
375.44473 1040.411 220.24316
380.96613 1040.411 220.24316
386.48727 1040.411 220.24316
392.00842 1040.411 220.24316
397.52982 1040.411 220.24316
406.76279 1029.5479 247.13647
-261.59735 1097.4027 65.185303
-256.36539 1097.4027 65.185303
-251.13341 1097.4027 65.185303
-248.04411 1087.6213 89.278564
-242.76656 1087.6213 89.278564
-237.48901 1087.6213 89.278564
-232.21146 1087.6213 89.278564
-226.93391 1087.6213 89.278564
-221.65645 1087.6213 89.278564
-216.37889 1087.6213 89.278564
-211.10133 1087.6213 89.278564
-205.82379 1087.6213 89.278564
-200.54623 1087.6213 89.278564
-195.26877 1087.6213 89.278564
-189.99123 1087.6213 89.278564
-184.71367 1087.6213 89.278564
-179.43613 1087.6213 89.278564
-174.15857 1087.6213 89.278564
-168.8811 1087.6213 89.278564
-163.60356 1087.6213 89.278564
-158.326 1087.6213 89.278564
-153.04846 1087.6213 89.278564
-147.7709 1087.6213 89.278564
-142.49345 1087.6213 89.278564
-137.21588 1087.6213 89.278564
-131.93834 1087.6213 89.278564
-126.66079 1087.6213 89.278564
-121.38322 1087.6213 89.278564
-116.10578 1087.6213 89.278564
-110.82822 1087.6213 89.278564
-104.63894 1097.4027 65.185303
-99.406967 1097.4027 65.185303
-94.175003 1097.4027 65.185303
-88.168159 1107.184 41.091797
-82.981789 1107.184 41.091797
-77.795403 1107.184 41.091797
-72.609024 1107.184 41.091797
-68.015266 1097.4027 65.185303
-62.236362 1107.184 41.091797
-57.04998 1107.184 41.091797
-51.42527 1116.5891 17.925049
-46.282722 1116.5891 17.925049
-41.140175 1116.5891 17.925049
-35.997726 1116.5891 17.925049
-30.592182 1125.9943 -5.2419434
-25.493467 1125.9943 -5.2419434
-20.74542 1107.184 41.091797
-15.559041 1107.184 41.091797
-10.285093 1116.5891 17.925049
-5.1425467 1116.5891 17.925049
0 1116.5891 17.925049
5.1424484 1116.5891 17.925049
10.285093 1116.5891 17.925049
15.559041 1107.184 41.091797
20.74552 1107.184 41.091797
25.931801 1107.184 41.091797
31.118082 1107.184 41.091797
36.304562 1107.184 41.091797
41.490841 1107.184 41.091797
46.677322 1107.184 41.091797
51.863602 1107.184 41.091797
57.049881 1107.184 41.091797
62.236362 1107.184 41.091797
68.015266 1097.4027 65.185303
73.247337 1097.4027 65.185303
78.479202 1097.4027 65.185303
83.711067 1097.4027 65.185303
88.943138 1097.4027 65.185303
94.175003 1097.4027 65.185303
99.407066 1097.4027 65.185303
104.63894 1097.4027 65.185303
109.8708 1097.4027 65.185303
115.10287 1097.4027 65.185303
119.28625 1107.184 41.091797
124.47272 1107.184 41.091797
130.79868 1097.4027 65.185303
137.21579 1087.6213 89.278564
142.49345 1087.6213 89.278564
147.7709 1087.6213 89.278564
153.04855 1087.6213 89.278564
158.326 1087.6213 89.278564
165.071 1077.4637 114.29858
170.396 1077.4637 114.29858
175.72078 1077.4637 114.29858
181.04578 1077.4637 114.29858
186.37057 1077.4637 114.29858
191.69536 1077.4637 114.29858
198.77194 1067.3062 139.31885
202.34515 1077.4637 114.29858
207.67015 1077.4637 114.29858
257.10886 1046.2388 191.21216
262.57916 1046.2388 191.21216
268.04968 1046.2388 191.21216
273.52002 1046.2388 191.21216
278.99033 1046.2388 191.21216
284.46085 1046.2388 191.21216
289.93118 1046.2388 191.21216
295.40167 1046.2388 191.21216
300.87201 1046.2388 191.21216
306.34235 1046.2388 191.21216
311.81284 1046.2388 191.21216
317.28317 1046.2388 191.21216
322.75369 1046.2388 191.21216
328.224 1046.2388 191.21216
333.69434 1046.2388 191.21216
339.16486 1046.2388 191.21216
344.63519 1046.2388 191.21216
350.10568 1046.2388 191.21216
355.57602 1046.2388 191.21216
361.04636 1046.2388 191.21216
366.51685 1046.2388 191.21216
375.44473 1035.3287 218.08594
380.96613 1035.3287 218.08594
386.48727 1035.3287 218.08594
392.00842 1035.3287 218.08594
397.52982 1035.3287 218.08594
406.76279 1024.4187 244.95923
416.22742 1013.1326 272.75952
-261.59735 1092.5867 63.140869
-256.36539 1092.5867 63.140869
-251.13341 1092.5867 63.140869
-248.04411 1082.7633 87.216553
-242.76656 1082.7633 87.216553
-237.48901 1082.7633 87.216553
-232.21146 1082.7633 87.216553
-226.93391 1082.7633 87.216553
-221.65645 1082.7633 87.216553
-216.37889 1082.7633 87.216553
-211.10133 1082.7633 87.216553
-205.82379 1082.7633 87.216553
-200.54623 1082.7633 87.216553
-195.26877 1082.7633 87.216553
-189.99123 1082.7633 87.216553
-184.71367 1082.7633 87.216553
-179.43613 1082.7633 87.216553
-174.15857 1082.7633 87.216553
-168.8811 1082.7633 87.216553
-163.60356 1082.7633 87.216553
-158.326 1082.7633 87.216553
-153.04846 1082.7633 87.216553
-147.7709 1082.7633 87.216553
-142.49345 1082.7633 87.216553
-137.21588 1082.7633 87.216553
-131.93834 1082.7633 87.216553
-126.66079 1082.7633 87.216553
-121.38322 1082.7633 87.216553
-116.10578 1082.7633 87.216553
-110.82822 1082.7633 87.216553
-105.55067 1082.7633 87.216553
-99.406967 1092.5867 63.140869
-94.175003 1092.5867 63.140869
-88.943138 1092.5867 63.140869
-83.711174 1092.5867 63.140869
-78.479202 1092.5867 63.140869
-73.247231 1092.5867 63.140869
-68.015266 1092.5867 63.140869
-62.236362 1102.4099 39.06543
-56.567814 1111.8553 15.915527
-51.42527 1111.8553 15.915527
-46.282722 1111.8553 15.915527
-40.789509 1121.3009 -7.2341309
-35.690891 1121.3009 -7.2341309
-30.592182 1121.3009 -7.2341309
-25.493467 1121.3009 -7.2341309
-20.570087 1111.8553 15.915527
-15.427542 1111.8553 15.915527
-10.285093 1111.8553 15.915527
-5.1425467 1111.8553 15.915527
0 1111.8553 15.915527
5.1424484 1111.8553 15.915527
10.285093 1111.8553 15.915527
15.559041 1102.4099 39.06543
20.74552 1102.4099 39.06543
25.931801 1102.4099 39.06543
31.118082 1102.4099 39.06543
36.304562 1102.4099 39.06543
41.490841 1102.4099 39.06543
46.677322 1102.4099 39.06543
51.863602 1102.4099 39.06543
57.049881 1102.4099 39.06543
62.236362 1102.4099 39.06543
68.015266 1092.5867 63.140869
73.247337 1092.5867 63.140869
78.479202 1092.5867 63.140869
83.711067 1092.5867 63.140869
88.943138 1092.5867 63.140869
94.175003 1092.5867 63.140869
99.407066 1092.5867 63.140869
103.7272 1102.4099 39.06543
108.91348 1102.4099 39.06543
115.10287 1092.5867 63.140869
119.28625 1102.4099 39.06543
124.47272 1102.4099 39.06543
130.79868 1092.5867 63.140869
136.03053 1092.5867 63.140869
142.49345 1082.7633 87.216553
147.7709 1082.7633 87.216553
153.04855 1082.7633 87.216553
158.326 1082.7633 87.216553
165.071 1072.5623 112.21802
170.396 1072.5623 112.21802
175.72078 1072.5623 112.21802
181.04578 1072.5623 112.21802
186.37057 1072.5623 112.21802
191.69536 1072.5623 112.21802
198.77194 1062.3611 137.21973
202.34515 1072.5623 112.21802
207.67015 1072.5623 112.21802
262.57916 1041.2032 189.07471
268.04968 1041.2032 189.07471
273.52002 1041.2032 189.07471
278.99033 1041.2032 189.07471
284.46085 1041.2032 189.07471
289.93118 1041.2032 189.07471
295.40167 1041.2032 189.07471
300.87201 1041.2032 189.07471
306.34235 1041.2032 189.07471
311.81284 1041.2032 189.07471
317.28317 1041.2032 189.07471
322.75369 1041.2032 189.07471
328.224 1041.2032 189.07471
333.69434 1041.2032 189.07471
339.16486 1041.2032 189.07471
344.63519 1041.2032 189.07471
350.10568 1041.2032 189.07471
358.88104 1030.2463 215.92847
361.04636 1041.2032 189.07471
366.51685 1041.2032 189.07471
375.44473 1030.2463 215.92847
380.96613 1030.2463 215.92847
386.48727 1030.2463 215.92847
392.00842 1030.2463 215.92847
397.52982 1030.2463 215.92847
406.76279 1019.2897 242.78198
412.33502 1019.2897 242.78198
417.90701 1019.2897 242.78198
-266.82932 1087.7705 61.09668
-261.59735 1087.7705 61.09668
-256.36539 1087.7705 61.09668
-253.32158 1077.9053 85.154297
-248.04411 1077.9053 85.154297
-242.76656 1077.9053 85.154297
-237.48901 1077.9053 85.154297
-232.21146 1077.9053 85.154297
-226.93391 1077.9053 85.154297
-221.65645 1077.9053 85.154297
-216.37889 1077.9053 85.154297
-211.10133 1077.9053 85.154297
-205.82379 1077.9053 85.154297
-200.54623 1077.9053 85.154297
-195.26877 1077.9053 85.154297
-189.99123 1077.9053 85.154297
-184.71367 1077.9053 85.154297
-179.43613 1077.9053 85.154297
-174.15857 1077.9053 85.154297
-168.8811 1077.9053 85.154297
-163.60356 1077.9053 85.154297
-158.326 1077.9053 85.154297
-153.04846 1077.9053 85.154297
-147.7709 1077.9053 85.154297
-142.49345 1077.9053 85.154297
-137.21588 1077.9053 85.154297
-131.93834 1077.9053 85.154297
-126.66079 1077.9053 85.154297
-121.38322 1077.9053 85.154297
-116.10578 1077.9053 85.154297
-110.82822 1077.9053 85.154297
-105.55067 1077.9053 85.154297
-100.27312 1077.9053 85.154297
-94.175003 1087.7705 61.09668
-88.943138 1087.7705 61.09668
-83.711174 1087.7705 61.09668
-78.479202 1087.7705 61.09668
-73.247231 1087.7705 61.09668
-68.015266 1087.7705 61.09668
-62.236362 1097.6357 37.038818
-56.567814 1107.1216 13.90625
-51.42527 1107.1216 13.90625
-46.282722 1107.1216 13.90625
-40.789509 1116.6074 -9.2263184
-35.690891 1116.6074 -9.2263184
-30.592182 1116.6074 -9.2263184
-25.493467 1116.6074 -9.2263184
-20.570087 1107.1216 13.90625
-15.427542 1107.1216 13.90625
-10.285093 1107.1216 13.90625
-5.1425467 1107.1216 13.90625
0 1107.1216 13.90625
5.1424484 1107.1216 13.90625
10.285093 1107.1216 13.90625
15.559041 1097.6357 37.038818
20.74552 1097.6357 37.038818
25.931801 1097.6357 37.038818
31.118082 1097.6357 37.038818
36.304562 1097.6357 37.038818
41.490841 1097.6357 37.038818
46.677322 1097.6357 37.038818
51.863602 1097.6357 37.038818
57.551338 1087.7705 61.09668
62.783401 1087.7705 61.09668
68.015266 1087.7705 61.09668
73.247337 1087.7705 61.09668
78.479202 1087.7705 61.09668
83.711067 1087.7705 61.09668
88.943138 1087.7705 61.09668
94.175003 1087.7705 61.09668
99.407066 1087.7705 61.09668
103.7272 1097.6357 37.038818
108.91348 1097.6357 37.038818
115.10287 1087.7705 61.09668
120.33474 1087.7705 61.09668
125.5668 1087.7705 61.09668
130.79868 1087.7705 61.09668
136.03053 1087.7705 61.09668
141.2626 1087.7705 61.09668
146.49446 1087.7705 61.09668
153.04855 1077.9053 85.154297
158.326 1077.9053 85.154297
163.60345 1077.9053 85.154297
170.396 1067.6605 110.13745
175.72078 1067.6605 110.13745
181.04578 1067.6605 110.13745
186.37057 1067.6605 110.13745
191.69536 1067.6605 110.13745
198.77194 1057.4158 135.12061
202.34515 1067.6605 110.13745
207.67015 1067.6605 110.13745
212.99493 1067.6605 110.13745
268.04968 1036.1676 186.93726
273.52002 1036.1676 186.93726
278.99033 1036.1676 186.93726
284.46085 1036.1676 186.93726
289.93118 1036.1676 186.93726
295.40167 1036.1676 186.93726
300.87201 1036.1676 186.93726
306.34235 1036.1676 186.93726
311.81284 1036.1676 186.93726
317.28317 1036.1676 186.93726
322.75369 1036.1676 186.93726
328.224 1036.1676 186.93726
333.69434 1036.1676 186.93726
339.16486 1036.1676 186.93726
344.63519 1036.1676 186.93726
350.10568 1036.1676 186.93726
358.88104 1025.1639 213.77124
361.04636 1036.1676 186.93726
366.51685 1036.1676 186.93726
375.44473 1025.1639 213.77124
380.96613 1025.1639 213.77124
386.48727 1025.1639 213.77124
392.00842 1025.1639 213.77124
397.52982 1025.1639 213.77124
406.76279 1014.1604 240.60474
412.33502 1014.1604 240.60474
417.90701 1014.1604 240.60474
423.47903 1014.1604 240.60474
-279.35516 1052.4707 133.02148
-266.82932 1082.9545 59.052246
-261.59735 1082.9545 59.052246
-256.36539 1082.9545 59.052246
-253.32158 1073.0472 83.092285
-248.04411 1073.0472 83.092285
-242.76656 1073.0472 83.092285
-237.48901 1073.0472 83.092285
-232.21146 1073.0472 83.092285
-226.93391 1073.0472 83.092285
-221.65645 1073.0472 83.092285
-216.37889 1073.0472 83.092285
-211.10133 1073.0472 83.092285
-205.82379 1073.0472 83.092285
-200.54623 1073.0472 83.092285
-195.26877 1073.0472 83.092285
-189.99123 1073.0472 83.092285
-184.71367 1073.0472 83.092285
-179.43613 1073.0472 83.092285
-174.15857 1073.0472 83.092285
-168.8811 1073.0472 83.092285
-163.60356 1073.0472 83.092285
-158.326 1073.0472 83.092285
-153.04846 1073.0472 83.092285
-147.7709 1073.0472 83.092285
-142.49345 1073.0472 83.092285
-137.21588 1073.0472 83.092285
-131.93834 1073.0472 83.092285
-126.66079 1073.0472 83.092285
-121.38322 1073.0472 83.092285
-116.10578 1073.0472 83.092285
-110.82822 1073.0472 83.092285
-105.55067 1073.0472 83.092285
-100.27312 1073.0472 83.092285
-94.99556 1073.0472 83.092285
-88.943138 1082.9545 59.052246
-83.711174 1082.9545 59.052246
-78.479202 1082.9545 59.052246
-73.247231 1082.9545 59.052246
-68.015266 1082.9545 59.052246
-62.783401 1082.9545 59.052246
-56.567814 1102.3879 11.896973
-51.42527 1102.3879 11.896973
-46.282722 1102.3879 11.896973
-41.140175 1102.3879 11.896973
-35.690891 1111.9141 -11.218506
-30.592182 1111.9141 -11.218506
-25.493467 1111.9141 -11.218506
-20.570087 1102.3879 11.896973
-15.427542 1102.3879 11.896973
-10.37276 1092.8617 35.012451
-5.1863799 1092.8617 35.012451
0 1092.8617 35.012451
5.1424484 1102.3879 11.896973
10.285093 1102.3879 11.896973
15.559041 1092.8617 35.012451
20.74552 1092.8617 35.012451
25.931801 1092.8617 35.012451
31.118082 1092.8617 35.012451
36.304562 1092.8617 35.012451
41.490841 1092.8617 35.012451
46.677322 1092.8617 35.012451
51.863602 1092.8617 35.012451
57.551338 1082.9545 59.052246
62.783401 1082.9545 59.052246
68.015266 1082.9545 59.052246
73.247337 1082.9545 59.052246
78.479202 1082.9545 59.052246
83.711067 1082.9545 59.052246
88.943138 1082.9545 59.052246
94.175003 1082.9545 59.052246
99.407066 1082.9545 59.052246
104.63894 1082.9545 59.052246
109.8708 1082.9545 59.052246
115.10287 1082.9545 59.052246
120.33474 1082.9545 59.052246
125.5668 1082.9545 59.052246
130.79868 1082.9545 59.052246
136.03053 1082.9545 59.052246
141.2626 1082.9545 59.052246
146.49446 1082.9545 59.052246
153.04855 1073.0472 83.092285
158.326 1073.0472 83.092285
163.60345 1073.0472 83.092285
170.396 1062.759 108.05688
175.72078 1062.759 108.05688
181.04578 1062.759 108.05688
186.37057 1062.759 108.05688
191.69536 1062.759 108.05688
198.77194 1052.4707 133.02148
202.34515 1062.759 108.05688
207.67015 1062.759 108.05688
212.99493 1062.759 108.05688
281.90799 1041.8014 158.91089
289.93118 1031.1321 184.7998
295.40167 1031.1321 184.7998
300.87201 1031.1321 184.7998
306.34235 1031.1321 184.7998
311.81284 1031.1321 184.7998
317.28317 1031.1321 184.7998
322.75369 1031.1321 184.7998
328.224 1031.1321 184.7998
333.69434 1031.1321 184.7998
339.16486 1031.1321 184.7998
344.63519 1031.1321 184.7998
353.35989 1020.0817 211.61377
358.88104 1020.0817 211.61377
364.40219 1020.0817 211.61377
369.92358 1020.0817 211.61377
375.44473 1020.0817 211.61377
380.96613 1020.0817 211.61377
386.48727 1020.0817 211.61377
392.00842 1020.0817 211.61377
397.52982 1020.0817 211.61377
403.05096 1020.0817 211.61377
412.33502 1009.0312 238.42773
417.90701 1009.0312 238.42773
423.47903 1009.0312 238.42773
429.05124 1009.0312 238.42773
430.6572 1020.0817 211.61377
436.17859 1020.0817 211.61377
441.69974 1020.0817 211.61377
-284.72726 1047.5255 130.92236
-279.35516 1047.5255 130.92236
-269.15424 1068.1892 81.030273
-263.87668 1068.1892 81.030273
-258.59912 1068.1892 81.030273
-253.32158 1068.1892 81.030273
-248.04411 1068.1892 81.030273
-242.76656 1068.1892 81.030273
-237.48901 1068.1892 81.030273
-232.21146 1068.1892 81.030273
-226.93391 1068.1892 81.030273
-221.65645 1068.1892 81.030273
-216.37889 1068.1892 81.030273
-211.10133 1068.1892 81.030273
-205.82379 1068.1892 81.030273
-200.54623 1068.1892 81.030273
-195.26877 1068.1892 81.030273
-189.99123 1068.1892 81.030273
-184.71367 1068.1892 81.030273
-179.43613 1068.1892 81.030273
-174.15857 1068.1892 81.030273
-168.8811 1068.1892 81.030273
-163.60356 1068.1892 81.030273
-158.326 1068.1892 81.030273
-153.04846 1068.1892 81.030273
-147.7709 1068.1892 81.030273
-142.49345 1068.1892 81.030273
-137.21588 1068.1892 81.030273
-131.93834 1068.1892 81.030273
-126.66079 1068.1892 81.030273
-121.38322 1068.1892 81.030273
-116.10578 1068.1892 81.030273
-110.82822 1068.1892 81.030273
-105.55067 1068.1892 81.030273
-100.27312 1068.1892 81.030273
-94.99556 1068.1892 81.030273
-88.943138 1078.1384 57.008057
-83.711174 1078.1384 57.008057
-78.479202 1078.1384 57.008057
-73.247231 1078.1384 57.008057
-68.015266 1078.1384 57.008057
-62.783401 1078.1384 57.008057
-56.567814 1097.6542 9.8874512
-51.42527 1097.6542 9.8874512
-46.282722 1097.6542 9.8874512
-41.140175 1097.6542 9.8874512
-35.690891 1107.2207 -13.210693
-30.592182 1107.2207 -13.210693
-25.493467 1107.2207 -13.210693
-20.570087 1097.6542 9.8874512
-15.559041 1088.0876 32.98584
-10.37276 1088.0876 32.98584
-5.1863799 1088.0876 32.98584
0 1088.0876 32.98584
5.1862807 1088.0876 32.98584
10.37276 1088.0876 32.98584
15.559041 1088.0876 32.98584
20.74552 1088.0876 32.98584
25.931801 1088.0876 32.98584
31.118082 1088.0876 32.98584
36.304562 1088.0876 32.98584
41.490841 1088.0876 32.98584
47.087601 1078.1384 57.008057
52.319469 1078.1384 57.008057
57.551338 1078.1384 57.008057
62.783401 1078.1384 57.008057
68.015266 1078.1384 57.008057
73.247337 1078.1384 57.008057
78.479202 1078.1384 57.008057
83.711067 1078.1384 57.008057
88.943138 1078.1384 57.008057
94.175003 1078.1384 57.008057
99.407066 1078.1384 57.008057
104.63894 1078.1384 57.008057
109.8708 1078.1384 57.008057
115.10287 1078.1384 57.008057
120.33474 1078.1384 57.008057
125.5668 1078.1384 57.008057
130.79868 1078.1384 57.008057
136.03053 1078.1384 57.008057
142.49345 1068.1892 81.030273
147.7709 1068.1892 81.030273
153.04855 1068.1892 81.030273
158.326 1068.1892 81.030273
165.071 1057.8574 105.97632
170.396 1057.8574 105.97632
175.72078 1057.8574 105.97632
181.04578 1057.8574 105.97632
186.37057 1057.8574 105.97632
193.39961 1047.5255 130.92236
198.77194 1047.5255 130.92236
204.14407 1047.5255 130.92236
209.5164 1047.5255 130.92236
214.88853 1047.5255 130.92236
281.90799 1036.811 156.79248
289.93118 1026.0966 182.66235
295.40167 1026.0966 182.66235
303.66858 1014.9993 209.45654
309.18973 1014.9993 209.45654
311.81284 1026.0966 182.66235
317.28317 1026.0966 182.66235
322.75369 1026.0966 182.66235
328.224 1026.0966 182.66235
333.69434 1026.0966 182.66235
339.16486 1026.0966 182.66235
344.63519 1026.0966 182.66235
353.35989 1014.9993 209.45654
358.88104 1014.9993 209.45654
364.40219 1014.9993 209.45654
369.92358 1014.9993 209.45654
375.44473 1014.9993 209.45654
380.96613 1014.9993 209.45654
386.48727 1014.9993 209.45654
392.00842 1014.9993 209.45654
397.52982 1014.9993 209.45654
403.05096 1014.9993 209.45654
408.57236 1014.9993 209.45654
414.09351 1014.9993 209.45654
423.47903 1003.9021 236.25049
429.05124 1003.9021 236.25049
430.6572 1014.9993 209.45654
436.17859 1014.9993 209.45654
441.69974 1014.9993 209.45654
-290.09952 1042.5803 128.82324
-284.72726 1042.5803 128.82324
-279.35516 1042.5803 128.82324
-269.15424 1063.3313 78.968018
-263.87668 1063.3313 78.968018
-258.59912 1063.3313 78.968018
-253.32158 1063.3313 78.968018
-248.04411 1063.3313 78.968018
-242.76656 1063.3313 78.968018
-237.48901 1063.3313 78.968018
-232.21146 1063.3313 78.968018
-226.93391 1063.3313 78.968018
-221.65645 1063.3313 78.968018
-216.37889 1063.3313 78.968018
-211.10133 1063.3313 78.968018
-205.82379 1063.3313 78.968018
-200.54623 1063.3313 78.968018
-195.26877 1063.3313 78.968018
-189.99123 1063.3313 78.968018
-184.71367 1063.3313 78.968018
-179.43613 1063.3313 78.968018
-175.72078 1052.9559 103.89551
-170.396 1052.9559 103.89551
-163.60356 1063.3313 78.968018
-158.326 1063.3313 78.968018
-153.04846 1063.3313 78.968018
-146.49446 1073.3225 54.963867
-141.2626 1073.3225 54.963867
-137.21588 1063.3313 78.968018
-131.93834 1063.3313 78.968018
-126.66079 1063.3313 78.968018
-121.38322 1063.3313 78.968018
-116.10578 1063.3313 78.968018
-110.82822 1063.3313 78.968018
-105.55067 1063.3313 78.968018
-100.27312 1063.3313 78.968018
-94.99556 1063.3313 78.968018
-88.943138 1073.3225 54.963867
-83.711174 1073.3225 54.963867
-78.479202 1073.3225 54.963867
-73.247231 1073.3225 54.963867
-68.015266 1073.3225 54.963867
-62.236362 1083.3136 30.959473
-56.567814 1092.9204 7.8781738
-51.42527 1092.9204 7.8781738
-46.282722 1092.9204 7.8781738
-41.140175 1092.9204 7.8781738
-35.997726 1092.9204 7.8781738
-30.592182 1102.5273 -15.203125
-25.493467 1102.5273 -15.203125
-20.570087 1092.9204 7.8781738
-15.559041 1083.3136 30.959473
-10.37276 1083.3136 30.959473
-5.1863799 1083.3136 30.959473
0 1083.3136 30.959473
5.1862807 1083.3136 30.959473
10.37276 1083.3136 30.959473
15.695801 1073.3225 54.963867
20.927866 1073.3225 54.963867
26.159735 1073.3225 54.963867
31.391602 1073.3225 54.963867
36.623669 1073.3225 54.963867
41.855534 1073.3225 54.963867
47.087601 1073.3225 54.963867
52.319469 1073.3225 54.963867
57.551338 1073.3225 54.963867
62.783401 1073.3225 54.963867
68.015266 1073.3225 54.963867
73.247337 1073.3225 54.963867
78.479202 1073.3225 54.963867
83.711067 1073.3225 54.963867
88.943138 1073.3225 54.963867
94.175003 1073.3225 54.963867
99.407066 1073.3225 54.963867
104.63894 1073.3225 54.963867
109.8708 1073.3225 54.963867
115.10287 1073.3225 54.963867
120.33474 1073.3225 54.963867
125.5668 1073.3225 54.963867
130.79868 1073.3225 54.963867
137.21579 1063.3313 78.968018
142.49345 1063.3313 78.968018
147.7709 1063.3313 78.968018
153.04855 1063.3313 78.968018
158.326 1063.3313 78.968018
163.60345 1063.3313 78.968018
170.396 1052.9559 103.89551
177.283 1042.5803 128.82324
182.65533 1042.5803 128.82324
188.02748 1042.5803 128.82324
193.39961 1042.5803 128.82324
198.77194 1042.5803 128.82324
204.14407 1042.5803 128.82324
209.5164 1042.5803 128.82324
284.46085 1021.061 180.5249
289.93118 1021.061 180.5249
295.40167 1021.061 180.5249
303.66858 1009.917 207.29932
309.18973 1009.917 207.29932
314.71112 1009.917 207.29932
320.23227 1009.917 207.29932
325.75366 1009.917 207.29932
331.27481 1009.917 207.29932
336.79596 1009.917 207.29932
342.31735 1009.917 207.29932
347.8385 1009.917 207.29932
353.35989 1009.917 207.29932
358.88104 1009.917 207.29932
364.40219 1009.917 207.29932
369.92358 1009.917 207.29932
375.44473 1009.917 207.29932
380.96613 1009.917 207.29932
386.48727 1009.917 207.29932
392.00842 1009.917 207.29932
397.52982 1009.917 207.29932
403.05096 1009.917 207.29932
408.57236 1009.917 207.29932
414.09351 1009.917 207.29932
423.47903 998.77295 234.07324
429.05124 998.77295 234.07324
434.62326 998.77295 234.07324
440.19547 998.77295 234.07324
445.76749 998.77295 234.07324
455.6001 987.24475 261.77075
-295.47174 1037.6353 126.72437
-290.09952 1037.6353 126.72437
-282.21826 1048.0543 101.81494
-276.89346 1048.0543 101.81494
-269.15424 1058.4733 76.906006
-263.87668 1058.4733 76.906006
-258.59912 1058.4733 76.906006
-253.32158 1058.4733 76.906006
-248.04411 1058.4733 76.906006
-242.76656 1058.4733 76.906006
-237.48901 1058.4733 76.906006
-232.21146 1058.4733 76.906006
-226.93391 1058.4733 76.906006
-221.65645 1058.4733 76.906006
-216.37889 1058.4733 76.906006
-211.10133 1058.4733 76.906006
-205.82379 1058.4733 76.906006
-200.54623 1058.4733 76.906006
-195.26877 1058.4733 76.906006
-189.99123 1058.4733 76.906006
-184.71367 1058.4733 76.906006
-179.43613 1058.4733 76.906006
-175.72078 1048.0543 101.81494
-170.396 1048.0543 101.81494
-163.60356 1058.4733 76.906006
-158.326 1058.4733 76.906006
-153.04846 1058.4733 76.906006
-146.49446 1068.5065 52.919434
-141.2626 1068.5065 52.919434
-137.21588 1058.4733 76.906006
-131.93834 1058.4733 76.906006
-126.66079 1058.4733 76.906006
-121.38322 1058.4733 76.906006
-116.10578 1058.4733 76.906006
-110.82822 1058.4733 76.906006
-105.55067 1058.4733 76.906006
-100.27312 1058.4733 76.906006
-94.99556 1058.4733 76.906006
-89.718109 1058.4733 76.906006
-83.711174 1068.5065 52.919434
-78.479202 1068.5065 52.919434
-73.247231 1068.5065 52.919434
-68.015266 1068.5065 52.919434
-62.236362 1078.5394 28.932861
-56.567814 1088.1868 5.8688965
-51.42527 1088.1868 5.8688965
-46.282722 1088.1868 5.8688965
-41.140175 1088.1868 5.8688965
-35.997726 1088.1868 5.8688965
-30.592182 1097.834 -17.195312
-25.493467 1097.834 -17.195312
-20.570087 1088.1868 5.8688965
-15.559041 1078.5394 28.932861
-10.37276 1078.5394 28.932861
-5.1863799 1078.5394 28.932861
0 1078.5394 28.932861
5.1862807 1078.5394 28.932861
10.37276 1078.5394 28.932861
15.695801 1068.5065 52.919434
20.927866 1068.5065 52.919434
26.159735 1068.5065 52.919434
31.391602 1068.5065 52.919434
36.623669 1068.5065 52.919434
41.855534 1068.5065 52.919434
47.087601 1068.5065 52.919434
52.319469 1068.5065 52.919434
57.551338 1068.5065 52.919434
62.783401 1068.5065 52.919434
68.015266 1068.5065 52.919434
73.247337 1068.5065 52.919434
78.479202 1068.5065 52.919434
83.711067 1068.5065 52.919434
88.943138 1068.5065 52.919434
94.175003 1068.5065 52.919434
99.407066 1068.5065 52.919434
104.63894 1068.5065 52.919434
109.8708 1068.5065 52.919434
115.10287 1068.5065 52.919434
120.33474 1068.5065 52.919434
125.5668 1068.5065 52.919434
130.79868 1068.5065 52.919434
136.03053 1068.5065 52.919434
142.49345 1058.4733 76.906006
147.7709 1058.4733 76.906006
153.04855 1058.4733 76.906006
158.326 1058.4733 76.906006
163.60345 1058.4733 76.906006
170.396 1048.0543 101.81494
175.72078 1048.0543 101.81494
182.65533 1037.6353 126.72437
188.02748 1037.6353 126.72437
193.39961 1037.6353 126.72437
198.77194 1037.6353 126.72437
204.14407 1037.6353 126.72437
209.5164 1037.6353 126.72437
284.46085 1016.0255 178.38745
289.93118 1016.0255 178.38745
295.40167 1016.0255 178.38745
300.87201 1016.0255 178.38745
309.18973 1004.8346 205.14185
314.71112 1004.8346 205.14185
320.23227 1004.8346 205.14185
325.75366 1004.8346 205.14185
331.27481 1004.8346 205.14185
336.79596 1004.8346 205.14185
342.31735 1004.8346 205.14185
347.8385 1004.8346 205.14185
353.35989 1004.8346 205.14185
358.88104 1004.8346 205.14185
364.40219 1004.8346 205.14185
369.92358 1004.8346 205.14185
375.44473 1004.8346 205.14185
380.96613 1004.8346 205.14185
386.48727 1004.8346 205.14185
392.00842 1004.8346 205.14185
397.52982 1004.8346 205.14185
403.05096 1004.8346 205.14185
408.57236 1004.8346 205.14185
414.09351 1004.8346 205.14185
423.47903 993.64392 231.896
429.05124 993.64392 231.896
434.62326 993.64392 231.896
440.19547 993.64392 231.896
445.76749 993.64392 231.896
451.33948 993.64392 231.896
-292.86804 1043.1527 99.734375
-287.54315 1043.1527 99.734375
-282.21826 1043.1527 99.734375
-276.89346 1043.1527 99.734375
-269.15424 1053.6152 74.843994
-263.87668 1053.6152 74.843994
-258.59912 1053.6152 74.843994
-253.32158 1053.6152 74.843994
-248.04411 1053.6152 74.843994
-242.76656 1053.6152 74.843994
-237.48901 1053.6152 74.843994
-232.21146 1053.6152 74.843994
-226.93391 1053.6152 74.843994
-221.65645 1053.6152 74.843994
-216.37889 1053.6152 74.843994
-211.10133 1053.6152 74.843994
-205.82379 1053.6152 74.843994
-200.54623 1053.6152 74.843994
-195.26877 1053.6152 74.843994
-189.99123 1053.6152 74.843994
-184.71367 1053.6152 74.843994
-179.43613 1053.6152 74.843994
-175.72078 1043.1527 99.734375
-130.79868 1063.6904 50.875244
-125.5667 1063.6904 50.875244
-120.33474 1063.6904 50.875244
-116.10578 1053.6152 74.843994
-110.82822 1053.6152 74.843994
-105.55067 1053.6152 74.843994
-100.27312 1053.6152 74.843994
-94.99556 1053.6152 74.843994
-89.718109 1053.6152 74.843994
-84.440552 1053.6152 74.843994
-78.479202 1063.6904 50.875244
-73.247231 1063.6904 50.875244
-68.015266 1063.6904 50.875244
-62.236362 1073.7654 26.906494
-57.04998 1073.7654 26.906494
-51.863602 1073.7654 26.906494
-46.677223 1073.7654 26.906494
-41.140175 1083.453 3.8596191
-35.997726 1083.453 3.8596191
-30.592182 1093.1406 -19.1875
-25.493467 1093.1406 -19.1875
-20.570087 1083.453 3.8596191
-15.559041 1073.7654 26.906494
-10.37276 1073.7654 26.906494
-5.1863799 1073.7654 26.906494
0 1073.7654 26.906494
5.1862807 1073.7654 26.906494
10.37276 1073.7654 26.906494
15.695801 1063.6904 50.875244
20.927866 1063.6904 50.875244
26.159735 1063.6904 50.875244
31.391602 1063.6904 50.875244
36.623669 1063.6904 50.875244
41.855534 1063.6904 50.875244
47.087601 1063.6904 50.875244
52.319469 1063.6904 50.875244
57.551338 1063.6904 50.875244
62.783401 1063.6904 50.875244
68.015266 1063.6904 50.875244
73.247337 1063.6904 50.875244
78.479202 1063.6904 50.875244
83.711067 1063.6904 50.875244
88.943138 1063.6904 50.875244
94.175003 1063.6904 50.875244
99.407066 1063.6904 50.875244
104.63894 1063.6904 50.875244
109.8708 1063.6904 50.875244
115.10287 1063.6904 50.875244
120.33474 1063.6904 50.875244
125.5668 1063.6904 50.875244
130.79868 1063.6904 50.875244
136.03053 1063.6904 50.875244
142.49345 1053.6152 74.843994
147.7709 1053.6152 74.843994
153.04855 1053.6152 74.843994
158.326 1053.6152 74.843994
163.60345 1053.6152 74.843994
170.396 1043.1527 99.734375
175.72078 1043.1527 99.734375
182.65533 1032.6901 124.62524
188.02748 1032.6901 124.62524
193.39961 1032.6901 124.62524
200.58839 1021.8401 150.43774
206.00961 1021.8401 150.43774
289.93118 1010.99 176.25
295.40167 1010.99 176.25
300.87201 1010.99 176.25
309.18973 999.75232 202.98462
314.71112 999.75232 202.98462
320.23227 999.75232 202.98462
325.75366 999.75232 202.98462
331.27481 999.75232 202.98462
336.79596 999.75232 202.98462
342.31735 999.75232 202.98462
347.8385 999.75232 202.98462
353.35989 999.75232 202.98462
358.88104 999.75232 202.98462
364.40219 999.75232 202.98462
369.92358 999.75232 202.98462
375.44473 999.75232 202.98462
380.96613 999.75232 202.98462
386.48727 999.75232 202.98462
392.00842 999.75232 202.98462
397.52982 999.75232 202.98462
403.05096 999.75232 202.98462
408.57236 999.75232 202.98462
414.09351 999.75232 202.98462
423.47903 988.51477 229.71899
429.05124 988.51477 229.71899
434.62326 988.51477 229.71899
440.19547 988.51477 229.71899
445.76749 988.51477 229.71899
451.33948 988.51477 229.71899
456.91168 988.51477 229.71899
-303.51782 1038.2512 97.653809
-298.19293 1038.2512 97.653809
-292.86804 1038.2512 97.653809
-287.54315 1038.2512 97.653809
-282.21826 1038.2512 97.653809
-276.89346 1038.2512 97.653809
-269.15424 1048.7573 72.781738
-263.87668 1048.7573 72.781738
-258.59912 1048.7573 72.781738
-253.32158 1048.7573 72.781738
-248.04411 1048.7573 72.781738
-242.76656 1048.7573 72.781738
-237.48901 1048.7573 72.781738
-232.21146 1048.7573 72.781738
-226.93391 1048.7573 72.781738
-221.65645 1048.7573 72.781738
-216.37889 1048.7573 72.781738
-211.10133 1048.7573 72.781738
-205.82379 1048.7573 72.781738
-200.54623 1048.7573 72.781738
-195.26877 1048.7573 72.781738
-191.69547 1038.2512 97.653809
-186.37057 1038.2512 97.653809
-181.04568 1038.2512 97.653809
-130.79868 1058.8744 48.830811
-125.5667 1058.8744 48.830811
-120.33474 1058.8744 48.830811
-115.10287 1058.8744 48.830811
-109.87091 1058.8744 48.830811
-105.55067 1048.7573 72.781738
-100.27312 1048.7573 72.781738
-94.99556 1048.7573 72.781738
-89.718109 1048.7573 72.781738
-83.711174 1058.8744 48.830811
-78.479202 1058.8744 48.830811
-73.247231 1058.8744 48.830811
-68.015266 1058.8744 48.830811
-62.236362 1068.9913 24.879883
-57.04998 1068.9913 24.879883
-51.863602 1068.9913 24.879883
-46.677223 1068.9913 24.879883
-41.140175 1078.7194 1.8500977
-35.997726 1078.7194 1.8500977
-30.855181 1078.7194 1.8500977
-25.712635 1078.7194 1.8500977
-20.570087 1078.7194 1.8500977
-15.559041 1068.9913 24.879883
-10.37276 1068.9913 24.879883
-5.1863799 1068.9913 24.879883
0 1068.9913 24.879883
5.1862807 1068.9913 24.879883
10.463933 1058.8744 48.830811
15.695801 1058.8744 48.830811
20.927866 1058.8744 48.830811
26.159735 1058.8744 48.830811
31.391602 1058.8744 48.830811
36.942772 1048.7573 72.781738
41.855534 1058.8744 48.830811
47.087601 1058.8744 48.830811
52.319469 1058.8744 48.830811
58.052788 1048.7573 72.781738
63.330441 1048.7573 72.781738
68.015266 1058.8744 48.830811
73.247337 1058.8744 48.830811
78.479202 1058.8744 48.830811
83.711067 1058.8744 48.830811
88.943138 1058.8744 48.830811
94.175003 1058.8744 48.830811
99.407066 1058.8744 48.830811
104.63894 1058.8744 48.830811
109.8708 1058.8744 48.830811
115.10287 1058.8744 48.830811
120.33474 1058.8744 48.830811
125.5668 1058.8744 48.830811
130.79868 1058.8744 48.830811
136.03053 1058.8744 48.830811
142.49345 1048.7573 72.781738
147.7709 1048.7573 72.781738
153.04855 1048.7573 72.781738
158.326 1048.7573 72.781738
163.60345 1048.7573 72.781738
170.396 1038.2512 97.653809
175.72078 1038.2512 97.653809
182.65533 1027.745 122.52612
188.02748 1027.745 122.52612
195.16696 1016.8497 148.31934
200.58839 1016.8497 148.31934
206.00961 1016.8497 148.31934
303.66858 994.66992 200.82715
309.18973 994.66992 200.82715
314.71112 994.66992 200.82715
320.23227 994.66992 200.82715
325.75366 994.66992 200.82715
331.27481 994.66992 200.82715
336.79596 994.66992 200.82715
342.31735 994.66992 200.82715
347.8385 994.66992 200.82715
353.35989 994.66992 200.82715
358.88104 994.66992 200.82715
364.40219 994.66992 200.82715
369.92358 994.66992 200.82715
375.44473 994.66992 200.82715
380.96613 994.66992 200.82715
386.48727 994.66992 200.82715
392.00842 994.66992 200.82715
397.52982 994.66992 200.82715
403.05096 994.66992 200.82715
408.57236 994.66992 200.82715
414.09351 994.66992 200.82715
423.47903 983.38562 227.54175
429.05124 983.38562 227.54175
434.62326 983.38562 227.54175
436.17859 994.66992 200.82715
441.69974 994.66992 200.82715
447.22089 994.66992 200.82715
456.91168 983.38562 227.54175
458.26343 994.66992 200.82715
463.78482 994.66992 200.82715
-303.51782 1033.3496 95.573242
-298.19293 1033.3496 95.573242
-292.86804 1033.3496 95.573242
-287.54315 1033.3496 95.573242
-282.21826 1033.3496 95.573242
-274.43176 1043.8993 70.719727
-269.15424 1043.8993 70.719727
-263.87668 1043.8993 70.719727
-258.59912 1043.8993 70.719727
-253.32158 1043.8993 70.719727
-248.04411 1043.8993 70.719727
-242.76656 1043.8993 70.719727
-237.48901 1043.8993 70.719727
-232.21146 1043.8993 70.719727
-226.93391 1043.8993 70.719727
-221.65645 1043.8993 70.719727
-216.37889 1043.8993 70.719727
-211.10133 1043.8993 70.719727
-205.82379 1043.8993 70.719727
-200.54623 1043.8993 70.719727
-197.02036 1033.3496 95.573242
-191.69547 1033.3496 95.573242
-120.33474 1054.0583 46.786621
-115.10287 1054.0583 46.786621
-109.87091 1054.0583 46.786621
