ply
format ascii 1.0
comment PCL generated
element vertex 1586
property float x
property float y
property float z
element camera 0
property float view_px
property float view_py
property float view_pz
property float x_axisx
property float x_axisy
property float x_axisz
property float y_axisx
property float y_axisy
property float y_axisz
property float z_axisx
property float z_axisy
property float z_axisz
property float focal
property float scalex
property float scaley
property float centerx
property float centery
property int viewportx
property int viewporty
property float k1
property float k2
end_header
-118.18874 1022.7998 120.427
-112.81651 1022.7998 120.427
-107.44427 1022.7998 120.427
-102.07204 1022.7998 120.427
-96.699806 1022.7998 120.427
-92.162254 1011.8594 146.20117
-86.740929 1011.8594 146.20117
-81.319603 1011.8594 146.20117
-75.898277 1011.8594 146.20117
-70.476952 1011.8594 146.20117
-65.055725 1011.8594 146.20117
-59.634396 1011.8594 146.20117
-54.21307 1011.8594 146.20117
-48.79174 1011.8594 146.20117
-43.370415 1011.8594 146.20117
-37.949188 1011.8594 146.20117
-32.527863 1011.8594 146.20117
-26.861067 1022.7998 120.427
-21.488834 1022.7998 120.427
-16.26388 1011.8594 146.20117
-10.842655 1011.8594 146.20117
-5.4213276 1011.8594 146.20117
0 1011.8594 146.20117
5.4212241 1011.8594 146.20117
10.842655 1011.8594 146.20117
16.26388 1011.8594 146.20117
21.68531 1011.8594 146.20117
27.106535 1011.8594 146.20117
32.52776 1011.8594 146.20117
37.949188 1011.8594 146.20117
43.763157 1000.9189 171.9751
49.233688 1000.9189 171.9751
54.704002 1000.9189 171.9751
60.174316 1000.9189 171.9751
65.644844 1000.9189 171.9751
71.115158 1000.9189 171.9751
76.585686 1000.9189 171.9751
82.056 1000.9189 171.9751
87.526314 1000.9189 171.9751
92.996849 1000.9189 171.9751
98.467163 1000.9189 171.9751
103.93769 1000.9189 171.9751
109.408 1000.9189 171.9751
114.87832 1000.9189 171.9751
120.34885 1000.9189 171.9751
125.81916 1000.9189 171.9751
131.28969 1000.9189 171.9751
136.76001 1000.9189 171.9751
142.23032 1000.9189 171.9751
147.70084 1000.9189 171.9751
154.59486 989.58765 198.66992
160.11624 989.58765 198.66992
165.63741 989.58765 198.66992
172.73482 978.25647 225.3645
178.30704 978.25647 225.3645
187.35065 954.81262 280.59473
194.87608 942.69995 309.13037
204.53511 917.69312 368.04272
212.39873 905.18982 397.49878
218.29883 905.18982 397.49878
224.19868 905.18982 397.49878
230.0988 905.18982 397.49878
235.99867 905.18982 397.49878
241.89856 905.18982 397.49878
250.30241 891.90491 428.79614
-135.53267 1006.869 144.08276
-128.93311 1017.8546 118.32788
-123.56087 1017.8546 118.32788
-118.18874 1017.8546 118.32788
-112.81651 1017.8546 118.32788
-107.44427 1017.8546 118.32788
-102.07204 1017.8546 118.32788
-96.699806 1017.8546 118.32788
-92.162254 1006.869 144.08276
-86.740929 1006.869 144.08276
-81.319603 1006.869 144.08276
-75.898277 1006.869 144.08276
-70.476952 1006.869 144.08276
-65.055725 1006.869 144.08276
-59.634396 1006.869 144.08276
-54.21307 1006.869 144.08276
-48.79174 1006.869 144.08276
-43.370415 1006.869 144.08276
-37.949188 1006.869 144.08276
-32.527863 1006.869 144.08276
-26.861067 1017.8546 118.32788
-21.488834 1017.8546 118.32788
-16.26388 1006.869 144.08276
-10.842655 1006.869 144.08276
-5.4213276 1006.869 144.08276
0 1006.869 144.08276
5.4212241 1006.869 144.08276
10.842655 1006.869 144.08276
16.26388 1006.869 144.08276
21.68531 1006.869 144.08276
27.106535 1006.869 144.08276
32.52776 1006.869 144.08276
38.292843 995.8833 169.83765
43.763157 995.8833 169.83765
49.233688 995.8833 169.83765
54.704002 995.8833 169.83765
60.174316 995.8833 169.83765
65.644844 995.8833 169.83765
71.115158 995.8833 169.83765
76.585686 995.8833 169.83765
82.056 995.8833 169.83765
87.526314 995.8833 169.83765
92.996849 995.8833 169.83765
98.467163 995.8833 169.83765
103.93769 995.8833 169.83765
109.408 995.8833 169.83765
114.87832 995.8833 169.83765
120.34885 995.8833 169.83765
125.81916 995.8833 169.83765
131.28969 995.8833 169.83765
136.76001 995.8833 169.83765
142.23032 995.8833 169.83765
147.70084 995.8833 169.83765
154.59486 984.50525 196.51245
160.11624 984.50525 196.51245
167.16281 973.12732 223.18726
174.36542 961.35693 250.78198
179.99023 961.35693 250.78198
189.1443 937.42383 306.89087
198.69133 912.31372 365.75928
204.53511 912.31372 365.75928
212.39873 899.75879 395.19336
218.29883 899.75879 395.19336
224.19868 899.75879 395.19336
230.0988 899.75879 395.19336
235.99867 899.75879 395.19336
241.89856 899.75879 395.19336
-135.53267 1001.8787 141.9646
-128.93311 1012.9095 116.22876
-123.56087 1012.9095 116.22876
-118.18874 1012.9095 116.22876
-112.81651 1012.9095 116.22876
-107.44427 1012.9095 116.22876
-102.07204 1012.9095 116.22876
-96.699806 1012.9095 116.22876
-92.162254 1001.8787 141.9646
-86.740929 1001.8787 141.9646
-81.319603 1001.8787 141.9646
-75.898277 1001.8787 141.9646
-70.476952 1001.8787 141.9646
-65.055725 1001.8787 141.9646
-59.634396 1001.8787 141.9646
-54.21307 1001.8787 141.9646
-48.79174 1001.8787 141.9646
-43.370415 1001.8787 141.9646
-37.949188 1001.8787 141.9646
-32.527863 1001.8787 141.9646
-27.106535 1001.8787 141.9646
-21.685207 1001.8787 141.9646
-16.41116 990.8479 167.7002
-10.940842 990.8479 167.7002
-5.4704208 990.8479 167.7002
0 1001.8787 141.9646
5.4212241 1001.8787 141.9646
10.842655 1001.8787 141.9646
16.26388 1001.8787 141.9646
21.68531 1001.8787 141.9646
27.106535 1001.8787 141.9646
32.822319 990.8479 167.7002
38.292843 990.8479 167.7002
43.763157 990.8479 167.7002
49.233688 990.8479 167.7002
54.704002 990.8479 167.7002
60.174316 990.8479 167.7002
65.644844 990.8479 167.7002
71.115158 990.8479 167.7002
76.585686 990.8479 167.7002
82.056 990.8479 167.7002
87.526314 990.8479 167.7002
92.996849 990.8479 167.7002
99.382401 979.42297 194.35522
104.90378 979.42297 194.35522
109.408 990.8479 167.7002
114.87832 990.8479 167.7002
120.34885 990.8479 167.7002
125.81916 990.8479 167.7002
131.28969 990.8479 167.7002
136.76001 990.8479 167.7002
142.23032 990.8479 167.7002
147.70084 990.8479 167.7002
154.59486 979.42297 194.35522
160.11624 979.42297 194.35522
167.16281 967.99817 221.01001
174.36542 956.17944 248.58423
181.67343 944.36072 276.1582
189.1443 932.14795 304.65137
198.69133 906.93457 363.47607
206.49884 894.32788 392.88818
212.39873 894.32788 392.88818
218.29883 894.32788 392.88818
224.19868 894.32788 392.88818
227.91064 906.93457 363.47607
233.75441 906.93457 363.47607
241.89856 894.32788 392.88818
-135.53267 996.88831 139.84644
-130.11134 996.88831 139.84644
-124.69002 996.88831 139.84644
-119.26879 996.88831 139.84644
-113.84747 996.88831 139.84644
-108.42614 996.88831 139.84644
-103.00481 996.88831 139.84644
-97.583481 996.88831 139.84644
-92.162254 996.88831 139.84644
-86.740929 996.88831 139.84644
-81.319603 996.88831 139.84644
-75.898277 996.88831 139.84644
-70.476952 996.88831 139.84644
-65.055725 996.88831 139.84644
-59.634396 996.88831 139.84644
-54.21307 996.88831 139.84644
-48.79174 996.88831 139.84644
-43.370415 996.88831 139.84644
-37.949188 996.88831 139.84644
-32.527863 996.88831 139.84644
-27.106535 996.88831 139.84644
-21.685207 996.88831 139.84644
-16.41116 985.81226 165.56274
-10.940842 985.81226 165.56274
-5.4704208 985.81226 165.56274
0 996.88831 139.84644
5.4212241 996.88831 139.84644
10.842655 996.88831 139.84644
16.26388 996.88831 139.84644
21.68531 996.88831 139.84644
27.106535 996.88831 139.84644
32.822319 985.81226 165.56274
38.292843 985.81226 165.56274
43.763157 985.81226 165.56274
49.233688 985.81226 165.56274
54.704002 985.81226 165.56274
60.174316 985.81226 165.56274
65.644844 985.81226 165.56274
71.115158 985.81226 165.56274
76.585686 985.81226 165.56274
82.056 985.81226 165.56274
87.526314 985.81226 165.56274
92.996849 985.81226 165.56274
99.382401 974.34058 192.198
104.90378 974.34058 192.198
109.408 985.81226 165.56274
114.87832 985.81226 165.56274
120.34885 985.81226 165.56274
125.81916 985.81226 165.56274
131.28969 985.81226 165.56274
136.76001 985.81226 165.56274
142.23032 985.81226 165.56274
147.70084 985.81226 165.56274
154.59486 974.34058 192.198
161.59081 962.86902 218.83301
167.16281 962.86902 218.83301
174.36542 951.00183 246.38647
181.67343 939.13464 273.9397
189.1443 926.87183 302.41187
198.69133 901.55518 361.19263
206.49884 888.89697 390.58276
212.39873 888.89697 390.58276
218.29883 888.89697 390.58276
224.19868 888.89697 390.58276
227.91064 901.55518 361.19263
233.75441 901.55518 361.19263
241.89856 888.89697 390.58276
-135.53267 991.89807 137.72803
-130.11134 991.89807 137.72803
-124.69002 991.89807 137.72803
-119.26879 991.89807 137.72803
-113.84747 991.89807 137.72803
-108.42614 991.89807 137.72803
-103.00481 991.89807 137.72803
-97.583481 991.89807 137.72803
-92.162254 991.89807 137.72803
-86.740929 991.89807 137.72803
-81.319603 991.89807 137.72803
-75.898277 991.89807 137.72803
-70.476952 991.89807 137.72803
-65.055725 991.89807 137.72803
-59.634396 991.89807 137.72803
-54.21307 991.89807 137.72803
-48.79174 991.89807 137.72803
-43.370415 991.89807 137.72803
-37.949188 991.89807 137.72803
-32.527863 991.89807 137.72803
-27.106535 991.89807 137.72803
-21.685207 991.89807 137.72803
-16.41116 980.77686 163.42529
-10.940842 980.77686 163.42529
-5.4704208 980.77686 163.42529
0 991.89807 137.72803
5.4212241 991.89807 137.72803
10.842655 991.89807 137.72803
16.26388 991.89807 137.72803
21.68531 991.89807 137.72803
27.106535 991.89807 137.72803
32.822319 980.77686 163.42529
38.292843 980.77686 163.42529
43.763157 980.77686 163.42529
49.233688 980.77686 163.42529
54.704002 980.77686 163.42529
60.174316 980.77686 163.42529
65.644844 980.77686 163.42529
71.115158 980.77686 163.42529
76.585686 980.77686 163.42529
82.056 980.77686 163.42529
87.526314 980.77686 163.42529
92.996849 980.77686 163.42529
99.382401 969.2583 190.04053
104.90378 969.2583 190.04053
109.408 980.77686 163.42529
114.87832 980.77686 163.42529
120.34885 980.77686 163.42529
125.81916 980.77686 163.42529
131.28969 980.77686 163.42529
136.76001 980.77686 163.42529
142.23032 980.77686 163.42529
149.07372 969.2583 190.04053
154.59486 969.2583 190.04053
161.59081 957.73999 216.65576
168.7408 945.82434 244.18872
174.36542 945.82434 244.18872
181.67343 933.90869 271.72144
189.1443 921.59595 300.17236
198.69133 896.1759 358.90918
204.53511 896.1759 358.90918
212.39873 883.46606 388.27759
218.29883 883.46606 388.27759
224.19868 883.46606 388.27759
227.91064 896.1759 358.90918
233.75441 896.1759 358.90918
239.59818 896.1759 358.90918
-135.53267 986.90759 135.60986
-130.11134 986.90759 135.60986
-124.69002 986.90759 135.60986
-119.26879 986.90759 135.60986
-113.84747 986.90759 135.60986
-108.42614 986.90759 135.60986
-103.00481 986.90759 135.60986
-97.583481 986.90759 135.60986
-92.162254 986.90759 135.60986
-86.740929 986.90759 135.60986
-81.319603 986.90759 135.60986
-75.898277 986.90759 135.60986
-70.476952 986.90759 135.60986
-65.055725 986.90759 135.60986
-59.634396 986.90759 135.60986
-54.21307 986.90759 135.60986
-48.79174 986.90759 135.60986
-43.370415 986.90759 135.60986
-37.949188 986.90759 135.60986
-32.527863 986.90759 135.60986
-27.106535 986.90759 135.60986
-21.685207 986.90759 135.60986
-16.41116 975.74121 161.28784
-10.940842 975.74121 161.28784
-5.4213276 986.90759 135.60986
0 986.90759 135.60986
5.4212241 986.90759 135.60986
10.842655 986.90759 135.60986
16.41116 975.74121 161.28784
21.881683 975.74121 161.28784
27.352001 975.74121 161.28784
32.822319 975.74121 161.28784
38.292843 975.74121 161.28784
43.763157 975.74121 161.28784
49.233688 975.74121 161.28784
54.704002 975.74121 161.28784
60.174316 975.74121 161.28784
65.644844 975.74121 161.28784
71.115158 975.74121 161.28784
76.585686 975.74121 161.28784
82.056 975.74121 161.28784
87.526314 975.74121 161.28784
92.996849 975.74121 161.28784
98.467163 975.74121 161.28784
103.93769 975.74121 161.28784
109.408 975.74121 161.28784
114.87832 975.74121 161.28784
121.46747 964.1759 187.8833
126.98864 964.1759 187.8833
132.51001 964.1759 187.8833
138.03117 964.1759 187.8833
143.55234 964.1759 187.8833
149.07372 964.1759 187.8833
154.59486 964.1759 187.8833
161.59081 952.61072 214.47852
168.7408 940.64673 241.99097
174.36542 940.64673 241.99097
181.67343 928.68274 269.50317
189.1443 916.31982 297.93262
198.69133 890.79651 356.62573
204.53511 890.79651 356.62573
212.39873 878.03503 385.97217
218.29883 878.03503 385.97217
224.19868 878.03503 385.97217
227.91064 890.79651 356.62573
233.75441 890.79651 356.62573
239.59818 890.79651 356.62573
-135.53267 981.91736 133.49146
-130.11134 981.91736 133.49146
-124.69002 981.91736 133.49146
-119.26879 981.91736 133.49146
-113.84747 981.91736 133.49146
-108.42614 981.91736 133.49146
-103.00481 981.91736 133.49146
-97.583481 981.91736 133.49146
-92.162254 981.91736 133.49146
-86.740929 981.91736 133.49146
-81.319603 981.91736 133.49146
-75.898277 981.91736 133.49146
-70.476952 981.91736 133.49146
-65.055725 981.91736 133.49146
-59.634396 981.91736 133.49146
-54.21307 981.91736 133.49146
-49.233582 970.70581 159.15039
-43.763157 970.70581 159.15039
-37.949188 981.91736 133.49146
-32.527863 981.91736 133.49146
-27.106535 981.91736 133.49146
-21.685207 981.91736 133.49146
-16.41116 970.70581 159.15039
-10.940842 970.70581 159.15039
-5.4213276 981.91736 133.49146
0 981.91736 133.49146
5.4212241 981.91736 133.49146
10.842655 981.91736 133.49146
16.41116 970.70581 159.15039
21.881683 970.70581 159.15039
27.352001 970.70581 159.15039
32.822319 970.70581 159.15039
38.292843 970.70581 159.15039
43.763157 970.70581 159.15039
49.233688 970.70581 159.15039
54.704002 970.70581 159.15039
60.174316 970.70581 159.15039
65.644844 970.70581 159.15039
71.115158 970.70581 159.15039
76.585686 970.70581 159.15039
82.056 970.70581 159.15039
87.526314 970.70581 159.15039
92.996849 970.70581 159.15039
98.467163 970.70581 159.15039
103.93769 970.70581 159.15039
109.408 970.70581 159.15039
114.87832 970.70581 159.15039
121.46747 959.09363 185.72607
126.98864 959.09363 185.72607
132.51001 959.09363 185.72607
138.03117 959.09363 185.72607
143.55234 959.09363 185.72607
149.07372 959.09363 185.72607
156.01857 947.48169 212.30127
161.59081 947.48169 212.30127
168.7408 935.46924 239.79321
175.99602 923.45679 267.28491
181.67343 923.45679 267.28491
189.1443 911.04395 295.69312
198.69133 885.41736 354.34253
206.49884 872.60413 383.66699
212.39873 872.60413 383.66699
218.29883 872.60413 383.66699
224.19868 872.60413 383.66699
230.0988 872.60413 383.66699
235.99867 872.60413 383.66699
241.89856 872.60413 383.66699
-135.53267 976.927 131.37329
-130.11134 976.927 131.37329
-124.69002 976.927 131.37329
-119.26879 976.927 131.37329
-113.84747 976.927 131.37329
-108.42614 976.927 131.37329
-103.00481 976.927 131.37329
-97.583481 976.927 131.37329
-92.162254 976.927 131.37329
-86.740929 976.927 131.37329
-81.319603 976.927 131.37329
-75.898277 976.927 131.37329
-70.476952 976.927 131.37329
-65.055725 976.927 131.37329
-59.634396 976.927 131.37329
-54.21307 976.927 131.37329
-49.233582 965.67017 157.01294
-43.763157 965.67017 157.01294
-37.949188 976.927 131.37329
-32.527863 976.927 131.37329
-27.106535 976.927 131.37329
-21.685207 976.927 131.37329
-16.41116 965.67017 157.01294
-10.940842 965.67017 157.01294
-5.4213276 976.927 131.37329
0 976.927 131.37329
5.4703169 965.67017 157.01294
10.940842 965.67017 157.01294
16.41116 965.67017 157.01294
21.881683 965.67017 157.01294
27.352001 965.67017 157.01294
32.822319 965.67017 157.01294
38.292843 965.67017 157.01294
43.763157 965.67017 157.01294
49.233688 965.67017 157.01294
54.704002 965.67017 157.01294
60.174316 965.67017 157.01294
65.644844 965.67017 157.01294
71.115158 965.67017 157.01294
76.585686 965.67017 157.01294
82.056 965.67017 157.01294
87.526314 965.67017 157.01294
92.996849 965.67017 157.01294
98.467163 965.67017 157.01294
103.93769 965.67017 157.01294
109.408 965.67017 157.01294
114.87832 965.67017 157.01294
121.46747 954.01123 183.5686
126.98864 954.01123 183.5686
132.51001 954.01123 183.5686
138.03117 954.01123 183.5686
143.55234 954.01123 183.5686
150.44656 942.35242 210.12427
156.01857 942.35242 210.12427
161.59081 942.35242 210.12427
167.16281 942.35242 210.12427
174.36542 930.29163 237.59546
181.67343 918.23071 265.06665
189.1443 905.76782 293.45361
198.69133 880.03796 352.05908
206.49884 867.1731 381.36157
212.39873 867.1731 381.36157
220.50452 853.50415 412.49609
224.19868 867.1731 381.36157
230.0988 867.1731 381.36157
238.38321 853.50415 412.49609
244.3427 853.50415 412.49609
-135.53267 971.93665 129.25488
-130.11134 971.93665 129.25488
-124.69002 971.93665 129.25488
-119.26879 971.93665 129.25488
-113.84747 971.93665 129.25488
-108.42614 971.93665 129.25488
-103.00481 971.93665 129.25488
-97.583481 971.93665 129.25488
-92.162254 971.93665 129.25488
-86.740929 971.93665 129.25488
-81.319603 971.93665 129.25488
-75.898277 971.93665 129.25488
-70.476952 971.93665 129.25488
-65.055725 971.93665 129.25488
-60.174423 960.63477 154.87549
-54.704002 960.63477 154.87549
-49.233582 960.63477 154.87549
-43.763157 960.63477 154.87549
-37.949188 971.93665 129.25488
-32.527863 971.93665 129.25488
-27.106535 971.93665 129.25488
-21.685207 971.93665 129.25488
-16.41116 960.63477 154.87549
-10.940842 960.63477 154.87549
-5.4704208 960.63477 154.87549
0 960.63477 154.87549
5.4703169 960.63477 154.87549
10.940842 960.63477 154.87549
16.41116 960.63477 154.87549
21.881683 960.63477 154.87549
27.352001 960.63477 154.87549
32.822319 960.63477 154.87549
38.292843 960.63477 154.87549
43.763157 960.63477 154.87549
49.233688 960.63477 154.87549
54.704002 960.63477 154.87549
60.174316 960.63477 154.87549
65.644844 960.63477 154.87549
71.776169 948.92896 181.41138
77.297546 948.92896 181.41138
82.818703 948.92896 181.41138
88.339859 948.92896 181.41138
92.996849 960.63477 154.87549
98.467163 960.63477 154.87549
103.93769 960.63477 154.87549
109.408 960.63477 154.87549
114.87832 960.63477 154.87549
121.46747 948.92896 181.41138
126.98864 948.92896 181.41138
132.51001 948.92896 181.41138
139.30234 937.22339 207.94702
144.87434 937.22339 207.94702
150.44656 937.22339 207.94702
156.01857 937.22339 207.94702
161.59081 937.22339 207.94702
167.16281 937.22339 207.94702
174.36542 925.11414 235.39771
181.67343 913.00488 262.84839
192.84734 874.65869 349.77563
200.59895 861.74231 379.0564
206.49884 861.74231 379.0564
214.54478 848.01831 410.16748
220.50452 848.01831 410.16748
226.464 848.01831 410.16748
232.42372 848.01831 410.16748
238.38321 848.01831 410.16748
244.3427 848.01831 410.16748
-135.53267 966.94629 127.13672
-130.11134 966.94629 127.13672
-124.69002 966.94629 127.13672
-119.26879 966.94629 127.13672
-113.84747 966.94629 127.13672
-108.42614 966.94629 127.13672
-103.00481 966.94629 127.13672
-97.583481 966.94629 127.13672
-92.162254 966.94629 127.13672
-86.740929 966.94629 127.13672
-81.319603 966.94629 127.13672
-75.898277 966.94629 127.13672
-70.476952 966.94629 127.13672
-65.055725 966.94629 127.13672
-60.174423 955.59912 152.73804
-54.704002 955.59912 152.73804
-49.233582 955.59912 152.73804
-43.763157 955.59912 152.73804
-38.292843 955.59912 152.73804
-32.822422 955.59912 152.73804
-27.106535 966.94629 127.13672
-21.685207 966.94629 127.13672
-16.41116 955.59912 152.73804
-10.940842 955.59912 152.73804
-5.4704208 955.59912 152.73804
0 955.59912 152.73804
5.4703169 955.59912 152.73804
10.940842 955.59912 152.73804
16.41116 955.59912 152.73804
21.881683 955.59912 152.73804
27.352001 955.59912 152.73804
32.822319 955.59912 152.73804
38.292843 955.59912 152.73804
43.763157 955.59912 152.73804
49.233688 955.59912 152.73804
54.704002 955.59912 152.73804
60.733631 943.84656 179.25391
66.255005 943.84656 179.25391
71.776169 943.84656 179.25391
77.297546 943.84656 179.25391
82.818703 943.84656 179.25391
88.339859 943.84656 179.25391
93.861237 943.84656 179.25391
99.382401 943.84656 179.25391
104.90378 943.84656 179.25391
110.42493 943.84656 179.25391
115.9461 943.84656 179.25391
121.46747 943.84656 179.25391
126.98864 943.84656 179.25391
133.73033 932.09424 205.76978
139.30234 932.09424 205.76978
144.87434 932.09424 205.76978
150.44656 932.09424 205.76978
156.01857 932.09424 205.76978
161.59081 932.09424 205.76978
167.16281 932.09424 205.76978
174.36542 919.93652 233.19995
181.67343 907.77881 260.63013
189.1443 895.21582 288.97461
200.59895 856.31128 376.75098
206.49884 856.31128 376.75098
214.54478 842.53247 407.83887
220.50452 842.53247 407.83887
226.464 842.53247 407.83887
232.42372 842.53247 407.83887
238.38321 842.53247 407.83887
244.3427 842.53247 407.83887
250.30241 842.53247 407.83887
256.2619 842.53247 407.83887
-135.53267 961.95605 125.01855
-130.11134 961.95605 125.01855
-124.69002 961.95605 125.01855
-119.26879 961.95605 125.01855
-113.84747 961.95605 125.01855
-108.42614 961.95605 125.01855
-103.00481 961.95605 125.01855
-97.583481 961.95605 125.01855
-92.162254 961.95605 125.01855
-86.740929 961.95605 125.01855
-81.319603 961.95605 125.01855
-75.898277 961.95605 125.01855
-70.476952 961.95605 125.01855
-65.055725 961.95605 125.01855
-60.174423 950.56372 150.60059
-54.704002 950.56372 150.60059
-49.233582 950.56372 150.60059
-43.763157 950.56372 150.60059
-38.292843 950.56372 150.60059
-32.822422 950.56372 150.60059
-27.106535 961.95605 125.01855
-21.685207 961.95605 125.01855
-16.41116 950.56372 150.60059
-10.940842 950.56372 150.60059
-5.4704208 950.56372 150.60059
0 950.56372 150.60059
5.4703169 950.56372 150.60059
10.940842 950.56372 150.60059
16.41116 950.56372 150.60059
21.881683 950.56372 150.60059
27.352001 950.56372 150.60059
32.822319 950.56372 150.60059
38.292843 950.56372 150.60059
43.763157 950.56372 150.60059
49.233688 950.56372 150.60059
55.212467 938.7644 177.09668
60.733631 938.7644 177.09668
66.255005 938.7644 177.09668
71.776169 938.7644 177.09668
77.297546 938.7644 177.09668
82.818703 938.7644 177.09668
88.339859 938.7644 177.09668
93.861237 938.7644 177.09668
99.382401 938.7644 177.09668
104.90378 938.7644 177.09668
110.42493 938.7644 177.09668
115.9461 938.7644 177.09668
121.46747 938.7644 177.09668
126.98864 938.7644 177.09668
133.73033 926.96509 203.59253
139.30234 926.96509 203.59253
144.87434 926.96509 203.59253
150.44656 926.96509 203.59253
156.01857 926.96509 203.59253
161.59081 926.96509 203.59253
167.16281 926.96509 203.59253
174.36542 914.75903 231.00244
181.67343 902.55286 258.41187
187.35065 902.55286 258.41187
200.59895 850.88037 374.4458
206.49884 850.88037 374.4458
214.54478 837.04675 405.51025
220.50452 837.04675 405.51025
226.464 837.04675 405.51025
232.42372 837.04675 405.51025
238.38321 837.04675 405.51025
244.3427 837.04675 405.51025
250.30241 837.04675 405.51025
256.2619 837.04675 405.51025
262.22162 837.04675 405.51025
-134.30534 968.4032 97.336914
-128.93311 968.4032 97.336914
-123.56087 968.4032 97.336914
-119.26879 956.96558 122.90015
-113.84747 956.96558 122.90015
-108.42614 956.96558 122.90015
-103.00481 956.96558 122.90015
-97.583481 956.96558 122.90015
-91.327667 968.4032 97.336914
-85.955437 968.4032 97.336914
-80.583206 968.4032 97.336914
-75.210968 968.4032 97.336914
-70.476952 956.96558 122.90015
-65.055725 956.96558 122.90015
-59.634396 956.96558 122.90015
-54.704002 945.52808 148.46313
-49.233582 945.52808 148.46313
-43.763157 945.52808 148.46313
-38.292843 945.52808 148.46313
-32.822422 945.52808 148.46313
-27.106535 956.96558 122.90015
-21.685207 956.96558 122.90015
-16.41116 945.52808 148.46313
-10.940842 945.52808 148.46313
-5.4704208 945.52808 148.46313
0 945.52808 148.46313
5.4703169 945.52808 148.46313
10.940842 945.52808 148.46313
16.41116 945.52808 148.46313
21.881683 945.52808 148.46313
27.352001 945.52808 148.46313
33.127396 933.68188 174.93945
38.648773 933.68188 174.93945
44.16993 933.68188 174.93945
49.691303 933.68188 174.93945
55.212467 933.68188 174.93945
60.733631 933.68188 174.93945
66.255005 933.68188 174.93945
71.776169 933.68188 174.93945
77.297546 933.68188 174.93945
82.818703 933.68188 174.93945
88.339859 933.68188 174.93945
93.861237 933.68188 174.93945
99.382401 933.68188 174.93945
104.90378 933.68188 174.93945
110.42493 933.68188 174.93945
115.9461 933.68188 174.93945
121.46747 933.68188 174.93945
126.98864 933.68188 174.93945
133.73033 921.83594 201.41528
139.30234 921.83594 201.41528
146.24194 909.58142 228.80444
151.86678 909.58142 228.80444
157.49138 909.58142 228.80444
161.59081 921.83594 201.41528
167.16281 921.83594 201.41528
174.36542 909.58142 228.80444
181.67343 897.3269 256.19336
187.35065 897.3269 256.19336
200.59895 845.44934 372.14038
206.49884 845.44934 372.14038
214.54478 831.56079 403.18164
220.50452 831.56079 403.18164
226.464 831.56079 403.18164
232.42372 831.56079 403.18164
238.38321 831.56079 403.18164
244.3427 831.56079 403.18164
250.30241 831.56079 403.18164
256.2619 831.56079 403.18164
262.22162 831.56079 403.18164
-134.30534 963.45813 95.238037
-128.93311 963.45813 95.238037
-123.56087 963.45813 95.238037
-118.18874 963.45813 95.238037
-112.81651 963.45813 95.238037
-107.44427 963.45813 95.238037
-102.07204 963.45813 95.238037
-96.699806 963.45813 95.238037
-91.327667 963.45813 95.238037
-85.955437 963.45813 95.238037
-80.583206 963.45813 95.238037
-75.210968 963.45813 95.238037
-70.476952 951.97534 120.78198
-65.055725 951.97534 120.78198
-59.634396 951.97534 120.78198
-54.704002 940.49268 146.32568
-49.233582 940.49268 146.32568
-43.763157 940.49268 146.32568
-38.292843 940.49268 146.32568
-32.822422 940.49268 146.32568
-27.352001 940.49268 146.32568
-21.881578 940.49268 146.32568
-16.41116 940.49268 146.32568
-10.940842 940.49268 146.32568
-5.4704208 940.49268 146.32568
0 940.49268 146.32568
5.4703169 940.49268 146.32568
10.940842 940.49268 146.32568
16.41116 940.49268 146.32568
21.881683 940.49268 146.32568
27.606234 928.59973 172.78198
33.127396 928.59973 172.78198
38.648773 928.59973 172.78198
44.16993 928.59973 172.78198
49.691303 928.59973 172.78198
55.212467 928.59973 172.78198
60.733631 928.59973 172.78198
66.255005 928.59973 172.78198
71.776169 928.59973 172.78198
77.297546 928.59973 172.78198
82.818703 928.59973 172.78198
88.339859 928.59973 172.78198
93.861237 928.59973 172.78198
99.382401 928.59973 172.78198
104.90378 928.59973 172.78198
110.42493 928.59973 172.78198
115.9461 928.59973 172.78198
121.46747 928.59973 172.78198
128.15811 916.70691 199.23828
133.73033 916.70691 199.23828
139.30234 916.70691 199.23828
146.24194 904.40393 226.60693
151.86678 904.40393 226.60693
157.49138 904.40393 226.60693
163.1162 904.40393 226.60693
168.7408 904.40393 226.60693
175.99602 892.10095 253.9751
181.67343 892.10095 253.9751
189.1443 879.38794 282.2561
200.59895 840.01855 369.83521
206.49884 840.01855 369.83521
214.54478 826.07507 400.85303
220.50452 826.07507 400.85303
226.464 826.07507 400.85303
232.42372 826.07507 400.85303
238.38321 826.07507 400.85303
244.3427 826.07507 400.85303
250.30241 826.07507 400.85303
258.82529 812.13171 431.87061
264.8446 812.13171 431.87061
-134.30534 958.51282 93.138916
-128.93311 958.51282 93.138916
-123.56087 958.51282 93.138916
-118.18874 958.51282 93.138916
-112.81651 958.51282 93.138916
-107.44427 958.51282 93.138916
-101.17258 969.62915 68.525635
-95.847679 969.62915 68.525635
-90.522888 969.62915 68.525635
-85.197998 969.62915 68.525635
-79.8731 969.62915 68.525635
-75.210968 958.51282 93.138916
-69.838737 958.51282 93.138916
-64.466599 958.51282 93.138916
-59.634396 946.98499 118.66357
-54.704002 935.45703 144.18823
-49.233582 935.45703 144.18823
-44.16993 923.51733 170.62476
-38.292843 935.45703 144.18823
-32.822422 935.45703 144.18823
-27.352001 935.45703 144.18823
-21.881578 935.45703 144.18823
-16.41116 935.45703 144.18823
-10.940842 935.45703 144.18823
-5.4704208 935.45703 144.18823
0 935.45703 144.18823
5.4703169 935.45703 144.18823
10.940842 935.45703 144.18823
16.563698 923.51733 170.62476
22.085073 923.51733 170.62476
27.606234 923.51733 170.62476
33.127396 923.51733 170.62476
38.648773 923.51733 170.62476
44.16993 923.51733 170.62476
49.691303 923.51733 170.62476
55.212467 923.51733 170.62476
60.733631 923.51733 170.62476
66.255005 923.51733 170.62476
71.776169 923.51733 170.62476
77.297546 923.51733 170.62476
82.818703 923.51733 170.62476
88.339859 923.51733 170.62476
93.861237 923.51733 170.62476
99.382401 923.51733 170.62476
104.90378 923.51733 170.62476
110.42493 923.51733 170.62476
115.9461 923.51733 170.62476
122.58611 911.57764 197.06104
128.15811 911.57764 197.06104
133.73033 911.57764 197.06104
139.30234 911.57764 197.06104
144.87434 911.57764 197.06104
151.86678 899.22632 224.40918
157.49138 899.22632 224.40918
163.1162 899.22632 224.40918
168.7408 899.22632 224.40918
175.99602 886.87488 251.75684
183.41275 874.11182 280.01636
190.93796 861.34875 308.27588
200.59895 834.58752 367.52979
206.49884 834.58752 367.52979
214.54478 820.58923 398.52441
220.50452 820.58923 398.52441
226.464 820.58923 398.52441
232.42372 820.58923 398.52441
238.38321 820.58923 398.52441
244.3427 820.58923 398.52441
250.30241 820.58923 398.52441
258.82529 806.59094 429.5188
264.8446 806.59094 429.5188
-134.30534 953.56775 91.039795
-128.93311 953.56775 91.039795
-123.56087 953.56775 91.039795
-118.18874 953.56775 91.039795
-111.82236 964.72766 66.445068
-106.49747 964.72766 66.445068
-101.17258 964.72766 66.445068
-94.99556 975.88745 41.850342
-89.718109 975.88745 41.850342
-84.440552 975.88745 41.850342
-79.163002 975.88745 41.850342
-73.885452 975.88745 41.850342
-69.223312 964.72766 66.445068
-63.898525 964.72766 66.445068
-59.094368 953.56775 91.039795
-54.704002 930.42163 142.05078
-49.233582 930.42163 142.05078
-43.763157 930.42163 142.05078
-38.292843 930.42163 142.05078
-32.822422 930.42163 142.05078
-27.352001 930.42163 142.05078
-21.881578 930.42163 142.05078
-16.41116 930.42163 142.05078
-10.940842 930.42163 142.05078
-5.4704208 930.42163 142.05078
0 930.42163 142.05078
5.4703169 930.42163 142.05078
10.940842 930.42163 142.05078
16.41116 930.42163 142.05078
22.085073 918.43506 168.46753
27.606234 918.43506 168.46753
33.127396 918.43506 168.46753
38.648773 918.43506 168.46753
44.16993 918.43506 168.46753
49.691303 918.43506 168.46753
55.212467 918.43506 168.46753
60.733631 918.43506 168.46753
66.255005 918.43506 168.46753
71.776169 918.43506 168.46753
77.297546 918.43506 168.46753
82.818703 918.43506 168.46753
88.339859 918.43506 168.46753
93.861237 918.43506 168.46753
99.382401 918.43506 168.46753
104.90378 918.43506 168.46753
110.42493 918.43506 168.46753
115.9461 918.43506 168.46753
122.58611 906.44861 194.88379
128.15811 906.44861 194.88379
133.73033 906.44861 194.88379
139.30234 906.44861 194.88379
144.87434 906.44861 194.88379
151.86678 894.04883 222.21143
157.49138 894.04883 222.21143
163.1162 894.04883 222.21143
168.7408 894.04883 222.21143
175.99602 881.64905 249.53857
183.41275 868.83594 277.77686
190.93796 856.02283 306.01538
198.69133 842.38293 336.07544
208.58531 815.10352 396.1958
214.54478 815.10352 396.1958
220.50452 815.10352 396.1958
226.464 815.10352 396.1958
232.42372 815.10352 396.1958
238.38321 815.10352 396.1958
244.3427 815.10352 396.1958
250.30241 815.10352 396.1958
258.82529 801.05029 427.16699
264.8446 801.05029 427.16699
-128.93311 948.62256 88.940674
-123.56087 948.62256 88.940674
-117.14725 959.82605 64.364258
-110.82822 971.02942 39.78833
-105.55067 971.02942 39.78833
-100.27312 971.02942 39.78833
-94.175003 981.81787 16.122314
-88.943138 981.81787 16.122314
-83.711174 981.81787 16.122314
-78.479202 981.81787 16.122314
-73.885452 971.02942 39.78833
-68.607895 971.02942 39.78833
-63.898525 959.82605 64.364258
-59.094368 948.62256 88.940674
-54.21307 937.00427 114.427
-49.233582 925.38599 139.91333
-43.763157 925.38599 139.91333
-38.292843 925.38599 139.91333
-32.822422 925.38599 139.91333
-27.352001 925.38599 139.91333
-21.881578 925.38599 139.91333
-16.563698 913.35266 166.31006
-10.940842 925.38599 139.91333
-5.4704208 925.38599 139.91333
0 925.38599 139.91333
5.4703169 925.38599 139.91333
10.940842 925.38599 139.91333
16.41116 925.38599 139.91333
22.085073 913.35266 166.31006
27.606234 913.35266 166.31006
33.127396 913.35266 166.31006
38.648773 913.35266 166.31006
44.16993 913.35266 166.31006
49.691303 913.35266 166.31006
55.212467 913.35266 166.31006
60.733631 913.35266 166.31006
66.255005 913.35266 166.31006
71.776169 913.35266 166.31006
77.297546 913.35266 166.31006
82.818703 913.35266 166.31006
88.339859 913.35266 166.31006
93.861237 913.35266 166.31006
99.382401 913.35266 166.31006
104.90378 913.35266 166.31006
110.42493 913.35266 166.31006
117.01388 901.31934 192.70654
122.58611 901.31934 192.70654
128.15811 901.31934 192.70654
134.99274 888.87122 220.01367
140.61734 888.87122 220.01367
146.24194 888.87122 220.01367
151.86678 888.87122 220.01367
157.49138 888.87122 220.01367
164.6416 876.42297 247.32031
170.3188 876.42297 247.32031
175.99602 876.42297 247.32031
183.41275 863.55981 275.53735
190.93796 850.69666 303.75439
198.69133 837.00354 333.79199
208.58531 809.61755 393.86719
214.54478 809.61755 393.86719
220.50452 809.61755 393.86719
226.464 809.61755 393.86719
232.42372 809.61755 393.86719
238.38321 809.61755 393.86719
244.3427 809.61755 393.86719
250.30241 809.61755 393.86719
258.82529 795.50952 424.81494
-128.93311 943.67737 86.841553
-121.38322 966.17126 37.726074
-116.10578 966.17126 37.726074
-110.82822 966.17126 37.726074
-105.55067 966.17126 37.726074
-99.406967 977.00171 14.078125
-94.175003 977.00171 14.078125
-88.943138 977.00171 14.078125
-83.711174 977.00171 14.078125
-78.479202 977.00171 14.078125
-73.885452 966.17126 37.726074
-68.607895 966.17126 37.726074
-63.330441 966.17126 37.726074
-58.573627 954.92444 62.283691
-53.722134 943.67737 86.841553
-49.233582 920.35034 137.77588
-43.763157 920.35034 137.77588
-38.292843 920.35034 137.77588
-32.822422 920.35034 137.77588
-27.352001 920.35034 137.77588
-21.881578 920.35034 137.77588
-16.563698 908.27026 164.15283
-11.042537 908.27026 164.15283
-5.4704208 920.35034 137.77588
0 920.35034 137.77588
5.4703169 920.35034 137.77588
10.940842 920.35034 137.77588
16.41116 920.35034 137.77588
22.085073 908.27026 164.15283
27.606234 908.27026 164.15283
33.127396 908.27026 164.15283
38.648773 908.27026 164.15283
44.16993 908.27026 164.15283
49.691303 908.27026 164.15283
55.212467 908.27026 164.15283
60.733631 908.27026 164.15283
66.255005 908.27026 164.15283
71.776169 908.27026 164.15283
77.297546 908.27026 164.15283
82.818703 908.27026 164.15283
88.339859 908.27026 164.15283
93.861237 908.27026 164.15283
99.382401 908.27026 164.15283
105.86987 896.19019 190.52954
111.44187 896.19019 190.52954
117.01388 896.19019 190.52954
122.58611 896.19019 190.52954
129.3679 883.6936 217.81592
134.99274 883.6936 217.81592
140.61734 883.6936 217.81592
146.24194 883.6936 217.81592
151.86678 883.6936 217.81592
157.49138 883.6936 217.81592
164.6416 871.1969 245.10205
170.3188 871.1969 245.10205
177.68095 858.28369 273.29785
183.41275 858.28369 273.29785
190.93796 845.37061 301.49365
198.69133 831.62427 331.50854
208.58531 804.13171 391.53857
214.54478 804.13171 391.53857
220.50452 804.13171 391.53857
226.464 804.13171 391.53857
232.42372 804.13171 391.53857
238.38321 804.13171 391.53857
244.3427 804.13171 391.53857
252.80617 789.96875 422.46313
258.82529 789.96875 422.46313
-121.38322 961.31335 35.664062
-116.10578 961.31335 35.664062
-110.82822 961.31335 35.664062
-105.55067 961.31335 35.664062
-99.406967 972.18579 12.033691
-94.175003 972.18579 12.033691
-89.718109 961.31335 35.664062
-83.711174 972.18579 12.033691
-78.479202 972.18579 12.033691
-73.247231 972.18579 12.033691
-68.015266 972.18579 12.033691
-62.783401 972.18579 12.033691
-58.052891 961.31335 35.664062
-53.248734 950.02295 60.203125
-48.79174 927.02356 110.19043
-43.763157 915.31494 135.63843
-38.292843 915.31494 135.63843
-32.822422 915.31494 135.63843
-27.352001 915.31494 135.63843
-21.881578 915.31494 135.63843
-16.563698 903.18799 161.99536
-11.042537 903.18799 161.99536
-5.4704208 915.31494 135.63843
0 915.31494 135.63843
5.4703169 915.31494 135.63843
10.940842 915.31494 135.63843
16.563698 903.18799 161.99536
22.085073 903.18799 161.99536
27.606234 903.18799 161.99536
33.127396 903.18799 161.99536
38.648773 903.18799 161.99536
44.16993 903.18799 161.99536
49.691303 903.18799 161.99536
55.212467 903.18799 161.99536
60.733631 903.18799 161.99536
66.255005 903.18799 161.99536
71.776169 903.18799 161.99536
77.297546 903.18799 161.99536
82.818703 903.18799 161.99536
88.339859 903.18799 161.99536
93.861237 903.18799 161.99536
100.29764 891.06116 188.35229
105.86987 891.06116 188.35229
111.44187 891.06116 188.35229
117.01388 891.06116 188.35229
122.58611 891.06116 188.35229
129.3679 878.51611 215.61816
134.99274 878.51611 215.61816
140.61734 878.51611 215.61816
146.24194 878.51611 215.61816
151.86678 878.51611 215.61816
157.49138 878.51611 215.61816
164.6416 865.97107 242.88379
170.3188 865.97107 242.88379
177.68095 853.00781 271.05835
183.41275 853.00781 271.05835
190.93796 840.04456 299.23291
198.69133 826.245 329.22534
208.58531 798.646 389.20996
214.54478 798.646 389.20996
220.50452 798.646 389.20996
226.464 798.646 389.20996
232.42372 798.646 389.20996
238.38321 798.646 389.20996
244.3427 798.646 389.20996
252.80617 784.4281 420.11108
258.82529 784.4281 420.11108
-121.38322 956.45532 33.602051
-116.10578 956.45532 33.602051
-110.82822 956.45532 33.602051
-105.55067 956.45532 33.602051
-99.406967 967.36975 9.989502
-94.175003 967.36975 9.989502
-88.943138 967.36975 9.989502
-83.711174 967.36975 9.989502
-78.479202 967.36975 9.989502
-73.247231 967.36975 9.989502
-68.015266 967.36975 9.989502
-62.783401 967.36975 9.989502
-58.052891 956.45532 33.602051
-53.248734 945.12122 58.122559
-48.79174 922.0332 108.07227
-43.763157 910.2793 133.50098
-38.292843 910.2793 133.50098
-32.822422 910.2793 133.50098
-27.352001 910.2793 133.50098
-21.881578 910.2793 133.50098
-16.563698 898.10559 159.83813
-11.042537 898.10559 159.83813
-5.5212684 898.10559 159.83813
0 898.10559 159.83813
5.521163 898.10559 159.83813
11.042537 898.10559 159.83813
16.563698 898.10559 159.83813
22.085073 898.10559 159.83813
27.606234 898.10559 159.83813
33.127396 898.10559 159.83813
38.648773 898.10559 159.83813
44.576702 885.93188 186.17505
50.148926 885.93188 186.17505
55.212467 898.10559 159.83813
60.733631 898.10559 159.83813
66.255005 898.10559 159.83813
71.776169 898.10559 159.83813
77.297546 898.10559 159.83813
82.818703 898.10559 159.83813
88.339859 898.10559 159.83813
93.861237 898.10559 159.83813
100.29764 885.93188 186.17505
105.86987 885.93188 186.17505
111.44187 885.93188 186.17505
117.01388 885.93188 186.17505
122.58611 885.93188 186.17505
129.3679 873.3385 213.42041
134.99274 873.3385 213.42041
139.30234 885.93188 186.17505
144.87434 885.93188 186.17505
151.86678 873.3385 213.42041
157.49138 873.3385 213.42041
164.6416 860.745 240.66528
170.3188 860.745 240.66528
177.68095 847.73169 268.81885
185.15205 834.71851 296.97217
190.93796 834.71851 296.97217
198.69133 820.8656 326.94189
208.58531 793.16003 386.88135
214.54478 793.16003 386.88135
222.71021 778.88745 417.75928
228.72931 778.88745 417.75928
232.42372 793.16003 386.88135
238.38321 793.16003 386.88135
244.3427 793.16003 386.88135
252.80617 778.88745 417.75928
258.82529 778.88745 417.75928
-121.38322 951.59741 31.539795
-116.10578 951.59741 31.539795
-110.82822 951.59741 31.539795
-104.63894 962.55371 7.9453125
-99.406967 962.55371 7.9453125
-94.175003 962.55371 7.9453125
-88.943138 962.55371 7.9453125
-83.711174 962.55371 7.9453125
-78.479202 962.55371 7.9453125
-73.247231 962.55371 7.9453125
-68.015266 962.55371 7.9453125
-62.783401 962.55371 7.9453125
-57.551434 962.55371 7.9453125
-52.775333 951.59741 31.539795
-48.349903 928.84204 80.544189
-43.370415 917.04297 105.9541
-38.292843 905.2439 131.36353
-32.822422 905.2439 131.36353
-27.352001 905.2439 131.36353
-21.881578 905.2439 131.36353
-16.563698 893.02332 157.68091
-11.042537 893.02332 157.68091
-5.5212684 893.02332 157.68091
0 893.02332 157.68091
5.521163 893.02332 157.68091
11.042537 893.02332 157.68091
16.563698 893.02332 157.68091
22.085073 893.02332 157.68091
27.606234 893.02332 157.68091
33.127396 893.02332 157.68091
38.648773 893.02332 157.68091
44.576702 880.80286 183.9978
50.148926 880.80286 183.9978
55.720936 880.80286 183.9978
61.292946 880.80286 183.9978
66.865166 880.80286 183.9978
72.437172 880.80286 183.9978
78.009399 880.80286 183.9978
82.818703 893.02332 157.68091
88.339859 893.02332 157.68091
94.725632 880.80286 183.9978
100.29764 880.80286 183.9978
105.86987 880.80286 183.9978
111.44187 880.80286 183.9978
117.01388 880.80286 183.9978
122.58611 880.80286 183.9978
129.3679 868.16101 211.22266
134.99274 868.16101 211.22266
139.30234 880.80286 183.9978
144.87434 880.80286 183.9978
151.86678 868.16101 211.22266
157.49138 868.16101 211.22266
163.1162 868.16101 211.22266
170.3188 855.51904 238.44702
175.99602 855.51904 238.44702
183.41275 842.45581 266.57935
190.93796 829.39258 294.71143
198.69133 815.48645 324.65845
206.49884 802.00183 353.698
214.54478 787.67432 384.55298
222.71021 773.3468 415.40747
228.72931 773.3468 415.40747
234.74864 773.3468 415.40747
240.76775 773.3468 415.40747
246.78685 773.3468 415.40747
255.38358 758.5979 447.16943
261.46405 758.5979 447.16943
-116.10578 946.73938 29.477783
-110.82822 946.73938 29.477783
-104.63894 957.73767 5.9008789
-99.406967 957.73767 5.9008789
-94.175003 957.73767 5.9008789
-88.943138 957.73767 5.9008789
-83.711174 957.73767 5.9008789
-78.479202 957.73767 5.9008789
-73.247231 957.73767 5.9008789
-68.015266 957.73767 5.9008789
-62.783401 957.73767 5.9008789
-57.551434 957.73767 5.9008789
-52.775333 946.73938 29.477783
-47.49778 946.73938 29.477783
-43.370415 912.05249 103.83569
-37.949188 912.05249 103.83569
-32.822422 900.20825 129.22607
-27.352001 900.20825 129.22607
-21.881578 900.20825 129.22607
-16.563698 887.94092 155.52344
-11.042537 887.94092 155.52344
-5.5212684 887.94092 155.52344
0 887.94092 155.52344
5.521163 887.94092 155.52344
11.042537 887.94092 155.52344
16.563698 887.94092 155.52344
22.085073 887.94092 155.52344
27.606234 887.94092 155.52344
33.127396 887.94092 155.52344
38.648773 887.94092 155.52344
44.576702 875.67358 181.82056
50.148926 875.67358 181.82056
55.720936 875.67358 181.82056
61.292946 875.67358 181.82056
66.865166 875.67358 181.82056
72.437172 875.67358 181.82056
78.009399 875.67358 181.82056
83.581406 875.67358 181.82056
89.153404 875.67358 181.82056
94.725632 875.67358 181.82056
100.29764 875.67358 181.82056
106.86926 862.9834 209.0249
112.49387 862.9834 209.0249
118.11848 862.9834 209.0249
123.7433 862.9834 209.0249
129.3679 862.9834 209.0249
134.99274 862.9834 209.0249
139.30234 875.67358 181.82056
144.87434 875.67358 181.82056
151.86678 862.9834 209.0249
157.49138 862.9834 209.0249
163.1162 862.9834 209.0249
170.3188 850.29309 236.22876
175.99602 850.29309 236.22876
183.41275 837.17969 264.3396
190.93796 824.06641 292.45068
198.69133 810.10706 322.37524
206.49884 796.5708 351.39282
216.69087 767.80603 413.05542
222.71021 767.80603 413.05542
231.06125 753.00073 444.79346
234.74864 767.80603 413.05542
240.76775 767.80603 413.05542
249.30289 753.00073 444.79346
255.38358 753.00073 444.79346
-117.14725 930.41663 51.880859
-110.82822 941.88147 27.415771
-104.63894 952.92175 3.8566895
-99.406967 952.92175 3.8566895
-94.175003 952.92175 3.8566895
-88.943138 952.92175 3.8566895
-82.981789 963.96191 -19.702393
-77.795403 963.96191 -19.702393
-72.609024 963.96191 -19.702393
-67.422646 963.96191 -19.702393
-62.236362 963.96191 -19.702393
-57.551434 952.92175 3.8566895
-52.319469 952.92175 3.8566895
-47.49778 941.88147 27.415771
-42.977669 918.95166 76.346191
-37.949188 907.06226 101.71753
-32.527863 907.06226 101.71753
-27.352001 895.17285 127.08862
-21.881578 895.17285 127.08862
-16.563698 882.85864 153.36621
-11.042537 882.85864 153.36621
-5.5212684 882.85864 153.36621
0 882.85864 153.36621
5.521163 882.85864 153.36621
11.042537 882.85864 153.36621
16.563698 882.85864 153.36621
22.085073 882.85864 153.36621
27.606234 882.85864 153.36621
33.127396 882.85864 153.36621
38.648773 882.85864 153.36621
44.576702 870.54456 179.64355
50.148926 870.54456 179.64355
55.720936 870.54456 179.64355
61.292946 870.54456 179.64355
66.255005 882.85864 153.36621
71.776169 882.85864 153.36621
78.009399 870.54456 179.64355
83.581406 870.54456 179.64355
89.153404 870.54456 179.64355
94.725632 870.54456 179.64355
100.29764 870.54456 179.64355
106.86926 857.80591 206.82715
112.49387 857.80591 206.82715
118.11848 857.80591 206.82715
123.7433 857.80591 206.82715
129.3679 857.80591 206.82715
134.99274 857.80591 206.82715
140.61734 857.80591 206.82715
146.24194 857.80591 206.82715
151.86678 857.80591 206.82715
157.49138 857.80591 206.82715
163.1162 857.80591 206.82715
170.3188 845.06714 234.0105
175.99602 845.06714 234.0105
183.41275 831.90381 262.1001
189.1443 831.90381 262.1001
196.72409 818.74048 290.18994
206.49884 791.13989 349.0874
216.69087 762.26538 410.70361
222.71021 762.26538 410.70361
231.06125 747.40356 442.41772
234.74864 762.26538 410.70361
240.76775 762.26538 410.70361
246.78685 762.26538 410.70361
252.80617 762.26538 410.70361
-117.14725 925.51501 49.800049
-110.82822 937.02332 25.353516
-104.63894 948.10559 1.8122559
-99.406967 948.10559 1.8122559
-94.175003 948.10559 1.8122559
-88.943138 948.10559 1.8122559
-82.981789 959.18774 -21.729004
-77.137901 969.84375 -44.364746
-71.995354 969.84375 -44.364746
-66.852806 969.84375 -44.364746
-62.236362 959.18774 -21.729004
-57.04998 959.18774 -21.729004
-52.319469 948.10559 1.8122559
-47.49778 937.02332 25.353516
-42.977669 914.00647 74.24707
-37.949188 902.0719 99.599121
-32.527863 902.0719 99.599121
-27.352001 890.13721 124.95117
-21.881578 890.13721 124.95117
-16.563698 877.77625 151.20874
-11.042537 877.77625 151.20874
-5.5212684 877.77625 151.20874
0 877.77625 151.20874
5.521163 877.77625 151.20874
11.042537 877.77625 151.20874
16.563698 877.77625 151.20874
22.085073 877.77625 151.20874
27.606234 877.77625 151.20874
33.127396 877.77625 151.20874
38.648773 877.77625 151.20874
44.576702 865.41541 177.46631
50.148926 865.41541 177.46631
55.720936 865.41541 177.46631
61.292946 865.41541 177.46631
66.255005 877.77625 151.20874
71.776169 877.77625 151.20874
78.009399 865.41541 177.46631
83.581406 865.41541 177.46631
89.153404 865.41541 177.46631
94.725632 865.41541 177.46631
101.24444 852.62817 204.62939
106.86926 852.62817 204.62939
112.49387 852.62817 204.62939
118.11848 852.62817 204.62939
123.7433 852.62817 204.62939
129.3679 852.62817 204.62939
134.99274 852.62817 204.62939
140.61734 852.62817 204.62939
146.24194 852.62817 204.62939
151.86678 852.62817 204.62939
157.49138 852.62817 204.62939
163.1162 852.62817 204.62939
170.3188 839.84106 231.79224
175.99602 839.84106 231.79224
183.41275 826.62769 259.8606
189.1443 826.62769 259.8606
196.72409 813.41431 287.92896
206.49884 785.70886 346.78223
216.69087 756.72461 408.35181
222.71021 756.72461 408.35181
231.06125 741.8064 440.04175
234.74864 756.72461 408.35181
240.76775 756.72461 408.35181
246.78685 756.72461 408.35181
252.80617 756.72461 408.35181
-111.82236 920.61353 47.719482
-105.55067 932.16541 23.291504
-99.406967 943.28967 -0.23193359
-94.175003 943.28967 -0.23193359
-88.943138 943.28967 -0.23193359
-82.280449 965.11011 -46.374023
-77.137901 965.11011 -46.374023
-71.381691 975.8064 -68.99292
-66.282974 975.8064 -68.99292
-61.184364 975.8064 -68.99292
-56.567814 965.11011 -46.374023
-51.863602 954.4137 -23.755371
-47.087502 943.28967 -0.23193359
-42.598946 920.61353 47.719482
-37.949188 897.08167 97.480957
-32.527863 897.08167 97.480957
-27.352001 885.10181 122.81372
-21.881578 885.10181 122.81372
-16.563698 872.69397 149.05151
-11.042537 872.69397 149.05151
-5.5212684 872.69397 149.05151
0 872.69397 149.05151
5.521163 872.69397 149.05151
11.042537 872.69397 149.05151
16.563698 872.69397 149.05151
22.085073 872.69397 149.05151
27.606234 872.69397 149.05151
33.127396 872.69397 149.05151
39.0047 860.28638 175.28906
44.576702 860.28638 175.28906
50.148926 860.28638 175.28906
55.720936 860.28638 175.28906
61.292946 860.28638 175.28906
66.865166 860.28638 175.28906
