ply
format ascii 1.0
comment PCL generated
element vertex 1577
property float x
property float y
property float z
element camera 0
property float view_px
property float view_py
property float view_pz
property float x_axisx
property float x_axisy
property float x_axisz
property float y_axisx
property float y_axisy
property float y_axisz
property float z_axisx
property float z_axisy
property float z_axisz
property float focal
property float scalex
property float scaley
property float centerx
property float centery
property int viewportx
property int viewporty
property float k1
property float k2
end_header
-161.16641 894.22595 65.850586
-155.79417 894.22595 65.850586
-150.42194 894.22595 65.850586
-145.04982 894.22595 65.850586
-139.67758 894.22595 65.850586
-135.53267 882.1106 91.125977
-130.11134 882.1106 91.125977
-124.69002 882.1106 91.125977
-119.26879 882.1106 91.125977
-113.84747 882.1106 91.125977
-108.42614 882.1106 91.125977
-103.00481 882.1106 91.125977
-97.583481 882.1106 91.125977
-92.162254 882.1106 91.125977
-86.740929 882.1106 91.125977
-81.319603 882.1106 91.125977
-75.898277 882.1106 91.125977
-70.476952 882.1106 91.125977
-65.055725 882.1106 91.125977
-59.634396 882.1106 91.125977
-54.21307 882.1106 91.125977
-48.79174 882.1106 91.125977
-43.370415 882.1106 91.125977
-37.949188 882.1106 91.125977
-32.822422 869.99512 116.40137
-27.352001 869.99512 116.40137
-21.881578 869.99512 116.40137
-16.563698 857.4469 142.57959
-11.042537 857.4469 142.57959
-5.5212684 857.4469 142.57959
0 869.99512 116.40137
5.4703169 869.99512 116.40137
10.940842 869.99512 116.40137
16.41116 869.99512 116.40137
21.881683 869.99512 116.40137
27.606234 857.4469 142.57959
33.127396 857.4469 142.57959
38.292843 869.99512 116.40137
43.763157 869.99512 116.40137
49.233688 869.99512 116.40137
54.704002 869.99512 116.40137
60.174316 869.99512 116.40137
65.644844 869.99512 116.40137
71.115158 869.99512 116.40137
77.297546 857.4469 142.57959
82.818703 857.4469 142.57959
88.339859 857.4469 142.57959
94.725632 844.8988 168.75757
100.29764 844.8988 168.75757
106.86926 831.91797 195.83838
112.49387 831.91797 195.83838
119.22308 818.93726 222.91895
124.90051 818.93726 222.91895
130.57771 818.93726 222.91895
136.25513 818.93726 222.91895
141.93234 818.93726 222.91895
147.60954 818.93726 222.91895
508.41589 777.8313 308.6748
514.25964 777.8313 308.6748
520.10364 777.8313 308.6748
520.73999 792.11023 278.88599
526.52594 792.11023 278.88599
527.31158 805.52368 250.90259
533.04309 805.52368 250.90259
538.7749 805.52368 250.90259
544.50647 805.52368 250.90259
550.23798 805.52368 250.90259
555.96979 805.52368 250.90259
561.70135 805.52368 250.90259
567.43317 805.52368 250.90259
573.16467 805.52368 250.90259
-195.16707 877.12024 89.007812
-189.74574 877.12024 89.007812
-184.32442 877.12024 89.007812
-178.90309 877.12024 89.007812
-173.48186 877.12024 89.007812
-166.53865 889.28088 63.751465
-161.16641 889.28088 63.751465
-155.79417 889.28088 63.751465
-150.42194 889.28088 63.751465
-145.04982 889.28088 63.751465
-139.67758 889.28088 63.751465
-135.53267 877.12024 89.007812
-130.11134 877.12024 89.007812
-124.69002 877.12024 89.007812
-119.26879 877.12024 89.007812
-113.84747 877.12024 89.007812
-108.42614 877.12024 89.007812
-103.00481 877.12024 89.007812
-97.583481 877.12024 89.007812
-92.162254 877.12024 89.007812
-86.740929 877.12024 89.007812
-81.319603 877.12024 89.007812
-75.898277 877.12024 89.007812
-70.476952 877.12024 89.007812
-65.055725 877.12024 89.007812
-59.634396 877.12024 89.007812
-54.21307 877.12024 89.007812
-48.79174 877.12024 89.007812
-43.370415 877.12024 89.007812
-37.949188 877.12024 89.007812
-32.527863 877.12024 89.007812
-27.106535 877.12024 89.007812
-21.685207 877.12024 89.007812
-16.41116 864.95972 114.26392
-10.940842 864.95972 114.26392
-5.4704208 864.95972 114.26392
0 864.95972 114.26392
5.4703169 864.95972 114.26392
10.940842 864.95972 114.26392
16.41116 864.95972 114.26392
22.085073 852.36462 140.42212
27.606234 852.36462 140.42212
33.127396 852.36462 140.42212
38.648773 852.36462 140.42212
44.16993 852.36462 140.42212
49.691303 852.36462 140.42212
55.212467 852.36462 140.42212
60.733631 852.36462 140.42212
66.255005 852.36462 140.42212
71.776169 852.36462 140.42212
77.297546 852.36462 140.42212
82.818703 852.36462 140.42212
88.339859 852.36462 140.42212
94.725632 839.76978 166.58032
101.24444 826.7406 193.64062
106.86926 826.7406 193.64062
112.49387 826.7406 193.64062
119.22308 813.7113 220.70068
124.90051 813.7113 220.70068
130.57771 813.7113 220.70068
136.25513 813.7113 220.70068
141.93234 813.7113 220.70068
147.60954 813.7113 220.70068
514.25964 772.45203 306.3916
520.10364 772.45203 306.3916
525.94745 772.45203 306.3916
526.52594 786.78418 276.62524
527.31158 800.2478 248.66309
533.04309 800.2478 248.66309
538.7749 800.2478 248.66309
544.50647 800.2478 248.66309
550.23798 800.2478 248.66309
555.96979 800.2478 248.66309
561.70135 800.2478 248.66309
567.43317 800.2478 248.66309
-191.464 859.92407 112.12622
-184.32442 872.12988 86.889404
-177.283 884.33557 61.652344
-171.91087 884.33557 61.652344
-166.53865 884.33557 61.652344
-161.16641 884.33557 61.652344
-155.79417 884.33557 61.652344
-150.42194 884.33557 61.652344
-145.04982 884.33557 61.652344
-139.67758 884.33557 61.652344
-135.53267 872.12988 86.889404
-130.11134 872.12988 86.889404
-124.69002 872.12988 86.889404
-119.26879 872.12988 86.889404
-113.84747 872.12988 86.889404
-108.42614 872.12988 86.889404
-103.00481 872.12988 86.889404
-97.583481 872.12988 86.889404
-92.162254 872.12988 86.889404
-86.740929 872.12988 86.889404
-81.319603 872.12988 86.889404
-75.898277 872.12988 86.889404
-70.476952 872.12988 86.889404
-65.055725 872.12988 86.889404
-59.634396 872.12988 86.889404
-54.21307 872.12988 86.889404
-48.79174 872.12988 86.889404
-43.370415 872.12988 86.889404
-37.949188 872.12988 86.889404
-32.527863 872.12988 86.889404
-27.106535 872.12988 86.889404
-21.685207 872.12988 86.889404
-16.41116 859.92407 112.12622
-10.940842 859.92407 112.12622
-5.4704208 859.92407 112.12622
0 859.92407 112.12622
5.4703169 859.92407 112.12622
11.042537 847.28223 138.26489
16.563698 847.28223 138.26489
22.085073 847.28223 138.26489
27.606234 847.28223 138.26489
33.127396 847.28223 138.26489
38.648773 847.28223 138.26489
44.16993 847.28223 138.26489
49.691303 847.28223 138.26489
55.212467 847.28223 138.26489
60.733631 847.28223 138.26489
66.255005 847.28223 138.26489
71.776169 847.28223 138.26489
77.297546 847.28223 138.26489
82.818703 847.28223 138.26489
89.153404 834.64062 164.40308
94.725632 834.64062 164.40308
101.24444 821.56299 191.44287
106.86926 821.56299 191.44287
112.49387 821.56299 191.44287
118.11848 821.56299 191.44287
124.90051 808.48535 218.48242
130.57771 808.48535 218.48242
136.25513 808.48535 218.48242
140.61734 821.56299 191.44287
146.24194 821.56299 191.44287
514.25964 767.07263 304.10815
520.10364 767.07263 304.10815
525.94745 767.07263 304.10815
526.52594 781.45813 274.3645
532.31207 781.45813 274.3645
538.09796 781.45813 274.3645
543.88409 781.45813 274.3645
549.67004 781.45813 274.3645
550.23798 794.97168 246.42334
555.96979 794.97168 246.42334
561.70135 794.97168 246.42334
567.43317 794.97168 246.42334
-189.74574 867.13965 84.77124
-184.32442 867.13965 84.77124
-177.283 879.39062 59.553467
-171.91087 879.39062 59.553467
-166.53865 879.39062 59.553467
-161.16641 879.39062 59.553467
-155.79417 879.39062 59.553467
-150.42194 879.39062 59.553467
-145.04982 879.39062 59.553467
-140.95399 867.13965 84.77124
-135.53267 867.13965 84.77124
-130.11134 867.13965 84.77124
-124.69002 867.13965 84.77124
-119.26879 867.13965 84.77124
-113.84747 867.13965 84.77124
-108.42614 867.13965 84.77124
-103.00481 867.13965 84.77124
-97.583481 867.13965 84.77124
-92.162254 867.13965 84.77124
-86.740929 867.13965 84.77124
-81.319603 867.13965 84.77124
-75.898277 867.13965 84.77124
-70.476952 867.13965 84.77124
-65.055725 867.13965 84.77124
-59.634396 867.13965 84.77124
-54.21307 867.13965 84.77124
-48.79174 867.13965 84.77124
-43.370415 867.13965 84.77124
-37.949188 867.13965 84.77124
-32.527863 867.13965 84.77124
-27.106535 867.13965 84.77124
-21.685207 867.13965 84.77124
-16.41116 854.88867 109.98901
-10.940842 854.88867 109.98901
-5.5212684 842.19995 136.10767
0 842.19995 136.10767
5.521163 842.19995 136.10767
11.042537 842.19995 136.10767
16.563698 842.19995 136.10767
22.085073 842.19995 136.10767
27.606234 842.19995 136.10767
33.127396 842.19995 136.10767
38.648773 842.19995 136.10767
44.16993 842.19995 136.10767
49.691303 842.19995 136.10767
55.212467 842.19995 136.10767
60.733631 842.19995 136.10767
66.255005 842.19995 136.10767
71.776169 842.19995 136.10767
77.297546 842.19995 136.10767
82.818703 842.19995 136.10767
88.339859 842.19995 136.10767
94.725632 829.51147 162.22607
101.24444 816.3855 189.24512
106.86926 816.3855 189.24512
112.49387 816.3855 189.24512
118.11848 816.3855 189.24512
124.90051 803.2594 216.26416
130.57771 803.2594 216.26416
136.25513 803.2594 216.26416
140.61734 816.3855 189.24512
146.24194 816.3855 189.24512
526.52594 776.1322 272.10376
532.31207 776.1322 272.10376
538.09796 776.1322 272.10376
543.88409 776.1322 272.10376
549.67004 776.1322 272.10376
550.23798 789.6958 244.18384
555.96979 789.6958 244.18384
561.70135 789.6958 244.18384
-191.464 849.85303 107.85132
-185.99359 849.85303 107.85132
-178.90309 862.14917 82.653076
-173.48186 862.14917 82.653076
-168.06053 862.14917 82.653076
-161.16641 874.44531 57.454346
-155.79417 874.44531 57.454346
-150.42194 874.44531 57.454346
-146.37532 862.14917 82.653076
-140.95399 862.14917 82.653076
-135.53267 862.14917 82.653076
-130.11134 862.14917 82.653076
-124.69002 862.14917 82.653076
-120.34885 849.85303 107.85132
-114.87842 849.85303 107.85132
-109.408 849.85303 107.85132
-103.00481 862.14917 82.653076
-97.583481 862.14917 82.653076
-92.162254 862.14917 82.653076
-87.526421 849.85303 107.85132
-82.056 849.85303 107.85132
-75.898277 862.14917 82.653076
-70.476952 862.14917 82.653076
-65.055725 862.14917 82.653076
-59.634396 862.14917 82.653076
-54.21307 862.14917 82.653076
-48.79174 862.14917 82.653076
-43.370415 862.14917 82.653076
-37.949188 862.14917 82.653076
-32.527863 862.14917 82.653076
-27.106535 862.14917 82.653076
-21.685207 862.14917 82.653076
-16.41116 849.85303 107.85132
-11.042537 837.11768 133.9502
-5.5212684 837.11768 133.9502
0 837.11768 133.9502
5.521163 837.11768 133.9502
11.042537 837.11768 133.9502
16.563698 837.11768 133.9502
22.085073 837.11768 133.9502
27.606234 837.11768 133.9502
33.127396 837.11768 133.9502
38.648773 837.11768 133.9502
44.16993 837.11768 133.9502
49.691303 837.11768 133.9502
55.212467 837.11768 133.9502
60.733631 837.11768 133.9502
66.255005 837.11768 133.9502
71.776169 837.11768 133.9502
77.297546 837.11768 133.9502
82.818703 837.11768 133.9502
88.339859 837.11768 133.9502
94.725632 824.38232 160.04883
101.24444 811.20776 187.04736
106.86926 811.20776 187.04736
112.49387 811.20776 187.04736
118.11848 811.20776 187.04736
124.90051 798.03333 214.0459
130.57771 798.03333 214.0459
134.99274 811.20776 187.04736
140.61734 811.20776 187.04736
147.60954 798.03333 214.0459
532.31207 770.80603 269.84302
538.09796 770.80603 269.84302
543.88409 770.80603 269.84302
549.67004 770.80603 269.84302
555.45593 770.80603 269.84302
561.24207 770.80603 269.84302
-193.24364 832.03516 131.79297
-187.72237 832.03516 131.79297
-180.52318 844.8175 105.71387
-173.48186 857.15881 80.534668
-168.06053 857.15881 80.534668
-162.63921 857.15881 80.534668
-157.21788 857.15881 80.534668
-151.79655 857.15881 80.534668
-146.37532 857.15881 80.534668
-140.95399 857.15881 80.534668
-135.53267 857.15881 80.534668
-130.11134 857.15881 80.534668
-124.69002 857.15881 80.534668
-120.34885 844.8175 105.71387
-114.87842 844.8175 105.71387
-109.408 844.8175 105.71387
-103.93758 844.8175 105.71387
-98.467163 844.8175 105.71387
-92.996849 844.8175 105.71387
-87.526421 844.8175 105.71387
-82.056 844.8175 105.71387
-76.585587 844.8175 105.71387
-71.115158 844.8175 105.71387
-65.644844 844.8175 105.71387
-60.174423 844.8175 105.71387
-54.21307 857.15881 80.534668
-48.79174 857.15881 80.534668
-43.370415 857.15881 80.534668
-37.949188 857.15881 80.534668
-32.822422 844.8175 105.71387
-27.352001 844.8175 105.71387
-21.881578 844.8175 105.71387
-16.563698 832.03516 131.79297
-11.042537 832.03516 131.79297
-5.5212684 832.03516 131.79297
0 832.03516 131.79297
5.521163 832.03516 131.79297
11.042537 832.03516 131.79297
16.563698 832.03516 131.79297
22.085073 832.03516 131.79297
27.606234 832.03516 131.79297
33.127396 832.03516 131.79297
38.648773 832.03516 131.79297
44.16993 832.03516 131.79297
49.691303 832.03516 131.79297
55.212467 832.03516 131.79297
60.733631 832.03516 131.79297
66.865166 819.25305 157.87158
71.776169 832.03516 131.79297
77.297546 832.03516 131.79297
82.818703 832.03516 131.79297
89.153404 819.25305 157.87158
94.725632 819.25305 157.87158
100.29764 819.25305 157.87158
105.86987 819.25305 157.87158
112.49387 806.03015 184.84961
118.11848 806.03015 184.84961
123.7433 806.03015 184.84961
130.57771 792.80725 211.82764
134.99274 806.03015 184.84961
140.61734 806.03015 184.84961
147.60954 792.80725 211.82764
538.09796 765.47998 267.58203
543.88409 765.47998 267.58203
549.67004 765.47998 267.58203
555.45593 765.47998 267.58203
-191.464 839.78198 103.57642
-185.99359 839.78198 103.57642
-180.52318 839.78198 103.57642
-175.05284 839.78198 103.57642
-169.58243 839.78198 103.57642
-162.63921 852.16858 78.416504
-157.21788 852.16858 78.416504
-151.79655 852.16858 78.416504
-146.37532 852.16858 78.416504
-140.95399 852.16858 78.416504
-135.53267 852.16858 78.416504
-130.11134 852.16858 78.416504
-124.69002 852.16858 78.416504
-120.34885 839.78198 103.57642
-114.87842 839.78198 103.57642
-109.408 839.78198 103.57642
-103.93758 839.78198 103.57642
-98.467163 839.78198 103.57642
-92.996849 839.78198 103.57642
-87.526421 839.78198 103.57642
-82.056 839.78198 103.57642
-76.585587 839.78198 103.57642
-71.115158 839.78198 103.57642
-65.644844 839.78198 103.57642
-60.174423 839.78198 103.57642
-54.21307 852.16858 78.416504
-48.79174 852.16858 78.416504
-43.370415 852.16858 78.416504
-37.949188 852.16858 78.416504
-32.822422 839.78198 103.57642
-27.352001 839.78198 103.57642
-21.881578 839.78198 103.57642
-16.563698 826.953 129.6355
-11.042537 826.953 129.6355
-5.5212684 826.953 129.6355
0 826.953 129.6355
5.521163 826.953 129.6355
11.042537 826.953 129.6355
16.563698 826.953 129.6355
22.085073 826.953 129.6355
27.606234 826.953 129.6355
33.127396 826.953 129.6355
38.648773 826.953 129.6355
44.16993 826.953 129.6355
49.691303 826.953 129.6355
55.720936 814.12402 155.69434
61.292946 814.12402 155.69434
66.865166 814.12402 155.69434
71.776169 826.953 129.6355
77.297546 826.953 129.6355
82.818703 826.953 129.6355
89.153404 814.12402 155.69434
94.725632 814.12402 155.69434
100.29764 814.12402 155.69434
105.86987 814.12402 155.69434
112.49387 800.85278 182.65186
118.11848 800.85278 182.65186
123.7433 800.85278 182.65186
130.57771 787.58142 209.60938
136.25513 787.58142 209.60938
141.93234 787.58142 209.60938
147.60954 787.58142 209.60938
-191.464 834.74634 101.43896
-185.99359 834.74634 101.43896
-180.52318 834.74634 101.43896
-175.05284 834.74634 101.43896
-169.58243 834.74634 101.43896
-164.112 834.74634 101.43896
-158.64159 834.74634 101.43896
-153.17117 834.74634 101.43896
-146.37532 847.1781 76.298096
-140.95399 847.1781 76.298096
-135.53267 847.1781 76.298096
-130.11134 847.1781 76.298096
-124.69002 847.1781 76.298096
-120.34885 834.74634 101.43896
-114.87842 834.74634 101.43896
-109.408 834.74634 101.43896
-103.93758 834.74634 101.43896
-98.467163 834.74634 101.43896
-92.996849 834.74634 101.43896
-87.526421 834.74634 101.43896
-82.056 834.74634 101.43896
-76.585587 834.74634 101.43896
-71.115158 834.74634 101.43896
-65.644844 834.74634 101.43896
-60.174423 834.74634 101.43896
-54.704002 834.74634 101.43896
-49.233582 834.74634 101.43896
-43.763157 834.74634 101.43896
-38.292843 834.74634 101.43896
-32.822422 834.74634 101.43896
-27.352001 834.74634 101.43896
-21.881578 834.74634 101.43896
-16.563698 821.87061 127.47827
-11.042537 821.87061 127.47827
-5.5212684 821.87061 127.47827
0 821.87061 127.47827
5.521163 821.87061 127.47827
11.042537 821.87061 127.47827
16.563698 821.87061 127.47827
22.085073 821.87061 127.47827
27.606234 821.87061 127.47827
33.127396 821.87061 127.47827
38.648773 821.87061 127.47827
44.16993 821.87061 127.47827
49.691303 821.87061 127.47827
55.720936 808.99487 153.51709
61.292946 808.99487 153.51709
66.865166 808.99487 153.51709
71.776169 821.87061 127.47827
77.297546 821.87061 127.47827
82.818703 821.87061 127.47827
89.153404 808.99487 153.51709
94.725632 808.99487 153.51709
100.29764 808.99487 153.51709
105.86987 808.99487 153.51709
112.49387 795.67505 180.4541
118.11848 795.67505 180.4541
123.7433 795.67505 180.4541
130.57771 782.35535 207.39087
136.25513 782.35535 207.39087
141.93234 782.35535 207.39087
147.60954 782.35535 207.39087
-185.99359 829.71094 99.301514
-180.52318 829.71094 99.301514
-175.05284 829.71094 99.301514
-169.58243 829.71094 99.301514
-164.112 829.71094 99.301514
-158.64159 829.71094 99.301514
-153.17117 829.71094 99.301514
-147.70084 829.71094 99.301514
-142.23042 829.71094 99.301514
-136.76001 829.71094 99.301514
-130.11134 842.18787 74.179932
-124.69002 842.18787 74.179932
-120.34885 829.71094 99.301514
-114.87842 829.71094 99.301514
-109.408 829.71094 99.301514
-103.93758 829.71094 99.301514
-98.467163 829.71094 99.301514
-92.996849 829.71094 99.301514
-87.526421 829.71094 99.301514
-82.056 829.71094 99.301514
-76.585587 829.71094 99.301514
-71.115158 829.71094 99.301514
-65.644844 829.71094 99.301514
-60.174423 829.71094 99.301514
-54.704002 829.71094 99.301514
-49.233582 829.71094 99.301514
-43.763157 829.71094 99.301514
-38.292843 829.71094 99.301514
-32.822422 829.71094 99.301514
-27.352001 829.71094 99.301514
-21.881578 829.71094 99.301514
-16.563698 816.78833 125.32104
-11.042537 816.78833 125.32104
-5.5212684 816.78833 125.32104
0 816.78833 125.32104
5.521163 816.78833 125.32104
11.042537 816.78833 125.32104
16.563698 816.78833 125.32104
22.085073 816.78833 125.32104
27.606234 816.78833 125.32104
33.127396 816.78833 125.32104
38.648773 816.78833 125.32104
44.16993 816.78833 125.32104
49.691303 816.78833 125.32104
55.720936 803.86572 151.34009
61.292946 803.86572 151.34009
66.865166 803.86572 151.34009
72.437172 803.86572 151.34009
78.009399 803.86572 151.34009
83.581406 803.86572 151.34009
89.153404 803.86572 151.34009
94.725632 803.86572 151.34009
101.24444 790.49756 178.25659
106.86926 790.49756 178.25659
112.49387 790.49756 178.25659
118.11848 790.49756 178.25659
124.90051 777.12939 205.17261
130.57771 777.12939 205.17261
136.25513 777.12939 205.17261
141.93234 777.12939 205.17261
149.02272 763.31567 232.98633
-200.59538 798.73657 149.16284
-195.02327 798.73657 149.16284
-189.45117 798.73657 149.16284
-180.52318 824.67529 97.164062
-175.05284 824.67529 97.164062
-169.58243 824.67529 97.164062
-164.112 824.67529 97.164062
-158.64159 824.67529 97.164062
-153.17117 824.67529 97.164062
-147.70084 824.67529 97.164062
-142.23042 824.67529 97.164062
-136.76001 824.67529 97.164062
-131.28958 824.67529 97.164062
-125.81916 824.67529 97.164062
-120.34885 824.67529 97.164062
-114.87842 824.67529 97.164062
-109.408 824.67529 97.164062
-103.93758 824.67529 97.164062
-98.467163 824.67529 97.164062
-92.996849 824.67529 97.164062
-87.526421 824.67529 97.164062
-82.056 824.67529 97.164062
-76.585587 824.67529 97.164062
-71.115158 824.67529 97.164062
-65.644844 824.67529 97.164062
-60.174423 824.67529 97.164062
-54.704002 824.67529 97.164062
-49.233582 824.67529 97.164062
-43.763157 824.67529 97.164062
-38.292843 824.67529 97.164062
-32.822422 824.67529 97.164062
-27.352001 824.67529 97.164062
-21.881578 824.67529 97.164062
-16.563698 811.70593 123.16357
-11.042537 811.70593 123.16357
-5.5212684 811.70593 123.16357
0 811.70593 123.16357
5.521163 811.70593 123.16357
11.042537 811.70593 123.16357
16.563698 811.70593 123.16357
22.085073 811.70593 123.16357
27.606234 811.70593 123.16357
33.127396 811.70593 123.16357
38.648773 811.70593 123.16357
44.16993 811.70593 123.16357
49.691303 811.70593 123.16357
55.720936 798.73657 149.16284
61.292946 798.73657 149.16284
67.496368 785.31995 176.05859
72.437172 798.73657 149.16284
78.009399 798.73657 149.16284
83.581406 798.73657 149.16284
89.153404 798.73657 149.16284
94.725632 798.73657 149.16284
101.24444 785.31995 176.05859
106.86926 785.31995 176.05859
112.49387 785.31995 176.05859
118.11848 785.31995 176.05859
124.90051 771.90344 202.95435
130.57771 771.90344 202.95435
136.25513 771.90344 202.95435
143.29117 758.03955 230.74658
-200.59538 793.60754 146.9856
-195.02327 793.60754 146.9856
-187.72237 806.62366 121.00635
-182.2011 806.62366 121.00635
-176.67995 806.62366 121.00635
-171.15868 806.62366 121.00635
-164.112 819.63989 95.026611
-158.64159 819.63989 95.026611
-153.17117 819.63989 95.026611
-147.70084 819.63989 95.026611
-142.23042 819.63989 95.026611
-136.76001 819.63989 95.026611
-131.28958 819.63989 95.026611
-125.81916 819.63989 95.026611
-120.34885 819.63989 95.026611
-114.87842 819.63989 95.026611
-109.408 819.63989 95.026611
-103.93758 819.63989 95.026611
-98.467163 819.63989 95.026611
-92.996849 819.63989 95.026611
-87.526421 819.63989 95.026611
-82.056 819.63989 95.026611
-76.585587 819.63989 95.026611
-71.776169 806.62366 121.00635
-66.255005 806.62366 121.00635
-60.733734 806.62366 121.00635
-54.704002 819.63989 95.026611
-49.233582 819.63989 95.026611
-43.763157 819.63989 95.026611
-38.292843 819.63989 95.026611
-32.822422 819.63989 95.026611
-27.352001 819.63989 95.026611
-21.881578 819.63989 95.026611
-16.563698 806.62366 121.00635
-11.042537 806.62366 121.00635
-5.5212684 806.62366 121.00635
0 806.62366 121.00635
5.521163 806.62366 121.00635
11.042537 806.62366 121.00635
16.563698 806.62366 121.00635
22.085073 806.62366 121.00635
27.606234 806.62366 121.00635
33.127396 806.62366 121.00635
38.648773 806.62366 121.00635
44.16993 806.62366 121.00635
49.691303 806.62366 121.00635
55.720936 793.60754 146.9856
61.292946 793.60754 146.9856
67.496368 780.14246 173.86108
72.437172 793.60754 146.9856
78.009399 793.60754 146.9856
83.581406 793.60754 146.9856
89.99501 780.14246 173.86108
95.619835 780.14246 173.86108
101.24444 780.14246 173.86108
106.86926 780.14246 173.86108
112.49387 780.14246 173.86108
118.11848 780.14246 173.86108
124.90051 766.67749 200.73608
130.57771 766.67749 200.73608
136.25513 766.67749 200.73608
143.29117 752.76367 228.50732
149.02272 752.76367 228.50732
-200.59538 788.47827 144.80835
-193.24364 801.54126 118.84888
-187.72237 801.54126 118.84888
-182.2011 801.54126 118.84888
-175.05284 814.60425 92.88916
-169.58243 814.60425 92.88916
-164.112 814.60425 92.88916
-158.64159 814.60425 92.88916
-153.17117 814.60425 92.88916
-147.70084 814.60425 92.88916
-142.23042 814.60425 92.88916
-135.53267 827.2168 67.824951
-130.11134 827.2168 67.824951
-125.81916 814.60425 92.88916
-120.34885 814.60425 92.88916
-114.87842 814.60425 92.88916
-109.408 814.60425 92.88916
-103.93758 814.60425 92.88916
-98.467163 814.60425 92.88916
-92.996849 814.60425 92.88916
-87.526421 814.60425 92.88916
-82.056 814.60425 92.88916
-76.585587 814.60425 92.88916
-71.776169 801.54126 118.84888
-66.255005 801.54126 118.84888
-60.174423 814.60425 92.88916
-54.704002 814.60425 92.88916
-49.233582 814.60425 92.88916
-43.763157 814.60425 92.88916
-38.292843 814.60425 92.88916
-32.822422 814.60425 92.88916
-27.352001 814.60425 92.88916
-21.881578 814.60425 92.88916
-16.563698 801.54126 118.84888
-11.042537 801.54126 118.84888
-5.5212684 801.54126 118.84888
0 801.54126 118.84888
5.5720086 788.47827 144.80835
11.042537 801.54126 118.84888
16.563698 801.54126 118.84888
22.085073 801.54126 118.84888
27.606234 801.54126 118.84888
33.127396 801.54126 118.84888
38.648773 801.54126 118.84888
44.16993 801.54126 118.84888
49.691303 801.54126 118.84888
55.720936 788.47827 144.80835
61.292946 788.47827 144.80835
67.496368 774.96484 171.66333
73.120972 774.96484 171.66333
78.009399 788.47827 144.80835
83.581406 788.47827 144.80835
89.99501 774.96484 171.66333
95.619835 774.96484 171.66333
101.24444 774.96484 171.66333
106.86926 774.96484 171.66333
112.49387 774.96484 171.66333
119.22308 761.45142 198.51782
124.90051 761.45142 198.51782
130.57771 761.45142 198.51782
136.25513 761.45142 198.51782
143.29117 747.48755 226.26758
149.02272 747.48755 226.26758
-206.16751 783.34924 142.63135
-200.59538 783.34924 142.63135
-193.24364 796.45898 116.69165
-187.72237 796.45898 116.69165
-182.2011 796.45898 116.69165
-175.05284 809.56885 90.751709
-169.58243 809.56885 90.751709
-164.112 809.56885 90.751709
-158.64159 809.56885 90.751709
-153.17117 809.56885 90.751709
-147.70084 809.56885 90.751709
-142.23042 809.56885 90.751709
-135.53267 822.22656 65.706787
-130.11134 822.22656 65.706787
-125.81916 809.56885 90.751709
-120.34885 809.56885 90.751709
-114.87842 809.56885 90.751709
-109.408 809.56885 90.751709
-103.93758 809.56885 90.751709
-98.467163 809.56885 90.751709
-92.996849 809.56885 90.751709
-87.526421 809.56885 90.751709
-82.056 809.56885 90.751709
-76.585587 809.56885 90.751709
-71.776169 796.45898 116.69165
-66.255005 796.45898 116.69165
-60.174423 809.56885 90.751709
-54.704002 809.56885 90.751709
-49.233582 809.56885 90.751709
-43.763157 809.56885 90.751709
-38.292843 809.56885 90.751709
-32.822422 809.56885 90.751709
-27.352001 809.56885 90.751709
-21.881578 809.56885 90.751709
-16.563698 796.45898 116.69165
-11.042537 796.45898 116.69165
-5.5721149 783.34924 142.63135
0 783.34924 142.63135
5.5720086 783.34924 142.63135
11.042537 796.45898 116.69165
16.563698 796.45898 116.69165
22.085073 796.45898 116.69165
27.606234 796.45898 116.69165
33.127396 796.45898 116.69165
39.0047 783.34924 142.63135
44.16993 796.45898 116.69165
49.691303 796.45898 116.69165
55.720936 783.34924 142.63135
61.292946 783.34924 142.63135
67.496368 769.78735 169.46558
73.120972 769.78735 169.46558
78.009399 783.34924 142.63135
83.581406 783.34924 142.63135
89.99501 769.78735 169.46558
95.619835 769.78735 169.46558
101.24444 769.78735 169.46558
106.86926 769.78735 169.46558
112.49387 769.78735 169.46558
119.22308 756.22559 196.29956
124.90051 756.22559 196.29956
130.57771 756.22559 196.29956
136.25513 756.22559 196.29956
143.29117 742.21167 224.02808
149.02272 742.21167 224.02808
-202.40485 804.5332 88.614258
-196.93442 804.5332 88.614258
-191.464 804.5332 88.614258
-187.72237 791.37659 114.53442
-182.2011 791.37659 114.53442
-176.67995 791.37659 114.53442
-171.15868 791.37659 114.53442
-164.112 804.5332 88.614258
-158.64159 804.5332 88.614258
-153.17117 804.5332 88.614258
-147.70084 804.5332 88.614258
-142.23042 804.5332 88.614258
-136.76001 804.5332 88.614258
-131.28958 804.5332 88.614258
-125.81916 804.5332 88.614258
-120.34885 804.5332 88.614258
-114.87842 804.5332 88.614258
-109.408 804.5332 88.614258
-103.93758 804.5332 88.614258
-98.467163 804.5332 88.614258
-92.996849 804.5332 88.614258
-87.526421 804.5332 88.614258
-82.056 804.5332 88.614258
-77.297432 791.37659 114.53442
-71.776169 791.37659 114.53442
-66.255005 791.37659 114.53442
-60.733734 791.37659 114.53442
-55.212467 791.37659 114.53442
-49.6912 791.37659 114.53442
-44.16993 791.37659 114.53442
-38.648773 791.37659 114.53442
-33.127502 791.37659 114.53442
-27.352001 804.5332 88.614258
-21.881578 804.5332 88.614258
-16.563698 791.37659 114.53442
-11.042537 791.37659 114.53442
-5.5721149 778.21997 140.4541
0 778.21997 140.4541
5.5720086 778.21997 140.4541
11.14423 778.21997 140.4541
16.716238 778.21997 140.4541
22.28846 778.21997 140.4541
27.860468 778.21997 140.4541
33.432476 778.21997 140.4541
39.0047 778.21997 140.4541
44.576702 778.21997 140.4541
50.148926 778.21997 140.4541
55.720936 778.21997 140.4541
61.292946 778.21997 140.4541
67.496368 764.60974 167.26782
73.120972 764.60974 167.26782
78.745796 764.60974 167.26782
84.370399 764.60974 167.26782
89.99501 764.60974 167.26782
95.619835 764.60974 167.26782
101.24444 764.60974 167.26782
106.86926 764.60974 167.26782
112.49387 764.60974 167.26782
119.22308 750.99951 194.0813
124.90051 750.99951 194.0813
130.57771 750.99951 194.0813
136.25513 750.99951 194.0813
143.29117 736.93555 221.78857
149.02272 736.93555 221.78857
-202.40485 799.4978 86.476807
-196.93442 799.4978 86.476807
-191.464 799.4978 86.476807
-187.72237 786.29431 112.37695
-182.2011 786.29431 112.37695
-176.67995 786.29431 112.37695
-171.15868 786.29431 112.37695
-165.63741 786.29431 112.37695
-158.64159 799.4978 86.476807
-153.17117 799.4978 86.476807
-147.70084 799.4978 86.476807
-142.23042 799.4978 86.476807
-136.76001 799.4978 86.476807
-131.28958 799.4978 86.476807
-125.81916 799.4978 86.476807
-120.34885 799.4978 86.476807
-114.87842 799.4978 86.476807
-109.408 799.4978 86.476807
-103.93758 799.4978 86.476807
-98.467163 799.4978 86.476807
-92.996849 799.4978 86.476807
-87.526421 799.4978 86.476807
-82.056 799.4978 86.476807
-77.297432 786.29431 112.37695
-71.776169 786.29431 112.37695
-66.255005 786.29431 112.37695
-60.733734 786.29431 112.37695
-55.212467 786.29431 112.37695
-49.6912 786.29431 112.37695
-44.16993 786.29431 112.37695
-38.648773 786.29431 112.37695
-33.127502 786.29431 112.37695
-27.606234 786.29431 112.37695
-22.084965 786.29431 112.37695
-16.563698 786.29431 112.37695
-11.042537 786.29431 112.37695
-5.5721149 773.09094 138.27686
0 773.09094 138.27686
5.5720086 773.09094 138.27686
11.14423 773.09094 138.27686
16.716238 773.09094 138.27686
22.28846 773.09094 138.27686
27.860468 773.09094 138.27686
33.432476 773.09094 138.27686
39.0047 773.09094 138.27686
44.576702 773.09094 138.27686
50.148926 773.09094 138.27686
55.720936 773.09094 138.27686
61.871544 759.43225 165.07007
67.496368 759.43225 165.07007
73.120972 759.43225 165.07007
78.745796 759.43225 165.07007
84.370399 759.43225 165.07007
89.99501 759.43225 165.07007
95.619835 759.43225 165.07007
102.19124 745.77368 191.86304
107.86867 745.77368 191.86304
113.54587 745.77368 191.86304
119.22308 745.77368 191.86304
124.90051 745.77368 191.86304
130.57771 745.77368 191.86304
136.25513 745.77368 191.86304
143.29117 731.65967 219.54907
149.02272 731.65967 219.54907
-204.28618 781.21191 110.21973
-198.76491 781.21191 110.21973
-193.24364 781.21191 110.21973
-187.72237 781.21191 110.21973
-183.87904 767.96179 136.09961
-178.30704 767.96179 136.09961
-171.15868 781.21191 110.21973
-165.63741 781.21191 110.21973
-160.11613 781.21191 110.21973
-153.17117 794.46216 84.339355
-147.70084 794.46216 84.339355
-142.23042 794.46216 84.339355
-136.76001 794.46216 84.339355
-131.28958 794.46216 84.339355
-125.81916 794.46216 84.339355
-120.34885 794.46216 84.339355
-114.87842 794.46216 84.339355
-109.408 794.46216 84.339355
-104.90366 781.21191 110.21973
-99.382401 781.21191 110.21973
-93.861237 781.21191 110.21973
-88.339973 781.21191 110.21973
-82.818703 781.21191 110.21973
-77.297432 781.21191 110.21973
-71.776169 781.21191 110.21973
-66.255005 781.21191 110.21973
-60.733734 781.21191 110.21973
-55.212467 781.21191 110.21973
-49.6912 781.21191 110.21973
-44.16993 781.21191 110.21973
-38.648773 781.21191 110.21973
-33.127502 781.21191 110.21973
-27.606234 781.21191 110.21973
-22.084965 781.21191 110.21973
-16.716238 767.96179 136.09961
-11.14423 767.96179 136.09961
-5.5721149 767.96179 136.09961
0 767.96179 136.09961
5.5720086 767.96179 136.09961
11.14423 767.96179 136.09961
16.716238 767.96179 136.09961
22.28846 767.96179 136.09961
27.860468 767.96179 136.09961
33.432476 767.96179 136.09961
39.0047 767.96179 136.09961
44.576702 767.96179 136.09961
50.148926 767.96179 136.09961
55.720936 767.96179 136.09961
61.871544 754.25464 162.87231
67.496368 754.25464 162.87231
73.120972 754.25464 162.87231
78.745796 754.25464 162.87231
84.370399 754.25464 162.87231
89.99501 754.25464 162.87231
95.619835 754.25464 162.87231
102.19124 740.54761 189.64453
106.86926 754.25464 162.87231
112.49387 754.25464 162.87231
119.22308 740.54761 189.64453
124.90051 740.54761 189.64453
130.57771 740.54761 189.64453
136.25513 740.54761 189.64453
141.93234 740.54761 189.64453
149.02272 726.38354 217.30957
-210.05991 735.32166 187.42627
-202.48898 749.07715 160.67456
-196.86427 749.07715 160.67456
-189.45117 762.83276 133.92261
-183.87904 762.83276 133.92261
-178.30704 762.83276 133.92261
-171.15868 776.12964 108.0625
-165.63741 776.12964 108.0625
-158.64159 789.42676 82.201904
-153.17117 789.42676 82.201904
-147.70084 789.42676 82.201904
-142.23042 789.42676 82.201904
-136.76001 789.42676 82.201904
-131.28958 789.42676 82.201904
-126.98864 776.12964 108.0625
-121.46747 776.12964 108.0625
-115.94621 776.12964 108.0625
-110.42493 776.12964 108.0625
-104.90366 776.12964 108.0625
-99.382401 776.12964 108.0625
-93.861237 776.12964 108.0625
-88.339973 776.12964 108.0625
-82.818703 776.12964 108.0625
-77.297432 776.12964 108.0625
-71.776169 776.12964 108.0625
-66.255005 776.12964 108.0625
-60.733734 776.12964 108.0625
-55.212467 776.12964 108.0625
-49.6912 776.12964 108.0625
-44.16993 776.12964 108.0625
-38.648773 776.12964 108.0625
-33.127502 776.12964 108.0625
-27.606234 776.12964 108.0625
-22.084965 776.12964 108.0625
-16.716238 762.83276 133.92261
-11.14423 762.83276 133.92261
-5.5721149 762.83276 133.92261
0 762.83276 133.92261
5.5720086 762.83276 133.92261
11.14423 762.83276 133.92261
16.716238 762.83276 133.92261
22.28846 762.83276 133.92261
27.860468 762.83276 133.92261
33.432476 762.83276 133.92261
39.0047 762.83276 133.92261
44.576702 762.83276 133.92261
50.148926 762.83276 133.92261
55.720936 762.83276 133.92261
61.292946 762.83276 133.92261
67.496368 749.07715 160.67456
73.120972 749.07715 160.67456
78.745796 749.07715 160.67456
84.370399 749.07715 160.67456
89.99501 749.07715 160.67456
95.619835 749.07715 160.67456
101.24444 749.07715 160.67456
106.86926 749.07715 160.67456
112.49387 749.07715 160.67456
119.22308 735.32166 187.42627
124.90051 735.32166 187.42627
130.57771 735.32166 187.42627
136.25513 735.32166 187.42627
141.93234 735.32166 187.42627
149.02272 721.10767 215.07007
154.75452 721.10767 215.07007
-210.05991 730.0957 185.20801
-200.59538 757.70349 131.74536
-195.02327 757.70349 131.74536
-189.45117 757.70349 131.74536
-183.87904 757.70349 131.74536
-178.30704 757.70349 131.74536
-172.73491 757.70349 131.74536
-165.63741 771.04724 105.90503
-158.64159 784.39111 80.064453
-153.17117 784.39111 80.064453
-147.70084 784.39111 80.064453
-142.23042 784.39111 80.064453
-136.76001 784.39111 80.064453
-131.28958 784.39111 80.064453
-126.98864 771.04724 105.90503
-121.46747 771.04724 105.90503
-115.94621 771.04724 105.90503
-110.42493 771.04724 105.90503
-104.90366 771.04724 105.90503
-99.382401 771.04724 105.90503
-93.861237 771.04724 105.90503
-88.339973 771.04724 105.90503
-82.818703 771.04724 105.90503
-77.297432 771.04724 105.90503
-71.776169 771.04724 105.90503
-66.255005 771.04724 105.90503
-60.733734 771.04724 105.90503
-55.212467 771.04724 105.90503
-49.6912 771.04724 105.90503
-44.16993 771.04724 105.90503
-38.648773 771.04724 105.90503
-33.127502 771.04724 105.90503
-27.606234 771.04724 105.90503
-22.084965 771.04724 105.90503
-16.716238 757.70349 131.74536
-11.14423 757.70349 131.74536
-5.5721149 757.70349 131.74536
0 757.70349 131.74536
5.5720086 757.70349 131.74536
11.14423 757.70349 131.74536
16.716238 757.70349 131.74536
22.28846 757.70349 131.74536
27.860468 757.70349 131.74536
33.432476 757.70349 131.74536
39.0047 757.70349 131.74536
44.576702 757.70349 131.74536
50.148926 757.70349 131.74536
55.720936 757.70349 131.74536
61.292946 757.70349 131.74536
67.496368 743.89954 158.47681
73.120972 743.89954 158.47681
78.745796 743.89954 158.47681
84.370399 743.89954 158.47681
89.99501 743.89954 158.47681
95.619835 743.89954 158.47681
101.24444 743.89954 158.47681
107.86867 730.0957 185.20801
113.54587 730.0957 185.20801
119.22308 730.0957 185.20801
124.90051 730.0957 185.20801
130.57771 730.0957 185.20801
136.25513 730.0957 185.20801
141.93234 730.0957 185.20801
147.60954 730.0957 185.20801
153.28697 730.0957 185.20801
-210.05991 724.86975 182.98975
-200.59538 752.57446 129.56812
-195.02327 752.57446 129.56812
-189.45117 752.57446 129.56812
-185.61484 738.72205 156.27905
-179.99023 738.72205 156.27905
-172.73491 752.57446 129.56812
-167.16281 752.57446 129.56812
-160.11613 765.96497 103.7478
-153.17117 779.35571 77.927002
-147.70084 779.35571 77.927002
-142.23042 779.35571 77.927002
-136.76001 779.35571 77.927002
-132.5099 765.96497 103.7478
-126.98864 765.96497 103.7478
-121.46747 765.96497 103.7478
-115.94621 765.96497 103.7478
-110.42493 765.96497 103.7478
-104.90366 765.96497 103.7478
-99.382401 765.96497 103.7478
-93.861237 765.96497 103.7478
-88.339973 765.96497 103.7478
-82.818703 765.96497 103.7478
-77.297432 765.96497 103.7478
-71.776169 765.96497 103.7478
-66.255005 765.96497 103.7478
-60.733734 765.96497 103.7478
-55.212467 765.96497 103.7478
-49.6912 765.96497 103.7478
-44.576702 752.57446 129.56812
-39.0047 752.57446 129.56812
-33.432583 752.57446 129.56812
-27.606234 765.96497 103.7478
-22.084965 765.96497 103.7478
-16.874039 738.72205 156.27905
-11.14423 752.57446 129.56812
-5.5721149 752.57446 129.56812
0 752.57446 129.56812
5.5720086 752.57446 129.56812
11.14423 752.57446 129.56812
16.716238 752.57446 129.56812
22.28846 752.57446 129.56812
27.860468 752.57446 129.56812
33.432476 752.57446 129.56812
39.0047 752.57446 129.56812
44.576702 752.57446 129.56812
50.148926 752.57446 129.56812
55.720936 752.57446 129.56812
61.871544 738.72205 156.27905
67.496368 738.72205 156.27905
73.120972 738.72205 156.27905
78.745796 738.72205 156.27905
84.370399 738.72205 156.27905
89.99501 738.72205 156.27905
95.619835 738.72205 156.27905
102.19124 724.86975 182.98975
107.86867 724.86975 182.98975
113.54587 724.86975 182.98975
119.22308 724.86975 182.98975
124.90051 724.86975 182.98975
130.57771 724.86975 182.98975
136.25513 724.86975 182.98975
141.93234 724.86975 182.98975
147.60954 724.86975 182.98975
153.28697 724.86975 182.98975
-210.05991 719.64368 180.77148
-202.48898 733.54443 154.0813
-196.86427 733.54443 154.0813
-191.23956 733.54443 154.0813
-185.61484 733.54443 154.0813
-179.99023 733.54443 154.0813
-174.36551 733.54443 154.0813
-167.16281 747.44519 127.39087
-161.5907 747.44519 127.39087
-154.59486 760.88257 101.59033
-149.07372 760.88257 101.59033
-143.55244 760.88257 101.59033
-138.03117 760.88257 101.59033
-132.5099 760.88257 101.59033
-126.98864 760.88257 101.59033
-121.46747 760.88257 101.59033
-117.01398 747.44519 127.39087
-111.44187 747.44519 127.39087
-104.90366 760.88257 101.59033
-99.382401 760.88257 101.59033
-93.861237 760.88257 101.59033
-88.339973 760.88257 101.59033
-83.581406 747.44519 127.39087
-78.009285 747.44519 127.39087
-72.437172 747.44519 127.39087
-66.865166 747.44519 127.39087
-61.293053 747.44519 127.39087
-55.720936 747.44519 127.39087
-50.148819 747.44519 127.39087
-44.576702 747.44519 127.39087
-39.0047 747.44519 127.39087
-33.432583 747.44519 127.39087
-27.606234 760.88257 101.59033
-22.084965 760.88257 101.59033
-16.874039 733.54443 154.0813
-11.14423 747.44519 127.39087
-5.5721149 747.44519 127.39087
0 733.54443 154.0813
5.6246076 733.54443 154.0813
11.14423 747.44519 127.39087
16.716238 747.44519 127.39087
22.498859 733.54443 154.0813
27.860468 747.44519 127.39087
33.432476 747.44519 127.39087
39.0047 747.44519 127.39087
44.997505 733.54443 154.0813
50.622326 733.54443 154.0813
56.246937 733.54443 154.0813
61.871544 733.54443 154.0813
67.496368 733.54443 154.0813
73.120972 733.54443 154.0813
78.745796 733.54443 154.0813
84.370399 733.54443 154.0813
89.99501 733.54443 154.0813
95.619835 733.54443 154.0813
102.19124 719.64368 180.77148
107.86867 719.64368 180.77148
113.54587 719.64368 180.77148
119.22308 719.64368 180.77148
124.90051 719.64368 180.77148
130.57771 719.64368 180.77148
136.25513 719.64368 180.77148
141.93234 719.64368 180.77148
147.60954 719.64368 180.77148
153.28697 719.64368 180.77148
-210.05991 714.41772 178.55322
-202.48898 728.36682 151.88354
-196.86427 728.36682 151.88354
-191.23956 728.36682 151.88354
-187.35065 714.41772 178.55322
-179.99023 728.36682 151.88354
-174.36551 728.36682 151.88354
-168.7408 728.36682 151.88354
-161.5907 742.31604 125.21362
-154.59486 755.80017 99.433105
-149.07372 755.80017 99.433105
-143.55244 755.80017 99.433105
-138.03117 755.80017 99.433105
-132.5099 755.80017 99.433105
-126.98864 755.80017 99.433105
-121.46747 755.80017 99.433105
-117.01398 742.31604 125.21362
-111.44187 742.31604 125.21362
-104.90366 755.80017 99.433105
-99.382401 755.80017 99.433105
-94.725632 742.31604 125.21362
-89.153519 742.31604 125.21362
-83.581406 742.31604 125.21362
-78.009285 742.31604 125.21362
-72.437172 742.31604 125.21362
-66.865166 742.31604 125.21362
-61.293053 742.31604 125.21362
-55.720936 742.31604 125.21362
-50.148819 742.31604 125.21362
-44.576702 742.31604 125.21362
-39.0047 742.31604 125.21362
-33.432583 742.31604 125.21362
-27.860468 742.31604 125.21362
-22.288351 742.31604 125.21362
-16.874039 728.36682 151.88354
-11.24943 728.36682 151.88354
-5.6247149 728.36682 151.88354
0 728.36682 151.88354
5.6246076 728.36682 151.88354
11.14423 742.31604 125.21362
16.716238 742.31604 125.21362
22.498859 728.36682 151.88354
28.123468 728.36682 151.88354
33.748077 728.36682 151.88354
39.372898 728.36682 151.88354
44.997505 728.36682 151.88354
50.622326 728.36682 151.88354
56.246937 728.36682 151.88354
61.871544 728.36682 151.88354
67.496368 728.36682 151.88354
73.120972 728.36682 151.88354
78.745796 728.36682 151.88354
84.370399 728.36682 151.88354
90.836609 714.41772 178.55322
96.514038 714.41772 178.55322
102.19124 714.41772 178.55322
107.86867 714.41772 178.55322
113.54587 714.41772 178.55322
119.22308 714.41772 178.55322
124.90051 714.41772 178.55322
130.57771 714.41772 178.55322
136.25513 714.41772 178.55322
141.93234 714.41772 178.55322
149.02272 700.00342 206.11182
154.75452 700.00342 206.11182
-210.05991 709.19177 176.33496
-202.48898 723.18933 149.68579
-196.86427 723.18933 149.68579
-193.02797 709.19177 176.33496
-187.35065 709.19177 176.33496
-179.99023 723.18933 149.68579
-174.36551 723.18933 149.68579
-168.7408 723.18933 149.68579
-163.1161 723.18933 149.68579
-156.01857 737.18689 123.03662
-150.44656 737.18689 123.03662
-144.87445 737.18689 123.03662
-139.30234 737.18689 123.03662
-133.73022 737.18689 123.03662
-128.15811 737.18689 123.03662
-122.58611 737.18689 123.03662
-117.01398 737.18689 123.03662
-111.44187 737.18689 123.03662
-105.86976 737.18689 123.03662
-100.29764 737.18689 123.03662
-94.725632 737.18689 123.03662
-89.153519 737.18689 123.03662
-83.581406 737.18689 123.03662
-78.009285 737.18689 123.03662
-72.437172 737.18689 123.03662
-66.865166 737.18689 123.03662
-61.293053 737.18689 123.03662
-55.720936 737.18689 123.03662
-50.148819 737.18689 123.03662
-44.576702 737.18689 123.03662
-39.0047 737.18689 123.03662
-33.432583 737.18689 123.03662
-27.860468 737.18689 123.03662
-22.288351 737.18689 123.03662
-16.874039 723.18933 149.68579
-11.24943 723.18933 149.68579
-5.6247149 723.18933 149.68579
0 723.18933 149.68579
5.6246076 723.18933 149.68579
11.24943 723.18933 149.68579
16.874039 723.18933 149.68579
22.498859 723.18933 149.68579
28.123468 723.18933 149.68579
33.748077 723.18933 149.68579
39.372898 723.18933 149.68579
44.997505 723.18933 149.68579
50.622326 723.18933 149.68579
56.246937 723.18933 149.68579
61.871544 723.18933 149.68579
67.496368 723.18933 149.68579
73.120972 723.18933 149.68579
79.482201 709.19177 176.33496
85.159401 709.19177 176.33496
90.836609 709.19177 176.33496
96.514038 709.19177 176.33496
102.19124 709.19177 176.33496
107.86867 709.19177 176.33496
113.54587 709.19177 176.33496
119.22308 709.19177 176.33496
124.90051 709.19177 176.33496
130.57771 709.19177 176.33496
136.25513 709.19177 176.33496
141.93234 709.19177 176.33496
149.02272 694.72754 203.87231
154.75452 694.72754 203.87231
-215.73711 703.9657 174.11646
-210.05991 703.9657 174.11646
-204.38258 703.9657 174.11646
-198.70528 703.9657 174.11646
-193.02797 703.9657 174.11646
-187.35065 703.9657 174.11646
-179.99023 718.01172 147.48804
-174.36551 718.01172 147.48804
-168.7408 718.01172 147.48804
-163.1161 718.01172 147.48804
-156.01857 732.05774 120.85938
-150.44656 732.05774 120.85938
-144.87445 732.05774 120.85938
-139.30234 732.05774 120.85938
-133.73022 732.05774 120.85938
-128.15811 732.05774 120.85938
-122.58611 732.05774 120.85938
-117.01398 732.05774 120.85938
-111.44187 732.05774 120.85938
-105.86976 732.05774 120.85938
-100.29764 732.05774 120.85938
-94.725632 732.05774 120.85938
-89.153519 732.05774 120.85938
-84.370399 718.01172 147.48804
-78.009285 732.05774 120.85938
-72.437172 732.05774 120.85938
-66.865166 732.05774 120.85938
-61.293053 732.05774 120.85938
-55.720936 732.05774 120.85938
-50.148819 732.05774 120.85938
-44.576702 732.05774 120.85938
-39.0047 732.05774 120.85938
-33.432583 732.05774 120.85938
-27.860468 732.05774 120.85938
-22.288351 732.05774 120.85938
-16.874039 718.01172 147.48804
-11.24943 718.01172 147.48804
-5.6247149 718.01172 147.48804
0 718.01172 147.48804
5.6246076 718.01172 147.48804
11.24943 718.01172 147.48804
16.874039 718.01172 147.48804
22.498859 718.01172 147.48804
28.123468 718.01172 147.48804
33.748077 718.01172 147.48804
39.372898 718.01172 147.48804
44.997505 718.01172 147.48804
50.622326 718.01172 147.48804
56.246937 718.01172 147.48804
61.871544 718.01172 147.48804
67.496368 718.01172 147.48804
73.804771 703.9657 174.11646
79.482201 703.9657 174.11646
85.159401 703.9657 174.11646
90.836609 703.9657 174.11646
96.514038 703.9657 174.11646
102.19124 703.9657 174.11646
107.86867 703.9657 174.11646
113.54587 703.9657 174.11646
119.22308 703.9657 174.11646
124.90051 703.9657 174.11646
130.57771 703.9657 174.11646
136.25513 703.9657 174.11646
141.93234 703.9657 174.11646
149.02272 689.45142 201.63281
154.75452 689.45142 201.63281
-213.73831 712.83423 145.29028
-208.11371 712.83423 145.29028
-202.48898 712.83423 145.29028
-198.70528 698.73975 171.89819
-193.02797 698.73975 171.89819
-187.35065 698.73975 171.89819
-179.99023 712.83423 145.29028
-174.36551 712.83423 145.29028
-168.7408 712.83423 145.29028
-163.1161 712.83423 145.29028
-156.01857 726.92871 118.68213
-150.44656 726.92871 118.68213
-144.87445 726.92871 118.68213
-139.30234 726.92871 118.68213
-133.73022 726.92871 118.68213
-128.15811 726.92871 118.68213
-122.58611 726.92871 118.68213
-117.01398 726.92871 118.68213
-111.44187 726.92871 118.68213
-105.86976 726.92871 118.68213
-100.29764 726.92871 118.68213
-94.725632 726.92871 118.68213
-89.153519 726.92871 118.68213
-84.370399 712.83423 145.29028
-78.745689 712.83423 145.29028
-72.437172 726.92871 118.68213
-66.865166 726.92871 118.68213
-61.293053 726.92871 118.68213
-56.246937 712.83423 145.29028
-50.148819 726.92871 118.68213
-44.576702 726.92871 118.68213
-39.0047 726.92871 118.68213
-33.748184 712.83423 145.29028
-28.123468 712.83423 145.29028
-22.498753 712.83423 145.29028
-16.874039 712.83423 145.29028
-11.24943 712.83423 145.29028
-5.6247149 712.83423 145.29028
0 712.83423 145.29028
5.6246076 712.83423 145.29028
11.24943 712.83423 145.29028
16.874039 712.83423 145.29028
22.498859 712.83423 145.29028
28.123468 712.83423 145.29028
33.748077 712.83423 145.29028
39.372898 712.83423 145.29028
44.997505 712.83423 145.29028
50.622326 712.83423 145.29028
56.246937 712.83423 145.29028
61.871544 712.83423 145.29028
67.496368 712.83423 145.29028
73.804771 698.73975 171.89819
79.482201 698.73975 171.89819
85.159401 698.73975 171.89819
90.836609 698.73975 171.89819
96.514038 698.73975 171.89819
102.19124 698.73975 171.89819
107.86867 698.73975 171.89819
113.54587 698.73975 171.89819
119.22308 698.73975 171.89819
124.90051 698.73975 171.89819
130.57771 698.73975 171.89819
136.25513 698.73975 171.89819
143.29117 684.17554 199.39331
149.02272 684.17554 199.39331
154.75452 684.17554 199.39331
-213.73831 707.65662 143.09253
-208.11371 707.65662 143.09253
