ply
format ascii 1.0
comment PCL generated
element vertex 1559
property float x
property float y
property float z
element camera 0
property float view_px
property float view_py
property float view_pz
property float x_axisx
property float x_axisy
property float x_axisz
property float y_axisx
property float y_axisy
property float y_axisz
property float z_axisx
property float z_axisy
property float z_axisz
property float focal
property float scalex
property float scaley
property float centerx
property float centery
property int viewportx
property int viewporty
property float k1
property float k2
end_header
-147.7709 912.73352 15.043213
-142.49345 912.73352 15.043213
-137.21588 912.73352 15.043213
-131.93834 912.73352 15.043213
-126.66079 912.73352 15.043213
-121.38322 912.73352 15.043213
-115.10287 924.02551 -8.4089355
-109.87091 924.02551 -8.4089355
-104.63894 924.02551 -8.4089355
-98.540825 935.3175 -31.861328
-93.354446 935.3175 -31.861328
-88.943138 924.02551 -8.4089355
-83.711174 924.02551 -8.4089355
-78.479202 924.02551 -8.4089355
-73.247231 924.02551 -8.4089355
-67.422646 935.3175 -31.861328
-62.236362 935.3175 -31.861328
-57.551434 924.02551 -8.4089355
-52.319469 924.02551 -8.4089355
-47.087502 924.02551 -8.4089355
-41.855534 924.02551 -8.4089355
-36.623669 924.02551 -8.4089355
-31.391701 924.02551 -8.4089355
-26.159735 924.02551 -8.4089355
-20.74542 935.3175 -31.861328
-15.559041 935.3175 -31.861328
-10.463933 924.02551 -8.4089355
-5.2319665 924.02551 -8.4089355
0 924.02551 -8.4089355
5.2318668 924.02551 -8.4089355
10.463933 924.02551 -8.4089355
15.695801 924.02551 -8.4089355
20.927866 924.02551 -8.4089355
26.159735 924.02551 -8.4089355
31.391602 924.02551 -8.4089355
36.623669 924.02551 -8.4089355
41.855534 924.02551 -8.4089355
47.087601 924.02551 -8.4089355
52.775333 912.73352 15.043213
58.573528 901.0072 39.397217
63.898525 901.0072 39.397217
69.223312 901.0072 39.397217
74.548309 901.0072 39.397217
79.8731 901.0072 39.397217
86.740829 877.12024 89.007812
91.327667 889.28088 63.751465
95.847679 901.0072 39.397217
96.875259 957.03296 -76.96167
101.97387 957.03296 -76.96167
106.15199 967.89062 -99.511963
111.20696 967.89062 -99.511963
116.26175 967.89062 -99.511963
121.31673 967.89062 -99.511963
126.37151 967.89062 -99.511963
130.3322 978.31396 -121.16016
135.34511 978.31396 -121.16016
140.3578 978.31396 -121.16016
145.3707 978.31396 -121.16016
150.38341 978.31396 -121.16016
155.3961 978.31396 -121.16016
160.409 978.31396 -121.16016
165.42172 978.31396 -121.16016
170.4346 978.31396 -121.16016
175.44731 978.31396 -121.16016
181.9749 967.89062 -99.511963
187.02988 967.89062 -99.511963
192.08464 967.89062 -99.511963
197.13962 967.89062 -99.511963
202.19441 967.89062 -99.511963
207.24919 967.89062 -99.511963
212.30417 967.89062 -99.511963
219.24377 957.03296 -76.96167
224.34259 957.03296 -76.96167
229.44121 957.03296 -76.96167
-179.43613 907.87549 12.980957
-174.15857 907.87549 12.980957
-168.8811 907.87549 12.980957
-163.60356 907.87549 12.980957
-158.326 907.87549 12.980957
-153.04846 907.87549 12.980957
-147.7709 907.87549 12.980957
-142.49345 907.87549 12.980957
-137.21588 907.87549 12.980957
-131.93834 907.87549 12.980957
-126.66079 907.87549 12.980957
-121.38322 907.87549 12.980957
-115.10287 919.20947 -10.453369
-109.87091 919.20947 -10.453369
-104.63894 919.20947 -10.453369
-99.406967 919.20947 -10.453369
-94.175003 919.20947 -10.453369
-88.943138 919.20947 -10.453369
-83.711174 919.20947 -10.453369
-78.479202 919.20947 -10.453369
-73.247231 919.20947 -10.453369
-67.422646 930.54333 -33.887695
-62.236362 930.54333 -33.887695
-57.551434 919.20947 -10.453369
-52.319469 919.20947 -10.453369
-47.087502 919.20947 -10.453369
-41.855534 919.20947 -10.453369
-36.623669 919.20947 -10.453369
-31.391701 919.20947 -10.453369
-25.931801 930.54333 -33.887695
-20.74542 930.54333 -33.887695
-15.559041 930.54333 -33.887695
-10.463933 919.20947 -10.453369
-5.2319665 919.20947 -10.453369
0 919.20947 -10.453369
5.2318668 919.20947 -10.453369
10.463933 919.20947 -10.453369
15.695801 919.20947 -10.453369
21.110216 907.87549 12.980957
26.159735 919.20947 -10.453369
31.391602 919.20947 -10.453369
36.623669 919.20947 -10.453369
42.22023 907.87549 12.980957
47.497883 907.87549 12.980957
52.775333 907.87549 12.980957
58.573528 896.10559 37.31665
63.898525 896.10559 37.31665
69.223312 896.10559 37.31665
74.548309 896.10559 37.31665
79.8731 896.10559 37.31665
86.740829 872.12988 86.889404
92.162254 872.12988 86.889404
95.847679 896.10559 37.31665
97.708092 941.44141 -56.420898
101.97387 952.33948 -78.954102
105.2683 973.69958 -123.1189
110.2812 973.69958 -123.1189
115.29391 973.69958 -123.1189
120.3068 973.69958 -123.1189
125.3195 973.69958 -123.1189
130.3322 973.69958 -123.1189
134.20894 984.16174 -144.75049
139.17957 984.16174 -144.75049
145.3707 973.69958 -123.1189
149.121 984.16174 -144.75049
154.09164 984.16174 -144.75049
160.409 973.69958 -123.1189
165.42172 973.69958 -123.1189
170.4346 973.69958 -123.1189
175.44731 973.69958 -123.1189
181.9749 963.23755 -101.48706
187.02988 963.23755 -101.48706
192.08464 963.23755 -101.48706
197.13962 963.23755 -101.48706
202.19441 963.23755 -101.48706
207.24919 963.23755 -101.48706
212.30417 963.23755 -101.48706
217.35895 963.23755 -101.48706
224.34259 952.33948 -78.954102
227.4687 963.23755 -101.48706
232.5235 963.23755 -101.48706
-175.72078 891.2041 35.236084
-170.396 891.2041 35.236084
-163.60356 903.01746 10.918945
-158.326 903.01746 10.918945
-153.04846 903.01746 10.918945
-147.7709 903.01746 10.918945
-142.49345 903.01746 10.918945
-137.21588 903.01746 10.918945
-131.93834 903.01746 10.918945
-126.66079 903.01746 10.918945
-121.38322 903.01746 10.918945
-115.10287 914.39343 -12.497559
-109.87091 914.39343 -12.497559
-104.63894 914.39343 -12.497559
-99.406967 914.39343 -12.497559
-94.175003 914.39343 -12.497559
-88.943138 914.39343 -12.497559
-83.711174 914.39343 -12.497559
-78.479202 914.39343 -12.497559
-73.247231 914.39343 -12.497559
-68.015266 914.39343 -12.497559
-62.783401 914.39343 -12.497559
-57.551434 914.39343 -12.497559
-52.319469 914.39343 -12.497559
-47.087502 914.39343 -12.497559
-41.855534 914.39343 -12.497559
-36.623669 914.39343 -12.497559
-31.391701 914.39343 -12.497559
-25.931801 925.76929 -35.914062
-20.74542 925.76929 -35.914062
-15.559041 925.76929 -35.914062
-10.463933 914.39343 -12.497559
-5.277554 903.01746 10.918945
0 903.01746 10.918945
5.2774534 903.01746 10.918945
10.555108 903.01746 10.918945
15.83256 903.01746 10.918945
21.110216 903.01746 10.918945
26.387667 903.01746 10.918945
31.665119 903.01746 10.918945
36.942772 903.01746 10.918945
42.22023 903.01746 10.918945
47.497883 903.01746 10.918945
52.775333 903.01746 10.918945
58.573528 891.2041 35.236084
63.898525 891.2041 35.236084
69.223312 891.2041 35.236084
75.211067 879.39062 59.553467
80.583206 879.39062 59.553467
86.740829 867.13965 84.77124
92.162254 867.13965 84.77124
96.699806 879.39062 59.553467
100.27322 903.01746 10.918945
101.97387 947.64624 -80.946289
105.2683 969.08533 -125.07739
110.2812 969.08533 -125.07739
115.29391 969.08533 -125.07739
120.3068 969.08533 -125.07739
125.3195 969.08533 -125.07739
130.3322 969.08533 -125.07739
134.20894 979.58618 -146.69263
139.17957 979.58618 -146.69263
144.15038 979.58618 -146.69263
149.121 979.58618 -146.69263
154.09164 979.58618 -146.69263
159.06244 979.58618 -146.69263
164.03307 979.58618 -146.69263
170.4346 969.08533 -125.07739
176.9201 958.58459 -103.46216
181.9749 958.58459 -103.46216
187.02988 958.58459 -103.46216
192.08464 958.58459 -103.46216
197.13962 958.58459 -103.46216
202.19441 958.58459 -103.46216
207.24919 958.58459 -103.46216
212.30417 958.58459 -103.46216
217.35895 958.58459 -103.46216
224.34259 947.64624 -80.946289
227.4687 958.58459 -103.46216
232.5235 958.58459 -103.46216
-170.396 886.30249 33.155518
-163.60356 898.15942 8.8569336
-158.326 898.15942 8.8569336
-153.04846 898.15942 8.8569336
-149.09642 886.30249 33.155518
-143.77162 886.30249 33.155518
-138.44673 886.30249 33.155518
-131.93834 898.15942 8.8569336
-126.66079 898.15942 8.8569336
-121.38322 898.15942 8.8569336
-115.10287 909.57739 -14.541992
-109.87091 909.57739 -14.541992
-104.63894 909.57739 -14.541992
-99.406967 909.57739 -14.541992
-94.175003 909.57739 -14.541992
-88.943138 909.57739 -14.541992
-83.711174 909.57739 -14.541992
-78.479202 909.57739 -14.541992
-73.247231 909.57739 -14.541992
-68.015266 909.57739 -14.541992
-62.783401 909.57739 -14.541992
-57.551434 909.57739 -14.541992
-52.319469 909.57739 -14.541992
-47.087502 909.57739 -14.541992
-41.855534 909.57739 -14.541992
-36.623669 909.57739 -14.541992
-31.391701 909.57739 -14.541992
-26.159735 909.57739 -14.541992
-20.927767 909.57739 -14.541992
-15.83256 898.15942 8.8569336
-10.555108 898.15942 8.8569336
-5.277554 898.15942 8.8569336
0 898.15942 8.8569336
5.2774534 898.15942 8.8569336
10.555108 898.15942 8.8569336
15.83256 898.15942 8.8569336
21.110216 898.15942 8.8569336
26.387667 898.15942 8.8569336
31.665119 898.15942 8.8569336
36.942772 898.15942 8.8569336
42.22023 898.15942 8.8569336
47.497883 898.15942 8.8569336
53.248734 886.30249 33.155518
58.573528 886.30249 33.155518
63.898525 886.30249 33.155518
69.838737 874.44531 57.454346
75.211067 874.44531 57.454346
80.583206 874.44531 57.454346
86.740829 862.14917 82.653076
92.162254 862.14917 82.653076
96.699806 874.44531 57.454346
100.27322 898.15942 8.8569336
102.85054 931.974 -60.439453
105.2683 964.47095 -127.03613
110.2812 964.47095 -127.03613
115.29391 964.47095 -127.03613
120.3068 964.47095 -127.03613
125.3195 964.47095 -127.03613
130.3322 964.47095 -127.03613
134.20894 975.01062 -148.63477
139.17957 975.01062 -148.63477
144.15038 975.01062 -148.63477
149.121 975.01062 -148.63477
154.09164 975.01062 -148.63477
159.06244 975.01062 -148.63477
164.03307 975.01062 -148.63477
170.4346 964.47095 -127.03613
175.44731 964.47095 -127.03613
180.46001 964.47095 -127.03613
187.02988 953.93152 -105.43726
192.08464 953.93152 -105.43726
197.13962 953.93152 -105.43726
202.19441 953.93152 -105.43726
207.24919 953.93152 -105.43726
212.30417 953.93152 -105.43726
219.24377 942.95276 -82.938477
224.34259 942.95276 -82.938477
227.4687 953.93152 -105.43726
232.5235 953.93152 -105.43726
237.57848 953.93152 -105.43726
-170.396 881.40088 31.074707
-165.07111 881.40088 31.074707
-158.326 893.30139 6.7946777
-153.04846 893.30139 6.7946777
-149.09642 881.40088 31.074707
-143.77162 881.40088 31.074707
-138.44673 881.40088 31.074707
-133.12184 881.40088 31.074707
-127.79694 881.40088 31.074707
-122.47205 881.40088 31.074707
-117.14725 881.40088 31.074707
-111.82236 881.40088 31.074707
-106.49747 881.40088 31.074707
-100.27312 893.30139 6.7946777
-94.99556 893.30139 6.7946777
-89.718109 893.30139 6.7946777
-83.711174 904.76123 -16.586182
-78.479202 904.76123 -16.586182
-73.247231 904.76123 -16.586182
-68.015266 904.76123 -16.586182
-62.783401 904.76123 -16.586182
-57.551434 904.76123 -16.586182
-52.319469 904.76123 -16.586182
-47.087502 904.76123 -16.586182
-41.855534 904.76123 -16.586182
-36.623669 904.76123 -16.586182
-31.391701 904.76123 -16.586182
-26.159735 904.76123 -16.586182
-20.927767 904.76123 -16.586182
-15.83256 893.30139 6.7946777
-10.555108 893.30139 6.7946777
-5.277554 893.30139 6.7946777
0 893.30139 6.7946777
5.2774534 893.30139 6.7946777
10.555108 893.30139 6.7946777
15.83256 893.30139 6.7946777
21.110216 893.30139 6.7946777
26.387667 893.30139 6.7946777
31.665119 893.30139 6.7946777
36.942772 893.30139 6.7946777
42.22023 893.30139 6.7946777
47.923943 881.40088 31.074707
53.248734 881.40088 31.074707
58.573528 881.40088 31.074707
64.466599 869.50012 55.355225
69.838737 869.50012 55.355225
75.211067 869.50012 55.355225
81.319603 857.15881 80.534668
86.740829 857.15881 80.534668
92.996849 844.8175 105.71387
97.583481 857.15881 80.534668
103.00491 857.15881 80.534668
102.85054 927.24023 -62.448975
105.2683 959.85669 -128.99487
110.2812 959.85669 -128.99487
114.32607 970.43506 -150.57715
119.29688 970.43506 -150.57715
125.3195 959.85669 -128.99487
129.23813 970.43506 -150.57715
134.20894 970.43506 -150.57715
139.17957 970.43506 -150.57715
144.15038 970.43506 -150.57715
149.121 970.43506 -150.57715
154.09164 970.43506 -150.57715
159.06244 970.43506 -150.57715
164.03307 970.43506 -150.57715
170.4346 959.85669 -128.99487
175.44731 959.85669 -128.99487
180.46001 959.85669 -128.99487
185.4729 959.85669 -128.99487
192.08464 949.27844 -107.41235
197.13962 949.27844 -107.41235
202.19441 949.27844 -107.41235
207.24919 949.27844 -107.41235
212.30417 949.27844 -107.41235
217.35895 949.27844 -107.41235
224.34259 938.25928 -84.930664
227.4687 949.27844 -107.41235
232.5235 949.27844 -107.41235
237.57848 949.27844 -107.41235
-170.396 876.49927 28.994141
-165.07111 876.49927 28.994141
-158.326 888.44348 4.732666
-153.04846 888.44348 4.732666
-149.09642 876.49927 28.994141
-143.77162 876.49927 28.994141
-138.44673 876.49927 28.994141
-133.12184 876.49927 28.994141
-127.79694 876.49927 28.994141
-122.47205 876.49927 28.994141
-117.14725 876.49927 28.994141
-111.82236 876.49927 28.994141
-106.49747 876.49927 28.994141
-100.27312 888.44348 4.732666
-94.99556 888.44348 4.732666
-89.718109 888.44348 4.732666
-84.440552 888.44348 4.732666
-79.163002 888.44348 4.732666
-73.885452 888.44348 4.732666
-68.015266 899.94531 -18.630371
-62.783401 899.94531 -18.630371
-57.551434 899.94531 -18.630371
-52.319469 899.94531 -18.630371
-47.087502 899.94531 -18.630371
-41.855534 899.94531 -18.630371
-36.623669 899.94531 -18.630371
-31.391701 899.94531 -18.630371
-26.159735 899.94531 -18.630371
-20.927767 899.94531 -18.630371
-15.83256 888.44348 4.732666
-10.555108 888.44348 4.732666
-5.277554 888.44348 4.732666
0 888.44348 4.732666
5.2774534 888.44348 4.732666
10.555108 888.44348 4.732666
15.83256 888.44348 4.732666
21.110216 888.44348 4.732666
26.387667 888.44348 4.732666
31.94916 876.49927 28.994141
37.274155 876.49927 28.994141
42.598946 876.49927 28.994141
47.923943 876.49927 28.994141
53.248734 876.49927 28.994141
59.094265 864.55505 53.256104
64.466599 864.55505 53.256104
70.476952 852.16858 78.416504
75.898376 852.16858 78.416504
81.319603 852.16858 78.416504
87.526314 839.78198 103.57642
92.996849 839.78198 103.57642
98.467163 839.78198 103.57642
103.93769 839.78198 103.57642
109.408 839.78198 103.57642
105.2683 955.24243 -130.95337
109.35544 965.8595 -152.51929
114.32607 965.8595 -152.51929
119.29688 965.8595 -152.51929
124.2675 965.8595 -152.51929
129.23813 965.8595 -152.51929
134.20894 965.8595 -152.51929
139.17957 965.8595 -152.51929
144.15038 965.8595 -152.51929
149.121 965.8595 -152.51929
154.09164 965.8595 -152.51929
159.06244 965.8595 -152.51929
164.03307 965.8595 -152.51929
170.4346 955.24243 -130.95337
175.44731 955.24243 -130.95337
180.46001 955.24243 -130.95337
185.4729 955.24243 -130.95337
192.08464 944.62549 -109.38745
197.13962 944.62549 -109.38745
202.19441 944.62549 -109.38745
207.24919 944.62549 -109.38745
212.30417 944.62549 -109.38745
217.35895 944.62549 -109.38745
222.41393 944.62549 -109.38745
225.5751 955.24243 -130.95337
230.58781 955.24243 -130.95337
-170.396 871.59766 26.913574
-165.07111 871.59766 26.913574
-158.326 883.58545 2.6704102
-153.04846 883.58545 2.6704102
-147.7709 883.58545 2.6704102
-142.49345 883.58545 2.6704102
-137.21588 883.58545 2.6704102
-131.93834 883.58545 2.6704102
-127.79694 871.59766 26.913574
-122.47205 871.59766 26.913574
-117.14725 871.59766 26.913574
-110.82822 883.58545 2.6704102
-105.55067 883.58545 2.6704102
-100.27312 883.58545 2.6704102
-94.99556 883.58545 2.6704102
-89.718109 883.58545 2.6704102
-84.440552 883.58545 2.6704102
-79.163002 883.58545 2.6704102
-73.885452 883.58545 2.6704102
-68.607895 883.58545 2.6704102
-63.330441 883.58545 2.6704102
-58.052891 883.58545 2.6704102
-52.319469 895.12927 -20.674805
-47.087502 895.12927 -20.674805
-41.855534 895.12927 -20.674805
-36.623669 895.12927 -20.674805
-31.391701 895.12927 -20.674805
-26.159735 895.12927 -20.674805
-20.927767 895.12927 -20.674805
-15.83256 883.58545 2.6704102
-10.555108 883.58545 2.6704102
-5.277554 883.58545 2.6704102
0 883.58545 2.6704102
5.2774534 883.58545 2.6704102
10.555108 883.58545 2.6704102
15.83256 883.58545 2.6704102
21.110216 883.58545 2.6704102
26.387667 883.58545 2.6704102
31.94916 871.59766 26.913574
37.274155 871.59766 26.913574
42.598946 871.59766 26.913574
47.923943 871.59766 26.913574
53.248734 871.59766 26.913574
59.094265 859.60986 51.156982
64.466599 859.60986 51.156982
70.476952 847.1781 76.298096
75.898376 847.1781 76.298096
81.319603 847.1781 76.298096
87.526314 834.74634 101.43896
92.996849 834.74634 101.43896
99.382401 821.87061 127.47827
103.93769 834.74634 101.43896
109.408 834.74634 101.43896
114.87832 834.74634 101.43896
109.35544 961.28394 -154.46143
114.32607 961.28394 -154.46143
119.29688 961.28394 -154.46143
124.2675 961.28394 -154.46143
129.23813 961.28394 -154.46143
134.20894 961.28394 -154.46143
139.17957 961.28394 -154.46143
144.15038 961.28394 -154.46143
149.121 961.28394 -154.46143
154.09164 961.28394 -154.46143
159.06244 961.28394 -154.46143
164.03307 961.28394 -154.46143
170.4346 950.62805 -132.91211
175.44731 950.62805 -132.91211
180.46001 950.62805 -132.91211
185.4729 950.62805 -132.91211
192.08464 939.97241 -111.36255
197.13962 939.97241 -111.36255
202.19441 939.97241 -111.36255
207.24919 939.97241 -111.36255
212.30417 939.97241 -111.36255
219.24377 928.87256 -88.915039
222.41393 939.97241 -111.36255
225.5751 950.62805 -132.91211
230.58781 950.62805 -132.91211
-171.91087 854.66479 49.057861
-165.07111 866.69617 24.833008
-158.326 878.72754 0.60839844
-153.04846 878.72754 0.60839844
-147.7709 878.72754 0.60839844
-142.49345 878.72754 0.60839844
-137.21588 878.72754 0.60839844
-131.93834 878.72754 0.60839844
-127.79694 866.69617 24.833008
-122.47205 866.69617 24.833008
-117.14725 866.69617 24.833008
-110.82822 878.72754 0.60839844
-105.55067 878.72754 0.60839844
-100.27312 878.72754 0.60839844
-94.99556 878.72754 0.60839844
-89.718109 878.72754 0.60839844
-84.440552 878.72754 0.60839844
-79.163002 878.72754 0.60839844
-73.885452 878.72754 0.60839844
-68.607895 878.72754 0.60839844
-63.330441 878.72754 0.60839844
-58.052891 878.72754 0.60839844
-52.775333 878.72754 0.60839844
-47.087502 890.31323 -22.718994
-41.855534 890.31323 -22.718994
-36.623669 890.31323 -22.718994
-31.391701 890.31323 -22.718994
-26.159735 890.31323 -22.718994
-20.927767 890.31323 -22.718994
-15.83256 878.72754 0.60839844
-10.555108 878.72754 0.60839844
-5.277554 878.72754 0.60839844
0 878.72754 0.60839844
5.2774534 878.72754 0.60839844
10.555108 878.72754 0.60839844
15.83256 878.72754 0.60839844
21.299576 866.69617 24.833008
26.624367 866.69617 24.833008
31.94916 866.69617 24.833008
37.274155 866.69617 24.833008
42.598946 866.69617 24.833008
47.923943 866.69617 24.833008
53.248734 866.69617 24.833008
59.094265 854.66479 49.057861
64.466599 854.66479 49.057861
70.476952 842.18787 74.179932
75.898376 842.18787 74.179932
81.319603 842.18787 74.179932
87.526314 829.71094 99.301514
93.861237 816.78833 125.32104
99.382401 816.78833 125.32104
104.90378 816.78833 125.32104
110.42493 816.78833 125.32104
115.9461 816.78833 125.32104
109.35544 956.70837 -156.40381
114.32607 956.70837 -156.40381
119.29688 956.70837 -156.40381
124.2675 956.70837 -156.40381
129.23813 956.70837 -156.40381
134.20894 956.70837 -156.40381
139.17957 956.70837 -156.40381
144.15038 956.70837 -156.40381
149.121 956.70837 -156.40381
154.09164 956.70837 -156.40381
159.06244 956.70837 -156.40381
164.03307 956.70837 -156.40381
170.4346 946.01392 -134.87061
175.44731 946.01392 -134.87061
181.9749 935.31946 -113.33765
187.02988 935.31946 -113.33765
192.08464 935.31946 -113.33765
198.84912 924.17932 -90.907227
203.94774 924.17932 -90.907227
209.04636 924.17932 -90.907227
214.14517 924.17932 -90.907227
219.24377 924.17932 -90.907227
222.41393 935.31946 -113.33765
227.4687 935.31946 -113.33765
232.5235 935.31946 -113.33765
-163.60356 873.86938 -1.4536133
-158.326 873.86938 -1.4536133
-153.04846 873.86938 -1.4536133
-147.7709 873.86938 -1.4536133
-142.49345 873.86938 -1.4536133
-137.21588 873.86938 -1.4536133
-133.12184 861.79456 22.752441
-127.79694 861.79456 22.752441
-122.47205 861.79456 22.752441
-117.14725 861.79456 22.752441
-111.82236 861.79456 22.752441
-106.49747 861.79456 22.752441
-100.27312 873.86938 -1.4536133
-94.99556 873.86938 -1.4536133
-89.718109 873.86938 -1.4536133
-84.440552 873.86938 -1.4536133
-79.163002 873.86938 -1.4536133
-73.885452 873.86938 -1.4536133
-68.607895 873.86938 -1.4536133
-63.330441 873.86938 -1.4536133
-58.052891 873.86938 -1.4536133
-52.775333 873.86938 -1.4536133
-47.49778 873.86938 -1.4536133
-42.22023 873.86938 -1.4536133
-36.942772 873.86938 -1.4536133
-31.66522 873.86938 -1.4536133
-26.159735 885.49719 -24.763428
-20.927767 885.49719 -24.763428
-15.83256 873.86938 -1.4536133
-10.649788 861.79456 22.752441
-5.324894 861.79456 22.752441
0 861.79456 22.752441
5.3247924 861.79456 22.752441
10.649788 861.79456 22.752441
15.97458 861.79456 22.752441
21.299576 861.79456 22.752441
26.624367 861.79456 22.752441
31.94916 861.79456 22.752441
37.274155 861.79456 22.752441
42.598946 861.79456 22.752441
47.923943 861.79456 22.752441
53.722134 849.71948 46.95874
59.094265 849.71948 46.95874
65.055725 837.19751 72.061523
70.476952 837.19751 72.061523
75.898376 837.19751 72.061523
82.056 824.67529 97.164062
87.526314 824.67529 97.164062
93.861237 811.70593 123.16357
99.382401 811.70593 123.16357
104.90378 811.70593 123.16357
111.44187 798.73657 149.16284
117.01388 798.73657 149.16284
108.46826 962.41882 -178.96606
113.39855 962.41882 -178.96606
118.32904 962.41882 -178.96606
124.2675 952.13281 -158.34595
129.23813 952.13281 -158.34595
134.20894 952.13281 -158.34595
139.17957 952.13281 -158.34595
144.15038 952.13281 -158.34595
149.121 952.13281 -158.34595
154.09164 952.13281 -158.34595
159.06244 952.13281 -158.34595
165.42172 941.39954 -136.82935
170.4346 941.39954 -136.82935
175.44731 941.39954 -136.82935
181.9749 930.66638 -115.31274
187.02988 930.66638 -115.31274
192.08464 930.66638 -115.31274
198.84912 919.48584 -92.899414
203.94774 919.48584 -92.899414
209.04636 919.48584 -92.899414
214.14517 919.48584 -92.899414
219.24377 919.48584 -92.899414
224.34259 919.48584 -92.899414
227.4687 930.66638 -115.31274
232.5235 930.66638 -115.31274
-163.60356 869.01147 -3.515625
-158.326 869.01147 -3.515625
-154.42131 856.89307 20.671875
-149.09642 856.89307 20.671875
-143.77162 856.89307 20.671875
-138.44673 856.89307 20.671875
-133.12184 856.89307 20.671875
-127.79694 856.89307 20.671875
-122.47205 856.89307 20.671875
-117.14725 856.89307 20.671875
-110.82822 869.01147 -3.515625
-105.55067 869.01147 -3.515625
-100.27312 869.01147 -3.515625
-94.99556 869.01147 -3.515625
-89.718109 869.01147 -3.515625
-84.440552 869.01147 -3.515625
-79.163002 869.01147 -3.515625
-73.885452 869.01147 -3.515625
-68.607895 869.01147 -3.515625
-63.330441 869.01147 -3.515625
-58.052891 869.01147 -3.515625
-52.775333 869.01147 -3.515625
-47.49778 869.01147 -3.515625
-42.22023 869.01147 -3.515625
-36.942772 869.01147 -3.515625
-31.66522 869.01147 -3.515625
-26.159735 880.68127 -26.807617
-20.927767 880.68127 -26.807617
-15.97458 856.89307 20.671875
-10.649788 856.89307 20.671875
-5.324894 856.89307 20.671875
0 856.89307 20.671875
5.3247924 856.89307 20.671875
10.649788 856.89307 20.671875
15.97458 856.89307 20.671875
21.299576 856.89307 20.671875
26.624367 856.89307 20.671875
31.94916 856.89307 20.671875
37.274155 856.89307 20.671875
42.598946 856.89307 20.671875
47.923943 856.89307 20.671875
53.722134 844.77454 44.859863
59.634293 832.20715 69.943359
65.055725 832.20715 69.943359
71.115158 819.63989 95.026611
76.585686 819.63989 95.026611
82.056 819.63989 95.026611
87.526314 819.63989 95.026611
93.861237 806.62366 121.00635
99.382401 806.62366 121.00635
104.90378 806.62366 121.00635
111.44187 793.60754 146.9856
118.11848 780.14246 173.86108
123.7433 780.14246 173.86108
113.39855 957.88049 -180.89258
118.32904 957.88049 -180.89258
125.3195 936.78528 -138.78809
130.3322 936.78528 -138.78809
134.20894 947.55737 -160.28809
139.17957 947.55737 -160.28809
144.15038 947.55737 -160.28809
149.121 947.55737 -160.28809
154.09164 947.55737 -160.28809
159.06244 947.55737 -160.28809
165.42172 936.78528 -138.78809
170.4346 936.78528 -138.78809
175.44731 936.78528 -138.78809
181.9749 926.01343 -117.28784
187.02988 926.01343 -117.28784
192.08464 926.01343 -117.28784
197.13962 926.01343 -117.28784
203.94774 914.79248 -94.891602
209.04636 914.79248 -94.891602
214.14517 914.79248 -94.891602
219.24377 914.79248 -94.891602
224.34259 914.79248 -94.891602
229.44121 914.79248 -94.891602
-159.7462 851.99146 18.591309
-154.42131 851.99146 18.591309
-149.09642 851.99146 18.591309
-143.77162 851.99146 18.591309
-138.44673 851.99146 18.591309
-133.12184 851.99146 18.591309
-127.79694 851.99146 18.591309
-122.47205 851.99146 18.591309
-117.14725 851.99146 18.591309
-110.82822 864.15344 -5.5778809
-105.55067 864.15344 -5.5778809
-100.27312 864.15344 -5.5778809
-94.99556 864.15344 -5.5778809
-89.718109 864.15344 -5.5778809
-84.440552 864.15344 -5.5778809
-79.163002 864.15344 -5.5778809
-73.885452 864.15344 -5.5778809
-68.607895 864.15344 -5.5778809
-63.330441 864.15344 -5.5778809
-58.052891 864.15344 -5.5778809
-52.775333 864.15344 -5.5778809
-47.49778 864.15344 -5.5778809
-42.22023 864.15344 -5.5778809
-36.942772 864.15344 -5.5778809
-31.66522 864.15344 -5.5778809
-26.159735 875.86511 -28.851807
-20.927767 875.86511 -28.851807
-15.97458 851.99146 18.591309
-10.649788 851.99146 18.591309
-5.324894 851.99146 18.591309
0 851.99146 18.591309
5.3247924 851.99146 18.591309
10.649788 851.99146 18.591309
15.97458 851.99146 18.591309
21.299576 851.99146 18.591309
26.624367 851.99146 18.591309
31.94916 851.99146 18.591309
37.605534 839.82935 42.760742
42.977669 839.82935 42.760742
48.350006 839.82935 42.760742
53.722134 839.82935 42.760742
59.634293 827.2168 67.824951
65.055725 827.2168 67.824951
71.115158 814.60425 92.88916
76.585686 814.60425 92.88916
82.056 814.60425 92.88916
88.339859 801.54126 118.84888
93.861237 801.54126 118.84888
99.382401 801.54126 118.84888
104.90378 801.54126 118.84888
111.44187 788.47827 144.80835
118.11848 774.96484 171.66333
121.31673 921.36035 -119.26294
126.37151 921.36035 -119.26294
131.42628 921.36035 -119.26294
135.34511 932.1709 -140.74658
139.17957 942.98169 -162.23022
144.15038 942.98169 -162.23022
149.121 942.98169 -162.23022
154.09164 942.98169 -162.23022
159.06244 942.98169 -162.23022
165.42172 932.1709 -140.74658
170.4346 932.1709 -140.74658
175.44731 932.1709 -140.74658
181.9749 921.36035 -119.26294
187.02988 921.36035 -119.26294
192.08464 921.36035 -119.26294
197.13962 921.36035 -119.26294
203.94774 910.09912 -96.884033
209.04636 910.09912 -96.884033
214.14517 910.09912 -96.884033
219.24377 910.09912 -96.884033
222.41393 921.36035 -119.26294
227.4687 921.36035 -119.26294
-157.21788 822.22656 65.706787
-151.79655 822.22656 65.706787
-145.04982 834.88416 40.661621
-139.67758 834.88416 40.661621
-134.30534 834.88416 40.661621
-128.93311 834.88416 40.661621
-122.47205 847.08984 16.510742
-117.14725 847.08984 16.510742
-110.82822 859.29553 -7.6398926
-105.55067 859.29553 -7.6398926
-101.17258 847.08984 16.510742
-94.99556 859.29553 -7.6398926
-89.718109 859.29553 -7.6398926
-84.440552 859.29553 -7.6398926
-79.163002 859.29553 -7.6398926
-73.885452 859.29553 -7.6398926
-69.223312 847.08984 16.510742
-63.330441 859.29553 -7.6398926
-58.052891 859.29553 -7.6398926
-52.775333 859.29553 -7.6398926
-47.49778 859.29553 -7.6398926
-42.22023 859.29553 -7.6398926
-36.942772 859.29553 -7.6398926
-31.66522 859.29553 -7.6398926
-26.387667 859.29553 -7.6398926
-21.110115 859.29553 -7.6398926
-15.97458 847.08984 16.510742
-10.649788 847.08984 16.510742
-5.324894 847.08984 16.510742
0 847.08984 16.510742
5.3247924 847.08984 16.510742
10.649788 847.08984 16.510742
15.97458 847.08984 16.510742
21.299576 847.08984 16.510742
26.624367 847.08984 16.510742
31.94916 847.08984 16.510742
37.605534 834.88416 40.661621
42.977669 834.88416 40.661621
48.350006 834.88416 40.661621
54.21307 822.22656 65.706787
59.634293 822.22656 65.706787
65.644844 809.56885 90.751709
71.115158 809.56885 90.751709
76.585686 809.56885 90.751709
82.056 809.56885 90.751709
88.339859 796.45898 116.69165
93.861237 796.45898 116.69165
99.382401 796.45898 116.69165
105.86987 783.34924 142.63135
111.44187 783.34924 142.63135
118.11848 769.78735 169.46558
123.7433 769.78735 169.46558
122.36873 905.40576 -98.876221
127.46734 905.40576 -98.876221
131.42628 916.7074 -121.23804
136.48126 916.7074 -121.23804
140.3578 927.55676 -142.70532
145.3707 927.55676 -142.70532
150.38341 927.55676 -142.70532
155.3961 927.55676 -142.70532
160.409 927.55676 -142.70532
165.42172 927.55676 -142.70532
170.4346 927.55676 -142.70532
175.44731 927.55676 -142.70532
181.9749 916.7074 -121.23804
187.02988 916.7074 -121.23804
192.08464 916.7074 -121.23804
197.13962 916.7074 -121.23804
202.19441 916.7074 -121.23804
209.04636 905.40576 -98.876221
214.14517 905.40576 -98.876221
219.24377 905.40576 -98.876221
222.41393 916.7074 -121.23804
227.4687 916.7074 -121.23804
-167.79399 722.8717 249.49585
-162.00795 722.8717 249.49585
-145.04982 829.93896 38.5625
-139.67758 829.93896 38.5625
-134.30534 829.93896 38.5625
-128.93311 829.93896 38.5625
-123.56087 829.93896 38.5625
-117.14725 842.18823 14.430176
-111.82236 842.18823 14.430176
-106.49747 842.18823 14.430176
-101.17258 842.18823 14.430176
-95.847679 842.18823 14.430176
-89.718109 854.4375 -9.7021484
-84.440552 854.4375 -9.7021484
-79.163002 854.4375 -9.7021484
-73.885452 854.4375 -9.7021484
-68.607895 854.4375 -9.7021484
-63.330441 854.4375 -9.7021484
-58.052891 854.4375 -9.7021484
-52.775333 854.4375 -9.7021484
-47.49778 854.4375 -9.7021484
-42.22023 854.4375 -9.7021484
-36.942772 854.4375 -9.7021484
-31.66522 854.4375 -9.7021484
-26.387667 854.4375 -9.7021484
-21.110115 854.4375 -9.7021484
-15.97458 842.18823 14.430176
-10.649788 842.18823 14.430176
-5.324894 842.18823 14.430176
0 842.18823 14.430176
5.3247924 842.18823 14.430176
10.649788 842.18823 14.430176
15.97458 842.18823 14.430176
21.299576 842.18823 14.430176
26.624367 842.18823 14.430176
31.94916 842.18823 14.430176
37.605534 829.93896 38.5625
42.977669 829.93896 38.5625
48.791843 817.23608 63.588623
54.21307 817.23608 63.588623
59.634293 817.23608 63.588623
65.644844 804.5332 88.614258
71.115158 804.5332 88.614258
76.585686 804.5332 88.614258
82.056 804.5332 88.614258
88.339859 791.37659 114.53442
93.861237 791.37659 114.53442
99.382401 791.37659 114.53442
104.90378 791.37659 114.53442
111.44187 778.21997 140.4541
118.11848 764.60974 167.26782
123.7433 764.60974 167.26782
129.3679 764.60974 167.26782
134.99274 764.60974 167.26782
127.46734 900.7124 -100.86841
132.56595 900.7124 -100.86841
137.66476 900.7124 -100.86841
141.53606 912.05432 -123.21313
145.3707 922.94238 -144.66406
150.38341 922.94238 -144.66406
155.3961 922.94238 -144.66406
160.409 922.94238 -144.66406
165.42172 922.94238 -144.66406
170.4346 922.94238 -144.66406
175.44731 922.94238 -144.66406
181.9749 912.05432 -123.21313
187.02988 912.05432 -123.21313
192.08464 912.05432 -123.21313
197.13962 912.05432 -123.21313
202.19441 912.05432 -123.21313
207.24919 912.05432 -123.21313
214.14517 900.7124 -100.86841
219.24377 900.7124 -100.86841
224.34259 900.7124 -100.86841
-173.58 717.54565 247.23535
-167.79399 717.54565 247.23535
-162.00795 717.54565 247.23535
-153.28697 745.77368 191.86304
-142.23042 799.4978 86.476807
-136.76001 799.4978 86.476807
-130.11134 812.24585 61.470215
-124.69002 812.24585 61.470215
-118.18874 824.9939 36.463379
-111.82236 837.28674 12.349609
-106.49747 837.28674 12.349609
-102.07204 824.9939 36.463379
-95.847679 837.28674 12.349609
-90.522888 837.28674 12.349609
-85.197998 837.28674 12.349609
-79.163002 849.57959 -11.76416
-73.885452 849.57959 -11.76416
-68.607895 849.57959 -11.76416
-63.330441 849.57959 -11.76416
-58.052891 849.57959 -11.76416
-52.775333 849.57959 -11.76416
-47.49778 849.57959 -11.76416
-42.22023 849.57959 -11.76416
-36.942772 849.57959 -11.76416
-31.66522 849.57959 -11.76416
-26.387667 849.57959 -11.76416
-21.110115 849.57959 -11.76416
-15.97458 837.28674 12.349609
-10.649788 837.28674 12.349609
-5.324894 837.28674 12.349609
0 837.28674 12.349609
5.3247924 837.28674 12.349609
10.649788 837.28674 12.349609
15.97458 837.28674 12.349609
21.299576 837.28674 12.349609
26.624367 837.28674 12.349609
31.94916 837.28674 12.349609
37.605534 824.9939 36.463379
43.370415 812.24585 61.470215
48.791843 812.24585 61.470215
54.21307 812.24585 61.470215
59.634293 812.24585 61.470215
65.644844 799.4978 86.476807
71.115158 799.4978 86.476807
76.585686 799.4978 86.476807
82.056 799.4978 86.476807
88.339859 786.29431 112.37695
93.861237 786.29431 112.37695
99.382401 786.29431 112.37695
104.90378 786.29431 112.37695
111.44187 773.09094 138.27686
118.11848 759.43225 165.07007
123.7433 759.43225 165.07007
127.46734 896.01904 -102.8606
132.56595 896.01904 -102.8606
137.66476 896.01904 -102.8606
141.53606 907.40137 -125.18823
146.59102 907.40137 -125.18823
150.38341 918.32812 -146.62256
155.3961 918.32812 -146.62256
160.409 918.32812 -146.62256
165.42172 918.32812 -146.62256
170.4346 918.32812 -146.62256
175.44731 918.32812 -146.62256
180.46001 918.32812 -146.62256
185.4729 918.32812 -146.62256
190.48561 918.32812 -146.62256
197.13962 907.40137 -125.18823
202.19441 907.40137 -125.18823
207.24919 907.40137 -125.18823
214.14517 896.01904 -102.8606
219.24377 896.01904 -102.8606
224.34259 896.01904 -102.8606
-173.58 712.2196 244.97437
-167.79399 712.2196 244.97437
-162.00795 712.2196 244.97437
-153.28697 740.54761 189.64453
-146.24205 754.25464 162.87231
-139.30234 767.96179 136.09961
-132.5099 781.21191 110.21973
-125.81916 794.46216 84.339355
-119.26879 807.25537 59.352051
-113.84747 807.25537 59.352051
-108.42614 807.25537 59.352051
-103.00481 807.25537 59.352051
-96.699806 820.04871 34.364258
-90.522888 832.38513 10.268799
-85.197998 832.38513 10.268799
-79.8731 832.38513 10.268799
-74.54821 832.38513 10.268799
-69.223312 832.38513 10.268799
-63.898525 832.38513 10.268799
-58.573627 832.38513 10.268799
-53.248734 832.38513 10.268799
-47.49778 844.72144 -13.826172
-42.22023 844.72144 -13.826172
-36.942772 844.72144 -13.826172
-31.66522 844.72144 -13.826172
-26.387667 844.72144 -13.826172
-21.110115 844.72144 -13.826172
-15.97458 832.38513 10.268799
-10.649788 832.38513 10.268799
-5.324894 832.38513 10.268799
0 832.38513 10.268799
5.3247924 832.38513 10.268799
10.649788 832.38513 10.268799
15.97458 832.38513 10.268799
21.488937 820.04871 34.364258
26.861067 820.04871 34.364258
32.233196 820.04871 34.364258
37.605534 820.04871 34.364258
43.370415 807.25537 59.352051
48.791843 807.25537 59.352051
54.21307 807.25537 59.352051
60.174316 794.46216 84.339355
65.644844 794.46216 84.339355
71.115158 794.46216 84.339355
76.585686 794.46216 84.339355
82.056 794.46216 84.339355
88.339859 781.21191 110.21973
93.861237 781.21191 110.21973
99.382401 781.21191 110.21973
104.90378 781.21191 110.21973
112.49387 754.25464 162.87231
118.11848 754.25464 162.87231
123.7433 754.25464 162.87231
132.56595 891.32568 -104.85278
137.66476 891.32568 -104.85278
141.53606 902.74829 -127.16333
146.59102 902.74829 -127.16333
150.38341 913.71387 -148.5813
155.3961 913.71387 -148.5813
160.409 913.71387 -148.5813
165.42172 913.71387 -148.5813
170.4346 913.71387 -148.5813
175.44731 913.71387 -148.5813
180.46001 913.71387 -148.5813
185.4729 913.71387 -148.5813
190.48561 913.71387 -148.5813
197.13962 902.74829 -127.16333
202.19441 902.74829 -127.16333
207.24919 902.74829 -127.16333
214.14517 891.32568 -104.85278
219.24377 891.32568 -104.85278
224.34259 891.32568 -104.85278
-173.58 706.89368 242.71362
-167.79399 706.89368 242.71362
-162.00795 706.89368 242.71362
-154.75452 721.10767 215.07007
-147.60965 735.32166 187.42627
-140.61734 749.07715 160.67456
-133.73022 762.83276 133.92261
-125.81916 789.42676 82.201904
-119.26879 802.26514 57.233643
-113.84747 802.26514 57.233643
-108.42614 802.26514 57.233643
-103.00481 802.26514 57.233643
-96.699806 815.10364 32.265137
-91.327667 815.10364 32.265137
-85.197998 827.48364 8.1882324
-79.8731 827.48364 8.1882324
-74.54821 827.48364 8.1882324
-69.223312 827.48364 8.1882324
-63.898525 827.48364 8.1882324
-58.573627 827.48364 8.1882324
-53.248734 827.48364 8.1882324
-47.92384 827.48364 8.1882324
-42.22023 839.86353 -15.888184
-36.942772 839.86353 -15.888184
-31.66522 839.86353 -15.888184
-26.387667 839.86353 -15.888184
-21.110115 839.86353 -15.888184
-15.97458 827.48364 8.1882324
-10.649788 827.48364 8.1882324
-5.324894 827.48364 8.1882324
0 827.48364 8.1882324
5.3247924 827.48364 8.1882324
10.649788 827.48364 8.1882324
16.116598 815.10364 32.265137
21.488937 815.10364 32.265137
26.861067 815.10364 32.265137
32.233196 815.10364 32.265137
37.605534 815.10364 32.265137
43.370415 802.26514 57.233643
48.791843 802.26514 57.233643
54.21307 802.26514 57.233643
60.174316 789.42676 82.201904
65.644844 789.42676 82.201904
71.115158 789.42676 82.201904
76.585686 789.42676 82.201904
82.056 789.42676 82.201904
88.339859 776.12964 108.0625
93.861237 776.12964 108.0625
99.382401 776.12964 108.0625
104.90378 776.12964 108.0625
112.49387 749.07715 160.67456
118.11848 749.07715 160.67456
123.7433 749.07715 160.67456
141.53606 898.09534 -129.13843
146.59102 898.09534 -129.13843
151.64581 898.09534 -129.13843
155.3961 909.09961 -150.53979
160.409 909.09961 -150.53979
165.42172 909.09961 -150.53979
170.4346 909.09961 -150.53979
175.44731 909.09961 -150.53979
180.46001 909.09961 -150.53979
185.4729 909.09961 -150.53979
190.48561 909.09961 -150.53979
197.13962 898.09534 -129.13843
202.19441 898.09534 -129.13843
207.24919 898.09534 -129.13843
214.14517 886.63232 -106.84497
219.24377 886.63232 -106.84497
224.34259 886.63232 -106.84497
-173.58 701.5675 240.45288
-167.79399 701.5675 240.45288
-162.00795 701.5675 240.45288
-154.75452 715.83154 212.83057
-147.60965 730.0957 185.20801
-140.61734 743.89954 158.47681
-133.73022 757.70349 131.74536
-126.98864 771.04724 105.90503
-119.26879 797.27478 55.115479
-113.84747 797.27478 55.115479
-108.42614 797.27478 55.115479
-103.00481 797.27478 55.115479
-96.699806 810.15845 30.166016
-91.327667 810.15845 30.166016
-85.197998 822.58203 6.107666
-79.8731 822.58203 6.107666
-74.54821 822.58203 6.107666
-69.223312 822.58203 6.107666
-63.898525 822.58203 6.107666
-58.573627 822.58203 6.107666
-53.248734 822.58203 6.107666
-47.92384 822.58203 6.107666
-42.22023 835.00549 -17.950439
-36.942772 835.00549 -17.950439
-31.949263 822.58203 6.107666
-26.624367 822.58203 6.107666
-21.299473 822.58203 6.107666
-16.116598 810.15845 30.166016
-10.744469 810.15845 30.166016
-5.3722343 810.15845 30.166016
0 810.15845 30.166016
5.3721313 810.15845 30.166016
10.744469 810.15845 30.166016
16.116598 810.15845 30.166016
21.488937 810.15845 30.166016
26.861067 810.15845 30.166016
32.233196 810.15845 30.166016
37.605534 810.15845 30.166016
43.370415 797.27478 55.115479
48.791843 797.27478 55.115479
54.21307 797.27478 55.115479
59.634293 797.27478 55.115479
65.644844 784.39111 80.064453
71.115158 784.39111 80.064453
76.585686 784.39111 80.064453
82.056 784.39111 80.064453
87.526314 784.39111 80.064453
93.861237 771.04724 105.90503
99.382401 771.04724 105.90503
104.90378 771.04724 105.90503
111.44187 757.70349 131.74536
118.11848 743.89954 158.47681
138.84827 870.43555 -86.561035
142.76338 881.93896 -108.83716
147.86218 881.93896 -108.83716
152.9608 881.93896 -108.83716
156.70059 893.44214 -131.11353
161.75557 893.44214 -131.11353
165.42172 904.48523 -152.49854
170.4346 904.48523 -152.49854
175.44731 904.48523 -152.49854
180.46001 904.48523 -152.49854
185.4729 904.48523 -152.49854
190.48561 904.48523 -152.49854
197.13962 893.44214 -131.11353
202.19441 893.44214 -131.11353
207.24919 893.44214 -131.11353
214.14517 881.93896 -108.83716
219.24377 881.93896 -108.83716
224.34259 881.93896 -108.83716
-171.9494 710.55566 210.59106
-166.21774 710.55566 210.59106
-162.00795 696.24158 238.19214
-154.75452 710.55566 210.59106
-147.60965 724.86975 182.98975
-141.93234 724.86975 182.98975
-134.99263 738.72205 156.27905
-128.15811 752.57446 129.56812
-120.34885 779.35571 77.927002
-114.87842 779.35571 77.927002
-108.42614 792.28455 52.99707
-103.00481 792.28455 52.99707
-96.699806 805.21338 28.067139
-91.327667 805.21338 28.067139
-85.955437 805.21338 28.067139
-79.8731 817.68054 4.0270996
-74.54821 817.68054 4.0270996
-69.223312 817.68054 4.0270996
-63.898525 817.68054 4.0270996
-58.573627 817.68054 4.0270996
-53.248734 817.68054 4.0270996
-47.92384 817.68054 4.0270996
-42.598946 817.68054 4.0270996
-37.274155 817.68054 4.0270996
-31.949263 817.68054 4.0270996
-26.624367 817.68054 4.0270996
-21.299473 817.68054 4.0270996
-16.116598 805.21338 28.067139
-10.744469 805.21338 28.067139
-5.3722343 805.21338 28.067139
0 805.21338 28.067139
5.3721313 805.21338 28.067139
10.744469 805.21338 28.067139
16.116598 805.21338 28.067139
21.488937 805.21338 28.067139
26.861067 805.21338 28.067139
32.233196 805.21338 28.067139
37.605534 805.21338 28.067139
43.370415 792.28455 52.99707
48.791843 792.28455 52.99707
54.21307 792.28455 52.99707
59.634293 792.28455 52.99707
65.644844 779.35571 77.927002
71.115158 779.35571 77.927002
76.585686 779.35571 77.927002
82.056 779.35571 77.927002
87.526314 779.35571 77.927002
92.996849 779.35571 77.927002
98.467163 779.35571 77.927002
103.93769 779.35571 77.927002
110.42493 765.96497 103.7478
121.46747 765.96497 103.7478
132.56595 877.24561 -110.82935
137.66476 877.24561 -110.82935
142.76338 877.24561 -110.82935
146.59102 888.78931 -133.08862
151.64581 888.78931 -133.08862
155.3961 899.87109 -154.45703
160.409 899.87109 -154.45703
165.42172 899.87109 -154.45703
170.4346 899.87109 -154.45703
175.44731 899.87109 -154.45703
180.46001 899.87109 -154.45703
185.4729 899.87109 -154.45703
190.48561 899.87109 -154.45703
197.13962 888.78931 -133.08862
202.19441 888.78931 -133.08862
207.24919 888.78931 -133.08862
212.30417 888.78931 -133.08862
219.24377 877.24561 -110.82935
224.34259 877.24561 -110.82935
229.44121 877.24561 -110.82935
-187.00357 675.62451 265.29077
-181.1597 675.62451 265.29077
-171.9494 705.27954 208.35132
-166.21774 705.27954 208.35132
-162.00795 690.91541 235.9314
-154.75452 705.27954 208.35132
-147.60965 719.64368 180.77148
-141.93234 719.64368 180.77148
-134.99263 733.54443 154.0813
-129.3679 733.54443 154.0813
-121.46747 760.88257 101.59033
-114.87842 774.32007 75.789551
-109.408 774.32007 75.789551
-103.00481 787.29407 50.878906
-96.699806 800.26807 25.968018
-91.327667 800.26807 25.968018
-85.955437 800.26807 25.968018
-80.583206 800.26807 25.968018
-75.210968 800.26807 25.968018
-69.223312 812.77893 1.9465332
-63.898525 812.77893 1.9465332
-58.573627 812.77893 1.9465332
-53.248734 812.77893 1.9465332
-47.92384 812.77893 1.9465332
-42.598946 812.77893 1.9465332
-37.274155 812.77893 1.9465332
-31.949263 812.77893 1.9465332
-26.624367 812.77893 1.9465332
-21.299473 812.77893 1.9465332
-16.116598 800.26807 25.968018
-10.744469 800.26807 25.968018
-5.3722343 800.26807 25.968018
0 800.26807 25.968018
5.3721313 800.26807 25.968018
10.744469 800.26807 25.968018
16.116598 800.26807 25.968018
21.488937 800.26807 25.968018
26.861067 800.26807 25.968018
32.233196 800.26807 25.968018
37.949188 787.29407 50.878906
43.370415 787.29407 50.878906
48.791843 787.29407 50.878906
54.21307 787.29407 50.878906
59.634293 787.29407 50.878906
65.644844 774.32007 75.789551
71.115158 774.32007 75.789551
76.585686 774.32007 75.789551
82.056 774.32007 75.789551
87.526314 774.32007 75.789551
92.996849 774.32007 75.789551
98.467163 774.32007 75.789551
103.93769 774.32007 75.789551
110.42493 760.88257 101.59033
122.36873 872.55212 -112.82178
132.56595 872.55212 -112.82178
137.66476 872.55212 -112.82178
141.53606 884.13623 -135.06372
146.59102 884.13623 -135.06372
151.64581 884.13623 -135.06372
155.3961 895.25671 -156.41577
160.409 895.25671 -156.41577
165.42172 895.25671 -156.41577
170.4346 895.25671 -156.41577
175.44731 895.25671 -156.41577
180.46001 895.25671 -156.41577
185.4729 895.25671 -156.41577
190.48561 895.25671 -156.41577
197.13962 884.13623 -135.06372
202.19441 884.13623 -135.06372
207.24919 884.13623 -135.06372
212.30417 884.13623 -135.06372
219.24377 872.55212 -112.82178
224.34259 872.55212 -112.82178
229.44121 872.55212 -112.82178
-187.00357 670.24512 263.00732
-181.1597 670.24512 263.00732
-171.9494 700.00342 206.11182
-166.21774 700.00342 206.11182
-162.00795 685.58936 233.67065
-154.75452 700.00342 206.11182
-147.60965 714.41772 178.55322
-141.93234 714.41772 178.55322
-134.99263 728.36682 151.88354
-129.3679 728.36682 151.88354
-121.46747 755.80017 99.433105
-114.87842 769.28455 73.6521
-109.408 769.28455 73.6521
-103.00481 782.30371 48.760498
-96.699806 795.32288 23.868896
-91.327667 795.32288 23.868896
-85.955437 795.32288 23.868896
-80.583206 795.32288 23.868896
-75.210968 795.32288 23.868896
-69.838737 795.32288 23.868896
-63.898525 807.8772 -0.1340332
-58.573627 807.8772 -0.1340332
-53.722134 795.32288 23.868896
-47.92384 807.8772 -0.1340332
-42.598946 807.8772 -0.1340332
-37.274155 807.8772 -0.1340332
-31.949263 807.8772 -0.1340332
-26.624367 807.8772 -0.1340332
-21.299473 807.8772 -0.1340332
-16.116598 795.32288 23.868896
-10.744469 795.32288 23.868896
-5.3722343 795.32288 23.868896
0 795.32288 23.868896
5.3721313 795.32288 23.868896
10.744469 795.32288 23.868896
16.116598 795.32288 23.868896
21.488937 795.32288 23.868896
26.861067 795.32288 23.868896
32.52776 782.30371 48.760498
37.949188 782.30371 48.760498
43.370415 782.30371 48.760498
48.791843 782.30371 48.760498
54.21307 782.30371 48.760498
60.174316 769.28455 73.6521
65.644844 769.28455 73.6521
71.115158 769.28455 73.6521
76.585686 769.28455 73.6521
82.056 769.28455 73.6521
87.526314 769.28455 73.6521
92.996849 769.28455 73.6521
98.467163 769.28455 73.6521
103.93769 769.28455 73.6521
110.42493 755.80017 99.433105
122.36873 867.85876 -114.81396
127.46734 867.85876 -114.81396
132.56595 867.85876 -114.81396
137.66476 867.85876 -114.81396
141.53606 879.48315 -137.03882
146.59102 879.48315 -137.03882
151.64581 879.48315 -137.03882
155.3961 890.64233 -158.37451
160.409 890.64233 -158.37451
165.42172 890.64233 -158.37451
170.4346 890.64233 -158.37451
175.44731 890.64233 -158.37451
180.46001 890.64233 -158.37451
185.4729 890.64233 -158.37451
190.48561 890.64233 -158.37451
197.13962 879.48315 -137.03882
202.19441 879.48315 -137.03882
207.24919 879.48315 -137.03882
212.30417 879.48315 -137.03882
219.24377 867.85876 -114.81396
224.34259 867.85876 -114.81396
229.44121 867.85876 -114.81396
-187.00357 664.86597 260.72388
-179.36603 680.26331 231.40991
-171.9494 694.72754 203.87231
-166.21774 694.72754 203.87231
-162.00795 680.26331 231.40991
-154.75452 694.72754 203.87231
-147.60965 709.19177 176.33496
-141.93234 709.19177 176.33496
-136.25502 709.19177 176.33496
-129.3679 723.18933 149.68579
-122.58611 737.18689 123.03662
-115.94621 750.7179 97.275635
-109.408 764.24902 71.514648
-103.00481 777.31348 46.642334
-96.699806 790.37781 21.769775
-91.327667 790.37781 21.769775
-85.955437 790.37781 21.769775
-80.583206 790.37781 21.769775
-75.210968 790.37781 21.769775
-69.838737 790.37781 21.769775
-64.466599 790.37781 21.769775
-59.094368 790.37781 21.769775
-53.722134 790.37781 21.769775
-47.92384 802.97571 -2.2145996
-42.598946 802.97571 -2.2145996
-37.274155 802.97571 -2.2145996
-31.949263 802.97571 -2.2145996
-26.624367 802.97571 -2.2145996
-21.299473 802.97571 -2.2145996
-16.116598 790.37781 21.769775
-10.744469 790.37781 21.769775
-5.3722343 790.37781 21.769775
0 790.37781 21.769775
5.3721313 790.37781 21.769775
10.744469 790.37781 21.769775
16.116598 790.37781 21.769775
21.488937 790.37781 21.769775
26.861067 790.37781 21.769775
32.233196 790.37781 21.769775
37.949188 777.31348 46.642334
43.370415 777.31348 46.642334
48.791843 777.31348 46.642334
54.21307 777.31348 46.642334
60.174316 764.24902 71.514648
