ply
format ascii 1.0
comment PCL generated
element vertex 1576
property float x
property float y
property float z
element camera 0
property float view_px
property float view_py
property float view_pz
property float x_axisx
property float x_axisy
property float x_axisz
property float y_axisx
property float y_axisy
property float y_axisz
property float z_axisx
property float z_axisy
property float z_axisz
property float focal
property float scalex
property float scaley
property float centerx
property float centery
property int viewportx
property int viewporty
property float k1
property float k2
end_header
-276.89346 1150.9873 145.50757
-271.56857 1150.9873 145.50757
-266.24368 1150.9873 145.50757
-260.91879 1150.9873 145.50757
-257.86621 1141.4834 170.80518
-252.49408 1141.4834 170.80518
-247.12184 1141.4834 170.80518
-241.7496 1141.4834 170.80518
-236.37737 1141.4834 170.80518
-231.00513 1141.4834 170.80518
-225.63301 1141.4834 170.80518
-222.27361 1131.6276 197.03979
-216.85228 1131.6276 197.03979
-147.70084 1121.7717 223.27393
-140.95399 1131.6276 197.03979
-135.53267 1131.6276 197.03979
-128.93311 1141.4834 170.80518
-123.56087 1141.4834 170.80518
-118.18874 1141.4834 170.80518
-111.82236 1150.9873 145.50757
-105.55067 1160.4912 120.20996
-100.27312 1160.4912 120.20996
-94.99556 1160.4912 120.20996
-89.718109 1160.4912 120.20996
-84.440552 1160.4912 120.20996
-79.163002 1160.4912 120.20996
-73.885452 1160.4912 120.20996
-68.607895 1160.4912 120.20996
-63.330441 1160.4912 120.20996
-57.551434 1169.6432 95.849365
-52.319469 1169.6432 95.849365
-47.087502 1169.6432 95.849365
-41.855534 1169.6432 95.849365
-36.623669 1169.6432 95.849365
-31.391701 1169.6432 95.849365
-26.159735 1169.6432 95.849365
-20.927767 1169.6432 95.849365
-15.83256 1160.4912 120.20996
-10.649788 1150.9873 145.50757
-5.324894 1150.9873 145.50757
0 1150.9873 145.50757
5.3247924 1150.9873 145.50757
10.649788 1150.9873 145.50757
15.97458 1150.9873 145.50757
21.299576 1150.9873 145.50757
26.624367 1150.9873 145.50757
31.94916 1150.9873 145.50757
37.274155 1150.9873 145.50757
42.598946 1150.9873 145.50757
47.923943 1150.9873 145.50757
53.248734 1150.9873 145.50757
58.573528 1150.9873 145.50757
63.898525 1150.9873 145.50757
69.223312 1150.9873 145.50757
74.548309 1150.9873 145.50757
79.8731 1150.9873 145.50757
85.197891 1150.9873 145.50757
90.522888 1150.9873 145.50757
96.699806 1141.4834 170.80518
102.07214 1141.4834 170.80518
107.44427 1141.4834 170.80518
113.84736 1131.6276 197.03979
119.26879 1131.6276 197.03979
124.69002 1131.6276 197.03979
131.28969 1121.7717 223.27393
136.76001 1121.7717 223.27393
142.23032 1121.7717 223.27393
147.70084 1121.7717 223.27393
153.17117 1121.7717 223.27393
158.64169 1121.7717 223.27393
164.112 1121.7717 223.27393
169.58232 1121.7717 223.27393
175.05284 1121.7717 223.27393
180.52318 1121.7717 223.27393
185.9937 1121.7717 223.27393
287.10489 1111.5637 250.4458
292.62604 1111.5637 250.4458
298.14743 1111.5637 250.4458
303.66858 1111.5637 250.4458
309.18973 1111.5637 250.4458
314.71112 1111.5637 250.4458
320.23227 1111.5637 250.4458
325.75366 1111.5637 250.4458
331.27481 1111.5637 250.4458
336.79596 1111.5637 250.4458
342.31735 1111.5637 250.4458
347.8385 1111.5637 250.4458
353.35989 1111.5637 250.4458
358.88104 1111.5637 250.4458
367.75809 1101.3558 277.61719
373.33029 1101.3558 277.61719
378.90234 1101.3558 277.61719
384.47455 1101.3558 277.61719
393.72855 1090.7959 305.72559
399.35315 1090.7959 305.72559
404.97797 1090.7959 305.72559
410.6026 1090.7959 305.72559
420.11981 1080.2361 333.83374
425.79703 1080.2361 333.83374
423.47903 1101.3558 277.61719
429.05124 1101.3558 277.61719
-354.5661 1136.5382 168.70605
-349.19388 1136.5382 168.70605
-343.82166 1136.5382 168.70605
-338.4494 1136.5382 168.70605
-333.0773 1136.5382 168.70605
-327.70502 1136.5382 168.70605
-322.33282 1136.5382 168.70605
-316.9606 1136.5382 168.70605
-308.84262 1146.0858 143.427
-303.51782 1146.0858 143.427
-298.19293 1146.0858 143.427
-292.86804 1146.0858 143.427
-287.54315 1146.0858 143.427
-282.21826 1146.0858 143.427
-276.89346 1146.0858 143.427
-273.98291 1136.5382 168.70605
-268.61069 1136.5382 168.70605
-263.23843 1136.5382 168.70605
-257.86621 1136.5382 168.70605
-252.49408 1136.5382 168.70605
-247.12184 1136.5382 168.70605
-241.7496 1136.5382 168.70605
-236.37737 1136.5382 168.70605
-231.00513 1136.5382 168.70605
-225.63301 1136.5382 168.70605
-222.27361 1126.6372 194.92139
-147.70084 1116.7362 221.13647
-140.95399 1126.6372 194.92139
-135.53267 1126.6372 194.92139
-128.93311 1136.5382 168.70605
-123.56087 1136.5382 168.70605
-118.18874 1136.5382 168.70605
-111.82236 1146.0858 143.427
-105.55067 1155.6332 118.14795
-100.27312 1155.6332 118.14795
-94.99556 1155.6332 118.14795
-89.718109 1155.6332 118.14795
-84.440552 1155.6332 118.14795
-79.163002 1155.6332 118.14795
-73.885452 1155.6332 118.14795
-68.607895 1155.6332 118.14795
-63.330441 1155.6332 118.14795
-58.052891 1155.6332 118.14795
-52.775333 1155.6332 118.14795
-47.49778 1155.6332 118.14795
-41.855534 1164.8271 93.805176
-36.623669 1164.8271 93.805176
-31.391701 1164.8271 93.805176
-26.159735 1164.8271 93.805176
-20.927767 1164.8271 93.805176
-15.83256 1155.6332 118.14795
-10.649788 1146.0858 143.427
-5.324894 1146.0858 143.427
0 1146.0858 143.427
5.3247924 1146.0858 143.427
10.649788 1146.0858 143.427
15.97458 1146.0858 143.427
21.299576 1146.0858 143.427
26.624367 1146.0858 143.427
31.94916 1146.0858 143.427
37.274155 1146.0858 143.427
42.598946 1146.0858 143.427
47.923943 1146.0858 143.427
53.248734 1146.0858 143.427
58.573528 1146.0858 143.427
63.898525 1146.0858 143.427
69.223312 1146.0858 143.427
74.548309 1146.0858 143.427
79.8731 1146.0858 143.427
85.197891 1146.0858 143.427
90.522888 1146.0858 143.427
96.699806 1136.5382 168.70605
102.07214 1136.5382 168.70605
107.44427 1136.5382 168.70605
113.84736 1126.6372 194.92139
119.26879 1126.6372 194.92139
124.69002 1126.6372 194.92139
131.28969 1116.7362 221.13647
136.76001 1116.7362 221.13647
142.23032 1116.7362 221.13647
147.70084 1116.7362 221.13647
153.17117 1116.7362 221.13647
158.64169 1116.7362 221.13647
164.112 1116.7362 221.13647
169.58232 1116.7362 221.13647
175.05284 1116.7362 221.13647
180.52318 1116.7362 221.13647
292.62604 1106.4813 248.28833
295.40167 1116.7362 221.13647
300.87201 1116.7362 221.13647
309.18973 1106.4813 248.28833
314.71112 1106.4813 248.28833
320.23227 1106.4813 248.28833
325.75366 1106.4813 248.28833
331.27481 1106.4813 248.28833
336.79596 1106.4813 248.28833
345.46982 1096.2267 275.43994
351.04187 1096.2267 275.43994
356.61407 1096.2267 275.43994
362.18607 1096.2267 275.43994
367.75809 1096.2267 275.43994
373.33029 1096.2267 275.43994
382.47913 1085.6184 303.52783
388.10394 1085.6184 303.52783
393.72855 1085.6184 303.52783
399.35315 1085.6184 303.52783
404.97797 1085.6184 303.52783
410.6026 1085.6184 303.52783
420.11981 1075.0101 331.61548
425.79703 1075.0101 331.61548
427.47662 1085.6184 303.52783
433.10144 1085.6184 303.52783
438.72607 1085.6184 303.52783
444.35089 1085.6184 303.52783
-363.2276 1121.6469 192.80322
-354.5661 1131.593 166.60693
-349.19388 1131.593 166.60693
-343.82166 1131.593 166.60693
-338.4494 1131.593 166.60693
-333.0773 1131.593 166.60693
-327.70502 1131.593 166.60693
-322.33282 1131.593 166.60693
-316.9606 1131.593 166.60693
-308.84262 1141.1842 141.34619
-303.51782 1141.1842 141.34619
-298.19293 1141.1842 141.34619
-292.86804 1141.1842 141.34619
-287.54315 1141.1842 141.34619
-282.21826 1141.1842 141.34619
-279.35516 1131.593 166.60693
-273.98291 1131.593 166.60693
-268.61069 1131.593 166.60693
-263.23843 1131.593 166.60693
-257.86621 1131.593 166.60693
-252.49408 1131.593 166.60693
-247.12184 1131.593 166.60693
-241.7496 1131.593 166.60693
-236.37737 1131.593 166.60693
-231.00513 1131.593 166.60693
-227.69493 1121.6469 192.80322
-142.23042 1111.7006 218.99902
-135.53267 1121.6469 192.80322
-128.93311 1131.593 166.60693
-123.56087 1131.593 166.60693
-117.14725 1141.1842 141.34619
-111.82236 1141.1842 141.34619
-106.49747 1141.1842 141.34619
-100.27312 1150.7751 116.08594
-94.99556 1150.7751 116.08594
-89.718109 1150.7751 116.08594
-84.440552 1150.7751 116.08594
-79.163002 1150.7751 116.08594
-73.885452 1150.7751 116.08594
-68.015266 1160.011 91.760986
-62.783401 1160.011 91.760986
-57.551434 1160.011 91.760986
-52.775333 1150.7751 116.08594
-47.49778 1150.7751 116.08594
-41.855534 1160.011 91.760986
-36.623669 1160.011 91.760986
-31.391701 1160.011 91.760986
-26.159735 1160.011 91.760986
-20.927767 1160.011 91.760986
-15.97458 1141.1842 141.34619
-10.649788 1141.1842 141.34619
-5.324894 1141.1842 141.34619
0 1141.1842 141.34619
5.3247924 1141.1842 141.34619
10.649788 1141.1842 141.34619
15.97458 1141.1842 141.34619
21.299576 1141.1842 141.34619
26.624367 1141.1842 141.34619
31.94916 1141.1842 141.34619
37.274155 1141.1842 141.34619
42.598946 1141.1842 141.34619
47.923943 1141.1842 141.34619
53.248734 1141.1842 141.34619
58.573528 1141.1842 141.34619
63.898525 1141.1842 141.34619
69.223312 1141.1842 141.34619
74.548309 1141.1842 141.34619
79.8731 1141.1842 141.34619
85.197891 1141.1842 141.34619
90.522888 1141.1842 141.34619
95.847679 1141.1842 141.34619
103.00491 1121.6469 192.80322
108.42614 1121.6469 192.80322
113.84736 1121.6469 192.80322
119.26879 1121.6469 192.80322
124.69002 1121.6469 192.80322
131.28969 1111.7006 218.99902
136.76001 1111.7006 218.99902
142.23032 1111.7006 218.99902
147.70084 1111.7006 218.99902
153.17117 1111.7006 218.99902
160.11624 1101.3989 246.1311
164.112 1111.7006 218.99902
169.58232 1111.7006 218.99902
175.05284 1111.7006 218.99902
180.52318 1111.7006 218.99902
295.40167 1111.7006 218.99902
300.87201 1111.7006 218.99902
306.34235 1111.7006 218.99902
314.71112 1101.3989 246.1311
320.23227 1101.3989 246.1311
325.75366 1101.3989 246.1311
331.27481 1101.3989 246.1311
339.89761 1091.0975 273.2627
345.46982 1091.0975 273.2627
351.04187 1091.0975 273.2627
356.61407 1091.0975 273.2627
362.18607 1091.0975 273.2627
367.75809 1091.0975 273.2627
373.33029 1091.0975 273.2627
382.47913 1080.4408 301.33008
388.10394 1080.4408 301.33008
393.72855 1080.4408 301.33008
399.35315 1080.4408 301.33008
404.97797 1080.4408 301.33008
410.6026 1080.4408 301.33008
416.22742 1080.4408 301.33008
425.79703 1069.7841 329.39722
427.47662 1080.4408 301.33008
433.10144 1080.4408 301.33008
438.72607 1080.4408 301.33008
444.35089 1080.4408 301.33008
449.97549 1080.4408 301.33008
-368.64883 1116.6565 190.68481
-363.2276 1116.6565 190.68481
-354.5661 1126.6479 164.50781
-349.19388 1126.6479 164.50781
-343.82166 1126.6479 164.50781
-338.4494 1126.6479 164.50781
-333.0773 1126.6479 164.50781
-327.70502 1126.6479 164.50781
-322.33282 1126.6479 164.50781
-316.9606 1126.6479 164.50781
-311.58835 1126.6479 164.50781
-306.21622 1126.6479 164.50781
-300.84396 1126.6479 164.50781
-295.47174 1126.6479 164.50781
-290.09952 1126.6479 164.50781
-284.72726 1126.6479 164.50781
-279.35516 1126.6479 164.50781
-273.98291 1126.6479 164.50781
-268.61069 1126.6479 164.50781
-263.23843 1126.6479 164.50781
-257.86621 1126.6479 164.50781
-252.49408 1126.6479 164.50781
-247.12184 1126.6479 164.50781
-241.7496 1126.6479 164.50781
-236.37737 1126.6479 164.50781
-231.00513 1126.6479 164.50781
-140.95399 1116.6565 190.68481
-134.30534 1126.6479 164.50781
-128.93311 1126.6479 164.50781
-123.56087 1126.6479 164.50781
-117.14725 1136.2826 139.26562
-111.82236 1136.2826 139.26562
-106.49747 1136.2826 139.26562
-100.27312 1145.9171 114.02368
-94.99556 1145.9171 114.02368
-89.718109 1145.9171 114.02368
-84.440552 1145.9171 114.02368
-79.163002 1145.9171 114.02368
-73.247231 1155.1949 89.716553
-68.015266 1155.1949 89.716553
-62.783401 1155.1949 89.716553
-57.551434 1155.1949 89.716553
-52.319469 1155.1949 89.716553
-47.49778 1145.9171 114.02368
-41.855534 1155.1949 89.716553
-36.623669 1155.1949 89.716553
-31.391701 1155.1949 89.716553
-26.159735 1155.1949 89.716553
-21.110115 1145.9171 114.02368
-15.97458 1136.2826 139.26562
-10.649788 1136.2826 139.26562
-5.324894 1136.2826 139.26562
0 1136.2826 139.26562
5.3247924 1136.2826 139.26562
10.649788 1136.2826 139.26562
15.97458 1136.2826 139.26562
21.299576 1136.2826 139.26562
26.624367 1136.2826 139.26562
31.94916 1136.2826 139.26562
37.274155 1136.2826 139.26562
42.598946 1136.2826 139.26562
47.923943 1136.2826 139.26562
53.248734 1136.2826 139.26562
58.573528 1136.2826 139.26562
63.898525 1136.2826 139.26562
69.223312 1136.2826 139.26562
74.548309 1136.2826 139.26562
79.8731 1136.2826 139.26562
85.197891 1136.2826 139.26562
90.522888 1136.2826 139.26562
95.847679 1136.2826 139.26562
103.00491 1116.6565 190.68481
108.42614 1116.6565 190.68481
113.84736 1116.6565 190.68481
119.26879 1116.6565 190.68481
125.81916 1106.665 216.86157
131.28969 1106.665 216.86157
136.76001 1106.665 216.86157
142.23032 1106.665 216.86157
147.70084 1106.665 216.86157
153.17117 1106.665 216.86157
160.11624 1096.3167 243.97363
164.112 1106.665 216.86157
169.58232 1106.665 216.86157
175.05284 1106.665 216.86157
300.87201 1106.665 216.86157
306.34235 1106.665 216.86157
311.81284 1106.665 216.86157
320.23227 1096.3167 243.97363
325.75366 1096.3167 243.97363
331.27481 1096.3167 243.97363
336.79596 1096.3167 243.97363
345.46982 1085.9684 271.08545
351.04187 1085.9684 271.08545
356.61407 1085.9684 271.08545
362.18607 1085.9684 271.08545
367.75809 1085.9684 271.08545
373.33029 1085.9684 271.08545
382.47913 1075.2632 299.13232
388.10394 1075.2632 299.13232
393.72855 1075.2632 299.13232
399.35315 1075.2632 299.13232
404.97797 1075.2632 299.13232
410.6026 1075.2632 299.13232
416.22742 1075.2632 299.13232
425.79703 1064.5581 327.17896
427.47662 1075.2632 299.13232
433.10144 1075.2632 299.13232
438.72607 1075.2632 299.13232
444.35089 1075.2632 299.13232
449.97549 1075.2632 299.13232
-374.07016 1111.6661 188.56665
-368.64883 1111.6661 188.56665
-363.2276 1111.6661 188.56665
-354.5661 1121.7028 162.40869
-349.19388 1121.7028 162.40869
-343.82166 1121.7028 162.40869
-338.4494 1121.7028 162.40869
-333.0773 1121.7028 162.40869
-327.70502 1121.7028 162.40869
-322.33282 1121.7028 162.40869
-316.9606 1121.7028 162.40869
-311.58835 1121.7028 162.40869
-306.21622 1121.7028 162.40869
-300.84396 1121.7028 162.40869
-295.47174 1121.7028 162.40869
-290.09952 1121.7028 162.40869
-284.72726 1121.7028 162.40869
-279.35516 1121.7028 162.40869
-273.98291 1121.7028 162.40869
-268.61069 1121.7028 162.40869
-263.23843 1121.7028 162.40869
-257.86621 1121.7028 162.40869
-252.49408 1121.7028 162.40869
-249.38014 1111.6661 188.56665
-243.9588 1111.6661 188.56665
-236.37737 1121.7028 162.40869
-231.00513 1121.7028 162.40869
-140.95399 1111.6661 188.56665
-134.30534 1121.7028 162.40869
-128.93311 1121.7028 162.40869
-123.56087 1121.7028 162.40869
-117.14725 1131.381 137.18506
-111.82236 1131.381 137.18506
-106.49747 1131.381 137.18506
-100.27312 1141.0592 111.96167
-94.99556 1141.0592 111.96167
-89.718109 1141.0592 111.96167
-84.440552 1141.0592 111.96167
-79.163002 1141.0592 111.96167
-73.247231 1150.379 87.672363
-68.015266 1150.379 87.672363
-62.783401 1150.379 87.672363
-57.551434 1150.379 87.672363
-52.319469 1150.379 87.672363
-47.49778 1141.0592 111.96167
-41.855534 1150.379 87.672363
-36.623669 1150.379 87.672363
-31.391701 1150.379 87.672363
-26.159735 1150.379 87.672363
-21.110115 1141.0592 111.96167
-15.97458 1131.381 137.18506
-10.649788 1131.381 137.18506
-5.324894 1131.381 137.18506
0 1131.381 137.18506
5.3247924 1131.381 137.18506
10.649788 1131.381 137.18506
15.97458 1131.381 137.18506
21.299576 1131.381 137.18506
26.624367 1131.381 137.18506
31.94916 1131.381 137.18506
37.274155 1131.381 137.18506
42.598946 1131.381 137.18506
47.923943 1131.381 137.18506
53.248734 1131.381 137.18506
58.573528 1131.381 137.18506
63.898525 1131.381 137.18506
69.223312 1131.381 137.18506
74.548309 1131.381 137.18506
79.8731 1131.381 137.18506
85.197891 1131.381 137.18506
90.522888 1131.381 137.18506
95.847679 1131.381 137.18506
103.00491 1111.6661 188.56665
108.42614 1111.6661 188.56665
113.84736 1111.6661 188.56665
119.26879 1111.6661 188.56665
125.81916 1101.6295 214.72412
131.28969 1101.6295 214.72412
136.76001 1101.6295 214.72412
142.23032 1101.6295 214.72412
147.70084 1101.6295 214.72412
153.17117 1101.6295 214.72412
160.11624 1091.2343 241.81641
164.112 1101.6295 214.72412
169.58232 1101.6295 214.72412
175.05284 1101.6295 214.72412
306.34235 1101.6295 214.72412
311.81284 1101.6295 214.72412
320.23227 1091.2343 241.81641
325.75366 1091.2343 241.81641
331.27481 1091.2343 241.81641
336.79596 1091.2343 241.81641
345.46982 1080.8392 268.9082
351.04187 1080.8392 268.9082
356.61407 1080.8392 268.9082
362.18607 1080.8392 268.9082
367.75809 1080.8392 268.9082
376.85449 1070.0857 296.93457
382.47913 1070.0857 296.93457
388.10394 1070.0857 296.93457
393.72855 1070.0857 296.93457
399.35315 1070.0857 296.93457
404.97797 1070.0857 296.93457
410.6026 1070.0857 296.93457
416.22742 1070.0857 296.93457
425.79703 1059.3322 324.96069
431.47421 1059.3322 324.96069
433.10144 1070.0857 296.93457
438.72607 1070.0857 296.93457
444.35089 1070.0857 296.93457
449.97549 1070.0857 296.93457
459.86069 1059.3322 324.96069
465.53809 1059.3322 324.96069
-374.07016 1106.6758 186.44824
-368.64883 1106.6758 186.44824
-363.2276 1106.6758 186.44824
-354.5661 1116.7576 160.30981
-349.19388 1116.7576 160.30981
-343.82166 1116.7576 160.30981
-338.4494 1116.7576 160.30981
-333.0773 1116.7576 160.30981
-327.70502 1116.7576 160.30981
-322.33282 1116.7576 160.30981
-316.9606 1116.7576 160.30981
-311.58835 1116.7576 160.30981
-306.21622 1116.7576 160.30981
-300.84396 1116.7576 160.30981
-295.47174 1116.7576 160.30981
-290.09952 1116.7576 160.30981
-284.72726 1116.7576 160.30981
-281.90799 1106.6758 186.44824
-276.48666 1106.6758 186.44824
-271.06534 1106.6758 186.44824
-265.64401 1106.6758 186.44824
-260.22269 1106.6758 186.44824
-254.80147 1106.6758 186.44824
-249.38014 1106.6758 186.44824
-243.9588 1106.6758 186.44824
-238.53748 1106.6758 186.44824
-140.95399 1106.6758 186.44824
-134.30534 1116.7576 160.30981
-128.93311 1116.7576 160.30981
-123.56087 1116.7576 160.30981
-117.14725 1126.4795 135.10449
-111.82236 1126.4795 135.10449
-106.49747 1126.4795 135.10449
-100.27312 1136.2012 109.89966
-94.99556 1136.2012 109.89966
-89.718109 1136.2012 109.89966
-84.440552 1136.2012 109.89966
-79.163002 1136.2012 109.89966
-73.247231 1145.563 85.62793
-68.015266 1145.563 85.62793
-62.783401 1145.563 85.62793
-57.551434 1145.563 85.62793
-52.319469 1145.563 85.62793
-47.087502 1145.563 85.62793
-41.855534 1145.563 85.62793
-36.623669 1145.563 85.62793
-31.391701 1145.563 85.62793
-26.159735 1145.563 85.62793
-20.927767 1145.563 85.62793
-15.97458 1126.4795 135.10449
-10.649788 1126.4795 135.10449
-5.324894 1126.4795 135.10449
0 1126.4795 135.10449
5.3247924 1126.4795 135.10449
10.649788 1126.4795 135.10449
15.97458 1126.4795 135.10449
21.299576 1126.4795 135.10449
26.624367 1126.4795 135.10449
31.94916 1126.4795 135.10449
37.274155 1126.4795 135.10449
42.598946 1126.4795 135.10449
47.923943 1126.4795 135.10449
53.248734 1126.4795 135.10449
58.573528 1126.4795 135.10449
63.898525 1126.4795 135.10449
69.223312 1126.4795 135.10449
74.548309 1126.4795 135.10449
79.8731 1126.4795 135.10449
85.197891 1126.4795 135.10449
90.522888 1126.4795 135.10449
95.847679 1126.4795 135.10449
103.00491 1106.6758 186.44824
108.42614 1106.6758 186.44824
113.84736 1106.6758 186.44824
119.26879 1106.6758 186.44824
125.81916 1096.594 212.58667
131.28969 1096.594 212.58667
136.76001 1096.594 212.58667
142.23032 1096.594 212.58667
147.70084 1096.594 212.58667
153.17117 1096.594 212.58667
160.11624 1086.152 239.65894
165.63741 1086.152 239.65894
169.58232 1096.594 212.58667
175.05284 1096.594 212.58667
325.75366 1086.152 239.65894
331.27481 1086.152 239.65894
336.79596 1086.152 239.65894
345.46982 1075.7101 266.7312
351.04187 1075.7101 266.7312
356.61407 1075.7101 266.7312
362.18607 1075.7101 266.7312
367.75809 1075.7101 266.7312
376.85449 1064.9081 294.73682
382.47913 1064.9081 294.73682
388.10394 1064.9081 294.73682
393.72855 1064.9081 294.73682
399.35315 1064.9081 294.73682
404.97797 1064.9081 294.73682
410.6026 1064.9081 294.73682
416.22742 1064.9081 294.73682
425.79703 1054.1062 322.74243
431.47421 1054.1062 322.74243
433.10144 1064.9081 294.73682
438.72607 1064.9081 294.73682
448.50629 1054.1062 322.74243
454.18347 1054.1062 322.74243
459.86069 1054.1062 322.74243
465.53809 1054.1062 322.74243
471.21533 1054.1062 322.74243
-379.49149 1101.6854 184.33008
-374.07016 1101.6854 184.33008
-368.64883 1101.6854 184.33008
-363.2276 1101.6854 184.33008
-354.5661 1111.8125 158.21069
-349.19388 1111.8125 158.21069
-343.82166 1111.8125 158.21069
-338.4494 1111.8125 158.21069
-333.0773 1111.8125 158.21069
-327.70502 1111.8125 158.21069
-322.33282 1111.8125 158.21069
-316.9606 1111.8125 158.21069
-311.58835 1111.8125 158.21069
-306.21622 1111.8125 158.21069
-303.5932 1101.6854 184.33008
-298.17188 1101.6854 184.33008
-292.75055 1101.6854 184.33008
-287.32922 1101.6854 184.33008
-281.90799 1101.6854 184.33008
-276.48666 1101.6854 184.33008
-271.06534 1101.6854 184.33008
-265.64401 1101.6854 184.33008
-257.86621 1111.8125 158.21069
-252.49408 1111.8125 158.21069
-249.38014 1101.6854 184.33008
-243.9588 1101.6854 184.33008
-140.95399 1101.6854 184.33008
-134.30534 1111.8125 158.21069
-128.93311 1111.8125 158.21069
-123.56087 1111.8125 158.21069
-117.14725 1121.5779 133.02393
-111.82236 1121.5779 133.02393
-106.49747 1121.5779 133.02393
-101.17258 1121.5779 133.02393
-94.99556 1131.3431 107.8374
-89.718109 1131.3431 107.8374
-84.440552 1131.3431 107.8374
-79.163002 1131.3431 107.8374
-73.247231 1140.7469 83.58374
-68.015266 1140.7469 83.58374
-62.783401 1140.7469 83.58374
-57.551434 1140.7469 83.58374
-52.319469 1140.7469 83.58374
-47.087502 1140.7469 83.58374
-41.855534 1140.7469 83.58374
-36.623669 1140.7469 83.58374
-31.391701 1140.7469 83.58374
-26.159735 1140.7469 83.58374
-20.927767 1140.7469 83.58374
-15.83256 1131.3431 107.8374
-10.555108 1131.3431 107.8374
-5.324894 1121.5779 133.02393
0 1121.5779 133.02393
5.3247924 1121.5779 133.02393
10.649788 1121.5779 133.02393
15.97458 1121.5779 133.02393
21.299576 1121.5779 133.02393
26.624367 1121.5779 133.02393
31.94916 1121.5779 133.02393
37.274155 1121.5779 133.02393
42.598946 1121.5779 133.02393
47.923943 1121.5779 133.02393
53.248734 1121.5779 133.02393
58.573528 1121.5779 133.02393
63.898525 1121.5779 133.02393
69.223312 1121.5779 133.02393
74.548309 1121.5779 133.02393
80.583206 1111.8125 158.21069
85.955338 1111.8125 158.21069
91.327667 1111.8125 158.21069
95.847679 1121.5779 133.02393
101.17268 1121.5779 133.02393
108.42614 1101.6854 184.33008
113.84736 1101.6854 184.33008
119.26879 1101.6854 184.33008
125.81916 1091.5585 210.44922
131.28969 1091.5585 210.44922
136.76001 1091.5585 210.44922
142.23032 1091.5585 210.44922
147.70084 1091.5585 210.44922
153.17117 1091.5585 210.44922
160.11624 1081.0697 237.50171
165.63741 1081.0697 237.50171
171.15857 1081.0697 237.50171
176.67995 1081.0697 237.50171
325.75366 1081.0697 237.50171
331.27481 1081.0697 237.50171
336.79596 1081.0697 237.50171
342.31735 1081.0697 237.50171
354.35565 1059.7306 292.53906
359.98047 1059.7306 292.53906
365.60507 1059.7306 292.53906
371.22968 1059.7306 292.53906
376.85449 1059.7306 292.53906
382.47913 1059.7306 292.53906
388.10394 1059.7306 292.53906
393.72855 1059.7306 292.53906
399.35315 1059.7306 292.53906
404.97797 1059.7306 292.53906
410.6026 1059.7306 292.53906
416.22742 1059.7306 292.53906
421.85202 1059.7306 292.53906
427.47662 1059.7306 292.53906
433.10144 1059.7306 292.53906
438.72607 1059.7306 292.53906
448.50629 1048.8801 320.52393
454.18347 1048.8801 320.52393
459.86069 1048.8801 320.52393
461.22488 1059.7306 292.53906
-384.91281 1096.6952 182.21191
-379.49149 1096.6952 182.21191
-374.07016 1096.6952 182.21191
-368.64883 1096.6952 182.21191
-363.2276 1096.6952 182.21191
-354.5661 1106.8673 156.11157
-349.19388 1106.8673 156.11157
-343.82166 1106.8673 156.11157
-338.4494 1106.8673 156.11157
-333.0773 1106.8673 156.11157
-327.70502 1106.8673 156.11157
-322.33282 1106.8673 156.11157
-316.9606 1106.8673 156.11157
-311.58835 1106.8673 156.11157
-306.21622 1106.8673 156.11157
-303.5932 1096.6952 182.21191
-298.17188 1096.6952 182.21191
-292.75055 1096.6952 182.21191
-287.32922 1096.6952 182.21191
-281.90799 1096.6952 182.21191
-276.48666 1096.6952 182.21191
-271.06534 1096.6952 182.21191
-265.64401 1096.6952 182.21191
-257.86621 1106.8673 156.11157
-252.49408 1106.8673 156.11157
-249.38014 1096.6952 182.21191
-140.95399 1096.6952 182.21191
-135.53267 1096.6952 182.21191
-130.11134 1096.6952 182.21191
-124.69002 1096.6952 182.21191
-118.18874 1106.8673 156.11157
-112.81651 1106.8673 156.11157
-106.49747 1116.6763 130.94336
-101.17258 1116.6763 130.94336
-94.99556 1126.4852 105.77539
-89.718109 1126.4852 105.77539
-84.440552 1126.4852 105.77539
-79.163002 1126.4852 105.77539
-73.247231 1135.9309 81.539551
-68.015266 1135.9309 81.539551
-62.783401 1135.9309 81.539551
-57.551434 1135.9309 81.539551
-52.319469 1135.9309 81.539551
-47.087502 1135.9309 81.539551
-41.855534 1135.9309 81.539551
-36.623669 1135.9309 81.539551
-31.391701 1135.9309 81.539551
-26.159735 1135.9309 81.539551
-20.927767 1135.9309 81.539551
-15.83256 1126.4852 105.77539
-10.555108 1126.4852 105.77539
-5.324894 1116.6763 130.94336
0 1116.6763 130.94336
5.3247924 1116.6763 130.94336
10.649788 1116.6763 130.94336
15.97458 1116.6763 130.94336
21.299576 1116.6763 130.94336
26.624367 1116.6763 130.94336
31.94916 1116.6763 130.94336
37.274155 1116.6763 130.94336
42.598946 1116.6763 130.94336
47.923943 1116.6763 130.94336
53.248734 1116.6763 130.94336
59.094265 1106.8673 156.11157
63.898525 1116.6763 130.94336
69.223312 1116.6763 130.94336
74.548309 1116.6763 130.94336
80.583206 1106.8673 156.11157
85.955338 1106.8673 156.11157
91.327667 1106.8673 156.11157
95.847679 1116.6763 130.94336
101.17268 1116.6763 130.94336
108.42614 1096.6952 182.21191
113.84736 1096.6952 182.21191
119.26879 1096.6952 182.21191
125.81916 1086.5229 208.31177
131.28969 1086.5229 208.31177
136.76001 1086.5229 208.31177
142.23032 1086.5229 208.31177
147.70084 1086.5229 208.31177
154.59486 1075.9873 235.34448
160.11624 1075.9873 235.34448
165.63741 1075.9873 235.34448
171.15857 1075.9873 235.34448
178.30704 1065.4518 262.37671
365.60507 1054.553 290.34131
371.22968 1054.553 290.34131
376.85449 1054.553 290.34131
382.47913 1054.553 290.34131
388.10394 1054.553 290.34131
393.72855 1054.553 290.34131
399.35315 1054.553 290.34131
404.97797 1054.553 290.34131
410.6026 1054.553 290.34131
416.22742 1054.553 290.34131
421.85202 1054.553 290.34131
427.47662 1054.553 290.34131
433.10144 1054.553 290.34131
438.72607 1054.553 290.34131
448.50629 1043.6542 318.30566
449.97549 1054.553 290.34131
455.6001 1054.553 290.34131
461.22488 1054.553 290.34131
-390.33414 1091.7048 180.09351
-384.91281 1091.7048 180.09351
-379.49149 1091.7048 180.09351
-374.07016 1091.7048 180.09351
-365.31049 1101.9221 154.01245
-359.93835 1101.9221 154.01245
-354.5661 1101.9221 154.01245
-349.19388 1101.9221 154.01245
-343.82166 1101.9221 154.01245
-338.4494 1101.9221 154.01245
-333.0773 1101.9221 154.01245
-327.70502 1101.9221 154.01245
-322.33282 1101.9221 154.01245
-316.9606 1101.9221 154.01245
-311.58835 1101.9221 154.01245
-306.21622 1101.9221 154.01245
-303.5932 1091.7048 180.09351
-298.17188 1091.7048 180.09351
-292.75055 1091.7048 180.09351
-287.32922 1091.7048 180.09351
-281.90799 1091.7048 180.09351
-276.48666 1091.7048 180.09351
-271.06534 1091.7048 180.09351
-265.64401 1091.7048 180.09351
-257.86621 1101.9221 154.01245
-252.49408 1101.9221 154.01245
-140.95399 1091.7048 180.09351
-134.30534 1101.9221 154.01245
-128.93311 1101.9221 154.01245
-123.56087 1101.9221 154.01245
-118.18874 1101.9221 154.01245
-112.81651 1101.9221 154.01245
-106.49747 1111.7748 128.86279
-101.17258 1111.7748 128.86279
-94.99556 1121.6272 103.71338
-89.718109 1121.6272 103.71338
-84.440552 1121.6272 103.71338
-79.163002 1121.6272 103.71338
-73.885452 1121.6272 103.71338
-68.607895 1121.6272 103.71338
-62.783401 1131.1149 79.495117
-57.551434 1131.1149 79.495117
-52.319469 1131.1149 79.495117
-47.087502 1131.1149 79.495117
-41.855534 1131.1149 79.495117
-36.623669 1131.1149 79.495117
-31.391701 1131.1149 79.495117
-26.159735 1131.1149 79.495117
-20.927767 1131.1149 79.495117
-15.97458 1111.7748 128.86279
-10.649788 1111.7748 128.86279
-5.324894 1111.7748 128.86279
0 1111.7748 128.86279
5.3247924 1111.7748 128.86279
10.649788 1111.7748 128.86279
15.97458 1111.7748 128.86279
21.299576 1111.7748 128.86279
26.624367 1111.7748 128.86279
31.94916 1111.7748 128.86279
37.274155 1111.7748 128.86279
42.598946 1111.7748 128.86279
47.923943 1111.7748 128.86279
53.248734 1111.7748 128.86279
59.094265 1101.9221 154.01245
63.898525 1111.7748 128.86279
69.223312 1111.7748 128.86279
74.548309 1111.7748 128.86279
80.583206 1101.9221 154.01245
85.955338 1101.9221 154.01245
91.327667 1101.9221 154.01245
96.699806 1101.9221 154.01245
103.00491 1091.7048 180.09351
108.42614 1091.7048 180.09351
113.84736 1091.7048 180.09351
119.26879 1091.7048 180.09351
125.81916 1081.4874 206.17432
131.28969 1081.4874 206.17432
136.76001 1081.4874 206.17432
142.23032 1081.4874 206.17432
149.07372 1070.905 233.18701
154.59486 1070.905 233.18701
160.11624 1070.905 233.18701
167.16281 1060.3228 260.19946
172.73482 1060.3228 260.19946
178.30704 1060.3228 260.19946
365.60507 1049.3755 288.14355
371.22968 1049.3755 288.14355
376.85449 1049.3755 288.14355
382.47913 1049.3755 288.14355
388.10394 1049.3755 288.14355
393.72855 1049.3755 288.14355
395.61856 1060.3228 260.19946
401.19077 1060.3228 260.19946
410.6026 1049.3755 288.14355
416.22742 1049.3755 288.14355
421.85202 1049.3755 288.14355
427.47662 1049.3755 288.14355
433.10144 1049.3755 288.14355
438.72607 1049.3755 288.14355
444.35089 1049.3755 288.14355
449.97549 1049.3755 288.14355
455.6001 1049.3755 288.14355
461.22488 1049.3755 288.14355
-395.75537 1086.7145 177.97534
-390.33414 1086.7145 177.97534
-384.91281 1086.7145 177.97534
-379.49149 1086.7145 177.97534
-370.68274 1096.9771 151.91333
-365.31049 1096.9771 151.91333
-359.93835 1096.9771 151.91333
-354.5661 1096.9771 151.91333
-349.19388 1096.9771 151.91333
-343.82166 1096.9771 151.91333
-338.4494 1096.9771 151.91333
-333.0773 1096.9771 151.91333
-327.70502 1096.9771 151.91333
-322.33282 1096.9771 151.91333
-316.9606 1096.9771 151.91333
-311.58835 1096.9771 151.91333
-306.21622 1096.9771 151.91333
-303.5932 1086.7145 177.97534
-298.17188 1086.7145 177.97534
-292.75055 1086.7145 177.97534
-287.32922 1086.7145 177.97534
-281.90799 1086.7145 177.97534
-273.98291 1096.9771 151.91333
-268.61069 1096.9771 151.91333
-265.64401 1086.7145 177.97534
-260.22269 1086.7145 177.97534
-140.95399 1086.7145 177.97534
-134.30534 1096.9771 151.91333
-128.93311 1096.9771 151.91333
-123.56087 1096.9771 151.91333
-118.18874 1096.9771 151.91333
-112.81651 1096.9771 151.91333
-106.49747 1106.8732 126.78223
-101.17258 1106.8732 126.78223
-94.99556 1116.7692 101.65112
-89.718109 1116.7692 101.65112
-84.440552 1116.7692 101.65112
-79.163002 1116.7692 101.65112
-73.885452 1116.7692 101.65112
-68.607895 1116.7692 101.65112
-63.330441 1116.7692 101.65112
-57.551434 1126.2988 77.450928
-52.319469 1126.2988 77.450928
-47.49778 1116.7692 101.65112
-41.855534 1126.2988 77.450928
-36.623669 1126.2988 77.450928
-31.391701 1126.2988 77.450928
-26.159735 1126.2988 77.450928
-20.927767 1126.2988 77.450928
-15.97458 1106.8732 126.78223
-10.649788 1106.8732 126.78223
-5.324894 1106.8732 126.78223
0 1106.8732 126.78223
5.3247924 1106.8732 126.78223
10.649788 1106.8732 126.78223
15.97458 1106.8732 126.78223
21.299576 1106.8732 126.78223
26.624367 1106.8732 126.78223
31.94916 1106.8732 126.78223
37.274155 1106.8732 126.78223
42.598946 1106.8732 126.78223
47.923943 1106.8732 126.78223
53.248734 1106.8732 126.78223
59.094265 1096.9771 151.91333
64.466599 1096.9771 151.91333
69.838737 1096.9771 151.91333
75.211067 1096.9771 151.91333
80.583206 1096.9771 151.91333
85.955338 1096.9771 151.91333
91.327667 1096.9771 151.91333
96.699806 1096.9771 151.91333
103.00491 1086.7145 177.97534
108.42614 1086.7145 177.97534
113.84736 1086.7145 177.97534
120.34885 1076.4519 204.03687
125.81916 1076.4519 204.03687
131.28969 1076.4519 204.03687
136.76001 1076.4519 204.03687
142.23032 1076.4519 204.03687
149.07372 1065.8226 231.02979
154.59486 1065.8226 231.02979
161.59081 1055.1936 258.02246
167.16281 1055.1936 258.02246
174.36542 1044.1979 285.9458
179.99023 1044.1979 285.9458
374.70129 1033.2023 313.86914
376.85449 1044.1979 285.9458
382.47913 1044.1979 285.9458
388.10394 1044.1979 285.9458
393.72855 1044.1979 285.9458
395.61856 1055.1936 258.02246
401.19077 1055.1936 258.02246
410.6026 1044.1979 285.9458
416.22742 1044.1979 285.9458
421.85202 1044.1979 285.9458
427.47662 1044.1979 285.9458
433.10144 1044.1979 285.9458
438.72607 1044.1979 285.9458
444.35089 1044.1979 285.9458
449.97549 1044.1979 285.9458
455.6001 1044.1979 285.9458
461.22488 1044.1979 285.9458
482.56995 1033.2023 313.86914
488.24716 1033.2023 313.86914
-415.75046 1071.4164 201.89941
-410.28003 1071.4164 201.89941
-401.1767 1081.7241 175.85693
-395.75537 1081.7241 175.85693
-390.33414 1081.7241 175.85693
-384.91281 1081.7241 175.85693
-379.49149 1081.7241 175.85693
-370.68274 1092.0319 149.81421
-365.31049 1092.0319 149.81421
-359.93835 1092.0319 149.81421
-354.5661 1092.0319 149.81421
-349.19388 1092.0319 149.81421
-343.82166 1092.0319 149.81421
-338.4494 1092.0319 149.81421
-333.0773 1092.0319 149.81421
-327.70502 1092.0319 149.81421
-322.33282 1092.0319 149.81421
-316.9606 1092.0319 149.81421
-311.58835 1092.0319 149.81421
-306.21622 1092.0319 149.81421
-303.5932 1081.7241 175.85693
-298.17188 1081.7241 175.85693
-292.75055 1081.7241 175.85693
-284.72726 1092.0319 149.81421
-279.35516 1092.0319 149.81421
-273.98291 1092.0319 149.81421
-268.61069 1092.0319 149.81421
-263.23843 1092.0319 149.81421
-260.22269 1081.7241 175.85693
-140.95399 1081.7241 175.85693
-134.30534 1092.0319 149.81421
-128.93311 1092.0319 149.81421
-123.56087 1092.0319 149.81421
-118.18874 1092.0319 149.81421
-112.81651 1092.0319 149.81421
-107.44427 1092.0319 149.81421
-101.17258 1101.9717 124.70166
-94.99556 1111.9113 99.589111
-89.718109 1111.9113 99.589111
-84.440552 1111.9113 99.589111
-79.163002 1111.9113 99.589111
-73.885452 1111.9113 99.589111
-68.607895 1111.9113 99.589111
-63.330441 1111.9113 99.589111
-57.551434 1121.4828 75.406494
-52.319469 1121.4828 75.406494
-47.49778 1111.9113 99.589111
-42.22023 1111.9113 99.589111
-36.942772 1111.9113 99.589111
-31.391701 1121.4828 75.406494
-26.159735 1121.4828 75.406494
-20.927767 1121.4828 75.406494
-15.97458 1101.9717 124.70166
-10.649788 1101.9717 124.70166
-5.324894 1101.9717 124.70166
0 1101.9717 124.70166
5.3247924 1101.9717 124.70166
10.649788 1101.9717 124.70166
15.97458 1101.9717 124.70166
21.299576 1101.9717 124.70166
26.624367 1101.9717 124.70166
31.94916 1101.9717 124.70166
37.274155 1101.9717 124.70166
42.598946 1101.9717 124.70166
47.923943 1101.9717 124.70166
53.248734 1101.9717 124.70166
59.094265 1092.0319 149.81421
64.466599 1092.0319 149.81421
69.838737 1092.0319 149.81421
75.211067 1092.0319 149.81421
80.583206 1092.0319 149.81421
85.955338 1092.0319 149.81421
92.162254 1081.7241 175.85693
97.583481 1081.7241 175.85693
103.00491 1081.7241 175.85693
108.42614 1081.7241 175.85693
114.87832 1071.4164 201.89941
120.34885 1071.4164 201.89941
125.81916 1071.4164 201.89941
131.28969 1071.4164 201.89941
136.76001 1071.4164 201.89941
142.23032 1071.4164 201.89941
149.07372 1060.7404 228.87256
154.59486 1060.7404 228.87256
161.59081 1050.0645 255.84521
167.16281 1050.0645 255.84521
174.36542 1039.0204 283.74805
181.67343 1027.9763 311.65088
386.05594 1027.9763 311.65088
391.73334 1027.9763 311.65088
393.72855 1039.0204 283.74805
395.61856 1050.0645 255.84521
401.19077 1050.0645 255.84521
410.6026 1039.0204 283.74805
416.22742 1039.0204 283.74805
421.85202 1039.0204 283.74805
427.47662 1039.0204 283.74805
429.05124 1050.0645 255.84521
434.62326 1050.0645 255.84521
444.35089 1039.0204 283.74805
449.97549 1039.0204 283.74805
455.6001 1039.0204 283.74805
465.53809 1027.9763 311.65088
471.21533 1027.9763 311.65088
476.89276 1027.9763 311.65088
482.56995 1027.9763 311.65088
488.24716 1027.9763 311.65088
-412.01935 1076.7338 173.73877
-406.59802 1076.7338 173.73877
-401.1767 1076.7338 173.73877
-395.75537 1076.7338 173.73877
-390.33414 1076.7338 173.73877
-384.91281 1076.7338 173.73877
-379.49149 1076.7338 173.73877
-374.07016 1076.7338 173.73877
-365.31049 1087.0868 147.71509
-359.93835 1087.0868 147.71509
-354.5661 1087.0868 147.71509
-349.19388 1087.0868 147.71509
-343.82166 1087.0868 147.71509
-338.4494 1087.0868 147.71509
-333.0773 1087.0868 147.71509
-327.70502 1087.0868 147.71509
-322.33282 1087.0868 147.71509
-316.9606 1087.0868 147.71509
-311.58835 1087.0868 147.71509
-306.21622 1087.0868 147.71509
-303.5932 1076.7338 173.73877
-295.47174 1087.0868 147.71509
-290.09952 1087.0868 147.71509
-284.72726 1087.0868 147.71509
-279.35516 1087.0868 147.71509
-263.23843 1087.0868 147.71509
-140.95399 1076.7338 173.73877
-134.30534 1087.0868 147.71509
-128.93311 1087.0868 147.71509
-123.56087 1087.0868 147.71509
-118.18874 1087.0868 147.71509
-112.81651 1087.0868 147.71509
-107.44427 1087.0868 147.71509
-101.17258 1097.0701 122.62085
-95.847679 1097.0701 122.62085
-89.718109 1107.0532 97.5271
-84.440552 1107.0532 97.5271
-79.163002 1107.0532 97.5271
-73.885452 1107.0532 97.5271
-68.607895 1107.0532 97.5271
-63.330441 1107.0532 97.5271
-58.052891 1107.0532 97.5271
-52.775333 1107.0532 97.5271
-47.49778 1107.0532 97.5271
-42.22023 1107.0532 97.5271
-36.942772 1107.0532 97.5271
-31.391701 1116.6667 73.362305
-26.159735 1116.6667 73.362305
-20.927767 1116.6667 73.362305
-15.97458 1097.0701 122.62085
-10.649788 1097.0701 122.62085
-5.324894 1097.0701 122.62085
0 1097.0701 122.62085
5.3247924 1097.0701 122.62085
10.649788 1097.0701 122.62085
15.97458 1097.0701 122.62085
21.299576 1097.0701 122.62085
26.624367 1097.0701 122.62085
31.94916 1097.0701 122.62085
37.274155 1097.0701 122.62085
42.598946 1097.0701 122.62085
47.923943 1097.0701 122.62085
53.248734 1097.0701 122.62085
59.094265 1087.0868 147.71509
64.466599 1087.0868 147.71509
69.838737 1087.0868 147.71509
75.211067 1087.0868 147.71509
80.583206 1087.0868 147.71509
86.740829 1076.7338 173.73877
92.162254 1076.7338 173.73877
97.583481 1076.7338 173.73877
103.00491 1076.7338 173.73877
108.42614 1076.7338 173.73877
114.87832 1066.3809 199.76196
120.34885 1066.3809 199.76196
125.81916 1066.3809 199.76196
131.28969 1066.3809 199.76196
136.76001 1066.3809 199.76196
143.55234 1055.658 226.71509
149.07372 1055.658 226.71509
154.59486 1055.658 226.71509
161.59081 1044.9353 253.66797
168.7408 1033.8428 281.55029
174.36542 1033.8428 281.55029
181.67343 1022.7504 309.43262
391.73334 1022.7504 309.43262
393.72855 1033.8428 281.55029
395.61856 1044.9353 253.66797
401.19077 1044.9353 253.66797
406.76279 1044.9353 253.66797
412.33502 1044.9353 253.66797
417.90701 1044.9353 253.66797
423.47903 1044.9353 253.66797
429.05124 1044.9353 253.66797
434.62326 1044.9353 253.66797
444.35089 1033.8428 281.55029
449.97549 1033.8428 281.55029
455.6001 1033.8428 281.55029
465.53809 1022.7504 309.43262
471.21533 1022.7504 309.43262
476.89276 1022.7504 309.43262
482.56995 1022.7504 309.43262
488.24716 1022.7504 309.43262
498.65332 1011.2881 338.24438
-417.44067 1071.7434 171.62036
-412.01935 1071.7434 171.62036
-406.59802 1071.7434 171.62036
-401.1767 1071.7434 171.62036
-395.75537 1071.7434 171.62036
-390.33414 1071.7434 171.62036
-384.91281 1071.7434 171.62036
-379.49149 1071.7434 171.62036
-370.68274 1082.1416 145.61621
-365.31049 1082.1416 145.61621
-359.93835 1082.1416 145.61621
-354.5661 1082.1416 145.61621
-349.19388 1082.1416 145.61621
-343.82166 1082.1416 145.61621
-338.4494 1082.1416 145.61621
-333.0773 1082.1416 145.61621
-327.70502 1082.1416 145.61621
-322.33282 1082.1416 145.61621
-316.9606 1082.1416 145.61621
-311.58835 1082.1416 145.61621
-306.21622 1082.1416 145.61621
-303.5932 1071.7434 171.62036
-295.47174 1082.1416 145.61621
-290.09952 1082.1416 145.61621
-284.72726 1082.1416 145.61621
-279.35516 1082.1416 145.61621
-140.95399 1071.7434 171.62036
-134.30534 1082.1416 145.61621
-128.93311 1082.1416 145.61621
-123.56087 1082.1416 145.61621
-118.18874 1082.1416 145.61621
-112.81651 1082.1416 145.61621
-107.44427 1082.1416 145.61621
-102.07204 1082.1416 145.61621
-95.847679 1092.1685 120.54028
-89.718109 1102.1952 95.464844
-84.440552 1102.1952 95.464844
-79.163002 1102.1952 95.464844
-73.885452 1102.1952 95.464844
-68.607895 1102.1952 95.464844
-63.330441 1102.1952 95.464844
-58.052891 1102.1952 95.464844
-52.775333 1102.1952 95.464844
-47.49778 1102.1952 95.464844
-42.22023 1102.1952 95.464844
-36.942772 1102.1952 95.464844
-31.66522 1102.1952 95.464844
-26.159735 1111.8507 71.318115
-20.927767 1111.8507 71.318115
-15.83256 1102.1952 95.464844
-10.555108 1102.1952 95.464844
-5.324894 1092.1685 120.54028
0 1092.1685 120.54028
5.3247924 1092.1685 120.54028
10.649788 1092.1685 120.54028
15.97458 1092.1685 120.54028
21.299576 1092.1685 120.54028
26.624367 1092.1685 120.54028
31.94916 1092.1685 120.54028
37.274155 1092.1685 120.54028
42.598946 1092.1685 120.54028
47.923943 1092.1685 120.54028
53.248734 1092.1685 120.54028
59.094265 1082.1416 145.61621
64.466599 1082.1416 145.61621
69.838737 1082.1416 145.61621
75.211067 1082.1416 145.61621
81.319603 1071.7434 171.62036
86.740829 1071.7434 171.62036
92.162254 1071.7434 171.62036
97.583481 1071.7434 171.62036
103.00491 1071.7434 171.62036
109.408 1061.3453 197.62451
114.87832 1061.3453 197.62451
120.34885 1061.3453 197.62451
125.81916 1061.3453 197.62451
131.28969 1061.3453 197.62451
138.03117 1050.5757 224.55786
143.55234 1050.5757 224.55786
149.07372 1050.5757 224.55786
156.01857 1039.8062 251.49072
161.59081 1039.8062 251.49072
168.7408 1028.6653 279.35254
174.36542 1028.6653 279.35254
181.67343 1017.5243 307.21436
395.61856 1039.8062 251.49072
401.19077 1039.8062 251.49072
406.76279 1039.8062 251.49072
412.33502 1039.8062 251.49072
417.90701 1039.8062 251.49072
423.47903 1039.8062 251.49072
429.05124 1039.8062 251.49072
434.62326 1039.8062 251.49072
444.35089 1028.6653 279.35254
449.97549 1028.6653 279.35254
455.6001 1028.6653 279.35254
465.53809 1017.5243 307.21436
471.21533 1017.5243 307.21436
476.89276 1017.5243 307.21436
482.56995 1017.5243 307.21436
488.24716 1017.5243 307.21436
493.92456 1017.5243 307.21436
-429.77707 1077.1964 143.51709
-422.86191 1066.7532 169.5022
-417.44067 1066.7532 169.5022
-412.01935 1066.7532 169.5022
-406.59802 1066.7532 169.5022
-401.1767 1066.7532 169.5022
-395.75537 1066.7532 169.5022
-390.33414 1066.7532 169.5022
-384.91281 1066.7532 169.5022
-376.05496 1077.1964 143.51709
-370.68274 1077.1964 143.51709
-365.31049 1077.1964 143.51709
-359.93835 1077.1964 143.51709
-354.5661 1077.1964 143.51709
-349.19388 1077.1964 143.51709
-343.82166 1077.1964 143.51709
-338.4494 1077.1964 143.51709
-333.0773 1077.1964 143.51709
-327.70502 1077.1964 143.51709
-322.33282 1077.1964 143.51709
-319.85709 1066.7532 169.5022
-314.43576 1066.7532 169.5022
-309.01453 1066.7532 169.5022
-303.5932 1066.7532 169.5022
-295.47174 1077.1964 143.51709
-290.09952 1077.1964 143.51709
-284.72726 1077.1964 143.51709
-142.23042 1056.3098 195.48706
-135.53267 1066.7532 169.5022
-130.11134 1066.7532 169.5022
-123.56087 1077.1964 143.51709
-118.18874 1077.1964 143.51709
-112.81651 1077.1964 143.51709
-107.44427 1077.1964 143.51709
-102.07204 1077.1964 143.51709
-95.847679 1087.267 118.45972
-89.718109 1097.3373 93.402832
-84.440552 1097.3373 93.402832
-79.163002 1097.3373 93.402832
-73.885452 1097.3373 93.402832
-68.607895 1097.3373 93.402832
-63.330441 1097.3373 93.402832
-58.052891 1097.3373 93.402832
-52.775333 1097.3373 93.402832
-47.49778 1097.3373 93.402832
-42.22023 1097.3373 93.402832
-36.942772 1097.3373 93.402832
-31.66522 1097.3373 93.402832
-26.159735 1107.0347 69.273682
-20.927767 1107.0347 69.273682
-15.83256 1097.3373 93.402832
-10.555108 1097.3373 93.402832
-5.324894 1087.267 118.45972
0 1087.267 118.45972
5.3247924 1087.267 118.45972
10.649788 1087.267 118.45972
15.97458 1087.267 118.45972
21.299576 1087.267 118.45972
26.624367 1087.267 118.45972
31.94916 1087.267 118.45972
37.274155 1087.267 118.45972
42.598946 1087.267 118.45972
47.923943 1087.267 118.45972
53.248734 1087.267 118.45972
59.094265 1077.1964 143.51709
64.466599 1077.1964 143.51709
69.838737 1077.1964 143.51709
75.211067 1077.1964 143.51709
81.319603 1066.7532 169.5022
86.740829 1066.7532 169.5022
92.162254 1066.7532 169.5022
97.583481 1066.7532 169.5022
103.00491 1066.7532 169.5022
109.408 1056.3098 195.48706
114.87832 1056.3098 195.48706
120.34885 1056.3098 195.48706
125.81916 1056.3098 195.48706
131.28969 1056.3098 195.48706
138.03117 1045.4934 222.40039
143.55234 1045.4934 222.40039
149.07372 1045.4934 222.40039
156.01857 1034.677 249.31372
163.1162 1023.4877 277.15503
168.7408 1023.4877 277.15503
175.99602 1012.2983 304.99609
406.76279 1034.677 249.31372
412.33502 1034.677 249.31372
417.90701 1034.677 249.31372
423.47903 1034.677 249.31372
429.05124 1034.677 249.31372
434.62326 1034.677 249.31372
444.35089 1023.4877 277.15503
449.97549 1023.4877 277.15503
455.6001 1023.4877 277.15503
465.53809 1012.2983 304.99609
471.21533 1012.2983 304.99609
476.89276 1012.2983 304.99609
482.56995 1012.2983 304.99609
488.24716 1012.2983 304.99609
493.92456 1012.2983 304.99609
499.60181 1012.2983 304.99609
505.27921 1012.2983 304.99609
515.84821 1000.7361 333.76514
521.57977 1000.7361 333.76514
527.31158 1000.7361 333.76514
-424.40488 1072.2513 141.41797
-422.86191 1061.7628 167.38403
-417.44067 1061.7628 167.38403
-412.01935 1061.7628 167.38403
-406.59802 1061.7628 167.38403
-401.1767 1061.7628 167.38403
-395.75537 1061.7628 167.38403
-390.33414 1061.7628 167.38403
-384.91281 1061.7628 167.38403
-376.05496 1072.2513 141.41797
-370.68274 1072.2513 141.41797
-365.31049 1072.2513 141.41797
-359.93835 1072.2513 141.41797
-354.5661 1072.2513 141.41797
-349.19388 1072.2513 141.41797
-343.82166 1072.2513 141.41797
-338.4494 1072.2513 141.41797
-333.0773 1072.2513 141.41797
-327.70502 1072.2513 141.41797
-325.27841 1061.7628 167.38403
-319.85709 1061.7628 167.38403
-314.43576 1061.7628 167.38403
-309.01453 1061.7628 167.38403
-303.5932 1061.7628 167.38403
-298.17188 1061.7628 167.38403
-292.75055 1061.7628 167.38403
-287.32922 1061.7628 167.38403
-142.23042 1051.2743 193.34961
-135.53267 1061.7628 167.38403
-130.11134 1061.7628 167.38403
-124.69002 1061.7628 167.38403
-119.26879 1061.7628 167.38403
-113.84747 1061.7628 167.38403
-108.42614 1061.7628 167.38403
-102.07204 1072.2513 141.41797
-95.847679 1082.3654 116.37915
-90.522888 1082.3654 116.37915
-84.440552 1092.4792 91.34082
-79.163002 1092.4792 91.34082
-73.885452 1092.4792 91.34082
-68.607895 1092.4792 91.34082
-63.330441 1092.4792 91.34082
-58.052891 1092.4792 91.34082
-52.775333 1092.4792 91.34082
-47.49778 1092.4792 91.34082
-42.22023 1092.4792 91.34082
-36.942772 1092.4792 91.34082
-31.66522 1092.4792 91.34082
-26.159735 1102.2188 67.229492
-20.927767 1102.2188 67.229492
-15.97458 1082.3654 116.37915
-10.649788 1082.3654 116.37915
-5.324894 1082.3654 116.37915
0 1082.3654 116.37915
5.3247924 1082.3654 116.37915
10.649788 1082.3654 116.37915
15.97458 1082.3654 116.37915
21.299576 1082.3654 116.37915
26.624367 1082.3654 116.37915
31.94916 1082.3654 116.37915
37.274155 1082.3654 116.37915
42.598946 1082.3654 116.37915
47.923943 1082.3654 116.37915
53.248734 1082.3654 116.37915
59.094265 1072.2513 141.41797
64.466599 1072.2513 141.41797
69.838737 1072.2513 141.41797
75.211067 1072.2513 141.41797
81.319603 1061.7628 167.38403
86.740829 1061.7628 167.38403
92.162254 1061.7628 167.38403
97.583481 1061.7628 167.38403
103.93769 1051.2743 193.34961
109.408 1051.2743 193.34961
114.87832 1051.2743 193.34961
120.34885 1051.2743 193.34961
125.81916 1051.2743 193.34961
