ply
format ascii 1.0
comment PCL generated
element vertex 1557
property float x
property float y
property float z
element camera 0
property float view_px
property float view_py
property float view_pz
property float x_axisx
property float x_axisy
property float x_axisz
property float y_axisx
property float y_axisy
property float y_axisz
property float z_axisx
property float z_axisy
property float z_axisz
property float focal
property float scalex
property float scaley
property float centerx
property float centery
property int viewportx
property int viewporty
property float k1
property float k2
end_header
-71.115158 844.8175 105.71387
-65.644844 844.8175 105.71387
-60.174423 844.8175 105.71387
-54.704002 844.8175 105.71387
-48.79174 857.15881 80.534668
-43.370415 857.15881 80.534668
-37.949188 857.15881 80.534668
-32.527863 857.15881 80.534668
-27.106535 857.15881 80.534668
-21.881578 844.8175 105.71387
-16.41116 844.8175 105.71387
-10.940842 844.8175 105.71387
-5.4704208 844.8175 105.71387
0 844.8175 105.71387
5.4212241 857.15881 80.534668
10.842655 857.15881 80.534668
16.26388 857.15881 80.534668
21.68531 857.15881 80.534668
27.106535 857.15881 80.534668
32.52776 857.15881 80.534668
37.949188 857.15881 80.534668
43.370415 857.15881 80.534668
49.233688 844.8175 105.71387
54.704002 844.8175 105.71387
60.174316 844.8175 105.71387
65.644844 844.8175 105.71387
71.115158 844.8175 105.71387
76.585686 844.8175 105.71387
82.056 844.8175 105.71387
87.526314 844.8175 105.71387
92.996849 844.8175 105.71387
98.467163 844.8175 105.71387
104.90378 832.03516 131.79297
110.42493 832.03516 131.79297
115.9461 832.03516 131.79297
121.46747 832.03516 131.79297
126.98864 832.03516 131.79297
132.51001 832.03516 131.79297
138.03117 832.03516 131.79297
-192.08464 944.62549 -109.38745
-187.02988 944.62549 -109.38745
-181.97498 944.62549 -109.38745
-176.9201 944.62549 -109.38745
-171.86523 944.62549 -109.38745
-168.25684 933.56604 -86.922852
-163.15823 933.56604 -86.922852
-158.05951 933.56604 -86.922852
-152.9608 933.56604 -86.922852
-147.86209 933.56604 -86.922852
-142.76338 933.56604 -86.922852
-137.66476 933.56604 -86.922852
-132.56606 933.56604 -86.922852
-127.46734 933.56604 -86.922852
-122.36862 933.56604 -86.922852
-128.15811 814.12402 155.69434
-122.58611 814.12402 155.69434
-117.01398 814.12402 155.69434
-111.44187 814.12402 155.69434
-105.86976 814.12402 155.69434
-99.382401 826.953 129.6355
-93.861237 826.953 129.6355
-88.339973 826.953 129.6355
-82.056 839.78198 103.57642
-76.585587 839.78198 103.57642
-71.115158 839.78198 103.57642
-65.644844 839.78198 103.57642
-60.174423 839.78198 103.57642
-54.704002 839.78198 103.57642
-49.233582 839.78198 103.57642
-43.370415 852.16858 78.416504
-37.949188 852.16858 78.416504
-32.527863 852.16858 78.416504
-27.106535 852.16858 78.416504
-21.881578 839.78198 103.57642
-16.41116 839.78198 103.57642
-10.940842 839.78198 103.57642
-5.4704208 839.78198 103.57642
0 839.78198 103.57642
5.4212241 852.16858 78.416504
10.842655 852.16858 78.416504
16.26388 852.16858 78.416504
21.68531 852.16858 78.416504
27.106535 852.16858 78.416504
32.52776 852.16858 78.416504
37.949188 852.16858 78.416504
43.763157 839.78198 103.57642
49.233688 839.78198 103.57642
54.704002 839.78198 103.57642
60.174316 839.78198 103.57642
65.644844 839.78198 103.57642
71.115158 839.78198 103.57642
76.585686 839.78198 103.57642
82.056 839.78198 103.57642
87.526314 839.78198 103.57642
93.861237 826.953 129.6355
99.382401 826.953 129.6355
104.90378 826.953 129.6355
110.42493 826.953 129.6355
115.9461 826.953 129.6355
121.46747 826.953 129.6355
126.98864 826.953 129.6355
132.51001 826.953 129.6355
138.03117 826.953 129.6355
-193.75031 928.87256 -88.915039
-188.6517 928.87256 -88.915039
-183.55298 928.87256 -88.915039
-178.45427 928.87256 -88.915039
-173.35556 928.87256 -88.915039
-168.25684 928.87256 -88.915039
-163.15823 928.87256 -88.915039
-158.05951 928.87256 -88.915039
-152.9608 928.87256 -88.915039
-147.86209 928.87256 -88.915039
-142.76338 928.87256 -88.915039
-137.66476 928.87256 -88.915039
-132.56606 928.87256 -88.915039
-127.46734 928.87256 -88.915039
-136.25502 782.35535 207.39087
-129.3679 795.67505 180.4541
-123.7433 795.67505 180.4541
-117.01398 808.99487 153.51709
-111.44187 808.99487 153.51709
-105.86976 808.99487 153.51709
-99.382401 821.87061 127.47827
-93.861237 821.87061 127.47827
-88.339973 821.87061 127.47827
-82.056 834.74634 101.43896
-76.585587 834.74634 101.43896
-71.115158 834.74634 101.43896
-65.644844 834.74634 101.43896
-60.174423 834.74634 101.43896
-54.704002 834.74634 101.43896
-49.233582 834.74634 101.43896
-43.370415 847.1781 76.298096
-37.949188 847.1781 76.298096
-32.527863 847.1781 76.298096
-27.106535 847.1781 76.298096
-21.881578 834.74634 101.43896
-16.41116 834.74634 101.43896
-10.940842 834.74634 101.43896
-5.4704208 834.74634 101.43896
0 834.74634 101.43896
5.4212241 847.1781 76.298096
10.842655 847.1781 76.298096
16.26388 847.1781 76.298096
21.68531 847.1781 76.298096
27.106535 847.1781 76.298096
32.822319 834.74634 101.43896
38.292843 834.74634 101.43896
43.763157 834.74634 101.43896
49.233688 834.74634 101.43896
54.704002 834.74634 101.43896
60.174316 834.74634 101.43896
65.644844 834.74634 101.43896
71.115158 834.74634 101.43896
76.585686 834.74634 101.43896
82.056 834.74634 101.43896
87.526314 834.74634 101.43896
93.861237 821.87061 127.47827
99.382401 821.87061 127.47827
104.90378 821.87061 127.47827
110.42493 821.87061 127.47827
115.9461 821.87061 127.47827
121.46747 821.87061 127.47827
126.98864 821.87061 127.47827
132.51001 821.87061 127.47827
139.30234 808.99487 153.51709
144.87434 808.99487 153.51709
-198.84903 924.17932 -90.907227
-193.75031 924.17932 -90.907227
-188.6517 924.17932 -90.907227
-183.55298 924.17932 -90.907227
-178.45427 924.17932 -90.907227
-173.35556 924.17932 -90.907227
-168.25684 924.17932 -90.907227
-163.15823 924.17932 -90.907227
-158.05951 924.17932 -90.907227
-152.9608 924.17932 -90.907227
-147.86209 924.17932 -90.907227
-142.76338 924.17932 -90.907227
-137.66476 924.17932 -90.907227
-132.56606 924.17932 -90.907227
-141.93234 777.12939 205.17261
-136.25502 777.12939 205.17261
-129.3679 790.49756 178.25659
-123.7433 790.49756 178.25659
-117.01398 803.86572 151.34009
-111.44187 803.86572 151.34009
-105.86976 803.86572 151.34009
-99.382401 816.78833 125.32104
-93.861237 816.78833 125.32104
-88.339973 816.78833 125.32104
-82.818703 816.78833 125.32104
-76.585587 829.71094 99.301514
-71.115158 829.71094 99.301514
-65.644844 829.71094 99.301514
-60.174423 829.71094 99.301514
-54.704002 829.71094 99.301514
-49.233582 829.71094 99.301514
-43.370415 842.18787 74.179932
-37.949188 842.18787 74.179932
-32.527863 842.18787 74.179932
-27.106535 842.18787 74.179932
-21.881578 829.71094 99.301514
-16.41116 829.71094 99.301514
-10.940842 829.71094 99.301514
-5.4704208 829.71094 99.301514
0 829.71094 99.301514
5.4212241 842.18787 74.179932
10.842655 842.18787 74.179932
16.26388 842.18787 74.179932
21.68531 842.18787 74.179932
27.106535 842.18787 74.179932
32.822319 829.71094 99.301514
38.292843 829.71094 99.301514
43.763157 829.71094 99.301514
49.233688 829.71094 99.301514
54.704002 829.71094 99.301514
60.174316 829.71094 99.301514
65.644844 829.71094 99.301514
71.115158 829.71094 99.301514
76.585686 829.71094 99.301514
82.056 829.71094 99.301514
88.339859 816.78833 125.32104
93.861237 816.78833 125.32104
99.382401 816.78833 125.32104
104.90378 816.78833 125.32104
110.42493 816.78833 125.32104
115.9461 816.78833 125.32104
122.58611 803.86572 151.34009
128.15811 803.86572 151.34009
134.99274 790.49756 178.25659
141.93234 777.12939 205.17261
147.60954 777.12939 205.17261
-198.84903 919.48584 -92.899414
-193.75031 919.48584 -92.899414
-188.6517 919.48584 -92.899414
-183.55298 919.48584 -92.899414
-179.98843 908.3053 -70.486328
-174.8459 908.3053 -70.486328
-169.70334 908.3053 -70.486328
-164.5609 908.3053 -70.486328
-159.41835 908.3053 -70.486328
-152.9608 919.48584 -92.899414
-147.86209 919.48584 -92.899414
-142.76338 919.48584 -92.899414
-137.66476 919.48584 -92.899414
-132.56606 919.48584 -92.899414
-141.93234 771.90344 202.95435
-136.25502 771.90344 202.95435
-130.57771 771.90344 202.95435
-123.7433 785.31995 176.05859
-118.11858 785.31995 176.05859
-112.49387 785.31995 176.05859
-105.86976 798.73657 149.16284
-100.29764 798.73657 149.16284
-94.725632 798.73657 149.16284
-88.339973 811.70593 123.16357
-82.818703 811.70593 123.16357
-77.297432 811.70593 123.16357
-71.776169 811.70593 123.16357
-66.255005 811.70593 123.16357
-60.174423 824.67529 97.164062
-54.704002 824.67529 97.164062
-49.233582 824.67529 97.164062
-43.763157 824.67529 97.164062
-38.292843 824.67529 97.164062
-32.527863 837.19751 72.061523
-27.106535 837.19751 72.061523
-21.881578 824.67529 97.164062
-16.41116 824.67529 97.164062
-10.940842 824.67529 97.164062
-5.4704208 824.67529 97.164062
0 824.67529 97.164062
5.4703169 824.67529 97.164062
10.940842 824.67529 97.164062
16.41116 824.67529 97.164062
21.68531 837.19751 72.061523
27.106535 837.19751 72.061523
32.822319 824.67529 97.164062
38.292843 824.67529 97.164062
43.763157 824.67529 97.164062
49.233688 824.67529 97.164062
54.704002 824.67529 97.164062
60.174316 824.67529 97.164062
65.644844 824.67529 97.164062
71.115158 824.67529 97.164062
76.585686 824.67529 97.164062
82.056 824.67529 97.164062
88.339859 811.70593 123.16357
93.861237 811.70593 123.16357
99.382401 811.70593 123.16357
104.90378 811.70593 123.16357
110.42493 811.70593 123.16357
117.01388 798.73657 149.16284
122.58611 798.73657 149.16284
128.15811 798.73657 149.16284
134.99274 785.31995 176.05859
141.93234 771.90344 202.95435
147.60954 771.90344 202.95435
-203.94774 914.79248 -94.891602
-198.84903 914.79248 -94.891602
-193.75031 914.79248 -94.891602
-188.6517 914.79248 -94.891602
-183.55298 914.79248 -94.891602
-178.45427 914.79248 -94.891602
-173.35556 914.79248 -94.891602
-168.25684 914.79248 -94.891602
-163.15823 914.79248 -94.891602
-159.41835 903.57166 -72.495605
-154.2758 903.57166 -72.495605
-149.13327 903.57166 -72.495605
-143.99071 903.57166 -72.495605
-138.84827 903.57166 -72.495605
-150.43602 738.84985 256.27832
-144.65001 738.84985 256.27832
-136.25502 766.67749 200.73608
-130.57771 766.67749 200.73608
-124.90051 766.67749 200.73608
-118.11858 780.14246 173.86108
-112.49387 780.14246 173.86108
-105.86976 793.60754 146.9856
-100.29764 793.60754 146.9856
-94.725632 793.60754 146.9856
-88.339973 806.62366 121.00635
-82.818703 806.62366 121.00635
-77.297432 806.62366 121.00635
-71.776169 806.62366 121.00635
-66.255005 806.62366 121.00635
-60.174423 819.63989 95.026611
-54.704002 819.63989 95.026611
-49.233582 819.63989 95.026611
-43.763157 819.63989 95.026611
-38.292843 819.63989 95.026611
-32.822422 819.63989 95.026611
-27.352001 819.63989 95.026611
-21.881578 819.63989 95.026611
-16.41116 819.63989 95.026611
-10.940842 819.63989 95.026611
-5.4704208 819.63989 95.026611
0 819.63989 95.026611
5.4703169 819.63989 95.026611
10.940842 819.63989 95.026611
16.41116 819.63989 95.026611
21.881683 819.63989 95.026611
27.352001 819.63989 95.026611
32.822319 819.63989 95.026611
38.292843 819.63989 95.026611
43.763157 819.63989 95.026611
49.233688 819.63989 95.026611
54.704002 819.63989 95.026611
60.733631 806.62366 121.00635
66.255005 806.62366 121.00635
71.776169 806.62366 121.00635
77.297546 806.62366 121.00635
82.818703 806.62366 121.00635
88.339859 806.62366 121.00635
93.861237 806.62366 121.00635
99.382401 806.62366 121.00635
104.90378 806.62366 121.00635
110.42493 806.62366 121.00635
117.01388 793.60754 146.9856
122.58611 793.60754 146.9856
128.15811 793.60754 146.9856
133.73033 793.60754 146.9856
141.93234 766.67749 200.73608
147.60954 766.67749 200.73608
-203.94774 910.09912 -96.884033
-198.84903 910.09912 -96.884033
-193.75031 910.09912 -96.884033
-188.6517 910.09912 -96.884033
-183.55298 910.09912 -96.884033
-178.45427 910.09912 -96.884033
-173.35556 910.09912 -96.884033
-168.25684 910.09912 -96.884033
-163.15823 910.09912 -96.884033
-159.41835 898.83789 -74.504883
-154.2758 898.83789 -74.504883
-149.13327 898.83789 -74.504883
-143.99071 898.83789 -74.504883
-156.22206 733.52368 254.01758
-150.43602 733.52368 254.01758
-144.65001 733.52368 254.01758
-136.25502 761.45142 198.51782
-130.57771 761.45142 198.51782
-124.90051 761.45142 198.51782
-118.11858 774.96484 171.66333
-112.49387 774.96484 171.66333
-106.86916 774.96484 171.66333
-100.29764 788.47827 144.80835
-94.725632 788.47827 144.80835
-89.153519 788.47827 144.80835
-83.581406 788.47827 144.80835
-78.009285 788.47827 144.80835
-72.437172 788.47827 144.80835
-66.255005 801.54126 118.84888
-60.733734 801.54126 118.84888
-54.704002 814.60425 92.88916
-49.233582 814.60425 92.88916
-43.763157 814.60425 92.88916
-38.292843 814.60425 92.88916
-32.822422 814.60425 92.88916
-27.352001 814.60425 92.88916
-21.881578 814.60425 92.88916
-16.41116 814.60425 92.88916
-10.940842 814.60425 92.88916
-5.4704208 814.60425 92.88916
0 814.60425 92.88916
5.4703169 814.60425 92.88916
10.940842 814.60425 92.88916
16.41116 814.60425 92.88916
21.881683 814.60425 92.88916
27.352001 814.60425 92.88916
32.822319 814.60425 92.88916
38.292843 814.60425 92.88916
43.763157 814.60425 92.88916
49.233688 814.60425 92.88916
55.212467 801.54126 118.84888
60.733631 801.54126 118.84888
66.255005 801.54126 118.84888
71.776169 801.54126 118.84888
77.297546 801.54126 118.84888
82.818703 801.54126 118.84888
88.339859 801.54126 118.84888
93.861237 801.54126 118.84888
99.382401 801.54126 118.84888
104.90378 801.54126 118.84888
110.42493 801.54126 118.84888
117.01388 788.47827 144.80835
122.58611 788.47827 144.80835
128.15811 788.47827 144.80835
133.73033 788.47827 144.80835
140.61734 774.96484 171.66333
146.24194 774.96484 171.66333
-210.84361 894.10425 -76.51416
-203.94774 905.40576 -98.876221
-198.84903 905.40576 -98.876221
-195.41597 894.10425 -76.51416
-190.27354 894.10425 -76.51416
-183.55298 905.40576 -98.876221
-178.45427 905.40576 -98.876221
-173.35556 905.40576 -98.876221
-168.25684 905.40576 -98.876221
-164.5609 894.10425 -76.51416
-159.41835 894.10425 -76.51416
-154.2758 894.10425 -76.51416
-149.13327 894.10425 -76.51416
-162.00795 728.19775 251.75684
-154.75452 742.21167 224.02808
-149.02284 742.21167 224.02808
-143.29117 742.21167 224.02808
-136.25502 756.22559 196.29956
-130.57771 756.22559 196.29956
-124.90051 756.22559 196.29956
-118.11858 769.78735 169.46558
-112.49387 769.78735 169.46558
-106.86916 769.78735 169.46558
-101.24444 769.78735 169.46558
-94.725632 783.34924 142.63135
-89.153519 783.34924 142.63135
-83.581406 783.34924 142.63135
-78.009285 783.34924 142.63135
-72.437172 783.34924 142.63135
-66.255005 796.45898 116.69165
-60.733734 796.45898 116.69165
-54.704002 809.56885 90.751709
-49.233582 809.56885 90.751709
-43.763157 809.56885 90.751709
-38.292843 809.56885 90.751709
-32.822422 809.56885 90.751709
-27.352001 809.56885 90.751709
-22.084965 796.45898 116.69165
-16.41116 809.56885 90.751709
-10.940842 809.56885 90.751709
-5.4704208 809.56885 90.751709
0 809.56885 90.751709
5.4703169 809.56885 90.751709
10.940842 809.56885 90.751709
16.41116 809.56885 90.751709
21.881683 809.56885 90.751709
27.352001 809.56885 90.751709
32.822319 809.56885 90.751709
38.292843 809.56885 90.751709
43.763157 809.56885 90.751709
49.233688 809.56885 90.751709
55.212467 796.45898 116.69165
60.733631 796.45898 116.69165
66.255005 796.45898 116.69165
71.776169 796.45898 116.69165
77.297546 796.45898 116.69165
82.818703 796.45898 116.69165
88.339859 796.45898 116.69165
93.861237 796.45898 116.69165
99.382401 796.45898 116.69165
104.90378 796.45898 116.69165
111.44187 783.34924 142.63135
117.01388 783.34924 142.63135
122.58611 783.34924 142.63135
128.15811 783.34924 142.63135
133.73033 783.34924 142.63135
140.61734 769.78735 169.46558
146.24194 769.78735 169.46558
-214.14517 900.7124 -100.86841
-209.04645 900.7124 -100.86841
-203.94774 900.7124 -100.86841
-198.84903 900.7124 -100.86841
-195.41597 889.37048 -78.523682
-190.27354 889.37048 -78.523682
-185.13098 889.37048 -78.523682
-179.98843 889.37048 -78.523682
-173.35556 900.7124 -100.86841
-168.25684 900.7124 -100.86841
-164.5609 889.37048 -78.523682
-159.41835 889.37048 -78.523682
-154.2758 889.37048 -78.523682
-149.13327 889.37048 -78.523682
-162.00795 722.8717 249.49585
-156.22206 722.8717 249.49585
-149.02284 736.93555 221.78857
-143.29117 736.93555 221.78857
-136.25502 750.99951 194.0813
-130.57771 750.99951 194.0813
-124.90051 750.99951 194.0813
-119.22319 750.99951 194.0813
-113.54587 750.99951 194.0813
-106.86916 764.60974 167.26782
-101.24444 764.60974 167.26782
-95.619835 764.60974 167.26782
-89.995117 764.60974 167.26782
-84.370399 764.60974 167.26782
-78.745689 764.60974 167.26782
-73.120972 764.60974 167.26782
-66.865166 778.21997 140.4541
-61.293053 778.21997 140.4541
-55.212467 791.37659 114.53442
-49.233582 804.5332 88.614258
-43.763157 804.5332 88.614258
-38.292843 804.5332 88.614258
-32.822422 804.5332 88.614258
-27.352001 804.5332 88.614258
-22.084965 791.37659 114.53442
-16.41116 804.5332 88.614258
-10.940842 804.5332 88.614258
-5.5212684 791.37659 114.53442
0 804.5332 88.614258
5.4703169 804.5332 88.614258
10.940842 804.5332 88.614258
16.41116 804.5332 88.614258
21.881683 804.5332 88.614258
27.352001 804.5332 88.614258
32.822319 804.5332 88.614258
38.292843 804.5332 88.614258
43.763157 804.5332 88.614258
49.691303 791.37659 114.53442
55.212467 791.37659 114.53442
60.733631 791.37659 114.53442
66.255005 791.37659 114.53442
71.776169 791.37659 114.53442
77.297546 791.37659 114.53442
82.818703 791.37659 114.53442
88.339859 791.37659 114.53442
93.861237 791.37659 114.53442
100.29764 778.21997 140.4541
105.86987 778.21997 140.4541
111.44187 778.21997 140.4541
117.01388 778.21997 140.4541
122.58611 778.21997 140.4541
128.15811 778.21997 140.4541
133.73033 778.21997 140.4541
140.61734 764.60974 167.26782
147.60954 750.99951 194.0813
-219.24377 896.01904 -102.8606
-214.14517 896.01904 -102.8606
-209.04645 896.01904 -102.8606
-203.94774 896.01904 -102.8606
-198.84903 896.01904 -102.8606
-195.41597 884.63684 -80.532959
-190.27354 884.63684 -80.532959
-185.13098 884.63684 -80.532959
-179.98843 884.63684 -80.532959
-173.35556 896.01904 -102.8606
-168.25684 896.01904 -102.8606
-164.5609 884.63684 -80.532959
-159.41835 884.63684 -80.532959
-154.2758 884.63684 -80.532959
-169.47191 702.52112 276.70752
-163.62804 702.52112 276.70752
-156.22206 717.54565 247.23535
-150.43602 717.54565 247.23535
-144.65001 717.54565 247.23535
-137.55949 731.65967 219.54907
-131.82784 731.65967 219.54907
-124.90051 745.77368 191.86304
-119.22319 745.77368 191.86304
-113.54587 745.77368 191.86304
-107.86855 745.77368 191.86304
-101.24444 759.43225 165.07007
-95.619835 759.43225 165.07007
-89.995117 759.43225 165.07007
-84.370399 759.43225 165.07007
-78.745689 759.43225 165.07007
-73.120972 759.43225 165.07007
-66.865166 773.09094 138.27686
-61.293053 773.09094 138.27686
-55.212467 786.29431 112.37695
-49.233582 799.4978 86.476807
-43.763157 799.4978 86.476807
-38.292843 799.4978 86.476807
-32.822422 799.4978 86.476807
-27.352001 799.4978 86.476807
-22.084965 786.29431 112.37695
-16.563698 786.29431 112.37695
-11.042537 786.29431 112.37695
-5.5212684 786.29431 112.37695
0 799.4978 86.476807
5.4703169 799.4978 86.476807
10.940842 799.4978 86.476807
16.41116 799.4978 86.476807
21.881683 799.4978 86.476807
27.352001 799.4978 86.476807
32.822319 799.4978 86.476807
38.648773 786.29431 112.37695
44.16993 786.29431 112.37695
49.691303 786.29431 112.37695
55.212467 786.29431 112.37695
60.733631 786.29431 112.37695
66.255005 786.29431 112.37695
71.776169 786.29431 112.37695
77.297546 786.29431 112.37695
82.818703 786.29431 112.37695
88.339859 786.29431 112.37695
94.725632 773.09094 138.27686
100.29764 773.09094 138.27686
105.86987 773.09094 138.27686
111.44187 773.09094 138.27686
118.11848 759.43225 165.07007
123.7433 759.43225 165.07007
129.3679 759.43225 165.07007
134.99274 759.43225 165.07007
141.93234 745.77368 191.86304
147.60954 745.77368 191.86304
-224.3425 891.32568 -104.85278
-219.24377 891.32568 -104.85278
-214.14517 891.32568 -104.85278
-209.04645 891.32568 -104.85278
-203.94774 891.32568 -104.85278
-198.84903 891.32568 -104.85278
-195.41597 879.90308 -82.542236
-190.27354 879.90308 -82.542236
-185.13098 879.90308 -82.542236
-179.98843 879.90308 -82.542236
-174.8459 879.90308 -82.542236
-169.70334 879.90308 -82.542236
-165.96358 868.48047 -60.231934
-160.77718 868.48047 -60.231934
-175.31581 697.14172 274.42432
-169.47191 697.14172 274.42432
-163.62804 697.14172 274.42432
-156.22206 712.2196 244.97437
-150.43602 712.2196 244.97437
-144.65001 712.2196 244.97437
-137.55949 726.38354 217.30957
-131.82784 726.38354 217.30957
-124.90051 740.54761 189.64453
-119.22319 740.54761 189.64453
-113.54587 740.54761 189.64453
-107.86855 740.54761 189.64453
-102.19124 740.54761 189.64453
-95.619835 754.25464 162.87231
-89.995117 754.25464 162.87231
-84.370399 754.25464 162.87231
-78.745689 754.25464 162.87231
-73.120972 754.25464 162.87231
-66.865166 767.96179 136.09961
-60.733734 781.21191 110.21973
-55.212467 781.21191 110.21973
-49.233582 794.46216 84.339355
-43.763157 794.46216 84.339355
-38.292843 794.46216 84.339355
-32.822422 794.46216 84.339355
-27.352001 794.46216 84.339355
-22.084965 781.21191 110.21973
-16.563698 781.21191 110.21973
-11.042537 781.21191 110.21973
-5.5212684 781.21191 110.21973
0 781.21191 110.21973
5.521163 781.21191 110.21973
10.940842 794.46216 84.339355
16.41116 794.46216 84.339355
21.881683 794.46216 84.339355
27.352001 794.46216 84.339355
32.822319 794.46216 84.339355
38.648773 781.21191 110.21973
44.16993 781.21191 110.21973
49.691303 781.21191 110.21973
55.212467 781.21191 110.21973
60.733631 781.21191 110.21973
66.255005 781.21191 110.21973
71.776169 781.21191 110.21973
77.297546 781.21191 110.21973
82.818703 781.21191 110.21973
88.339859 781.21191 110.21973
93.861237 781.21191 110.21973
100.29764 767.96179 136.09961
105.86987 767.96179 136.09961
111.44187 767.96179 136.09961
118.11848 754.25464 162.87231
123.7433 754.25464 162.87231
128.15811 767.96179 136.09961
133.73033 767.96179 136.09961
141.93234 740.54761 189.64453
-226.27116 875.16943 -84.551758
-219.24377 886.63232 -106.84497
-214.14517 886.63232 -106.84497
-209.04645 886.63232 -106.84497
-205.70108 875.16943 -84.551758
-200.55853 875.16943 -84.551758
-195.41597 875.16943 -84.551758
-190.27354 875.16943 -84.551758
-185.13098 875.16943 -84.551758
-179.98843 875.16943 -84.551758
-176.33623 863.70642 -62.258301
-171.14984 863.70642 -62.258301
-165.96358 863.70642 -62.258301
-160.77718 863.70642 -62.258301
-175.31581 691.76245 272.14087
-169.47191 691.76245 272.14087
-163.62804 691.76245 272.14087
-157.78427 691.76245 272.14087
-151.9404 691.76245 272.14087
-144.65001 706.89368 242.71362
-138.86398 706.89368 242.71362
-131.82784 721.10767 215.07007
-126.09628 721.10767 215.07007
-119.22319 735.32166 187.42627
-113.54587 735.32166 187.42627
-107.86855 735.32166 187.42627
-102.19124 735.32166 187.42627
-95.619835 749.07715 160.67456
-89.995117 749.07715 160.67456
-84.370399 749.07715 160.67456
-78.745689 749.07715 160.67456
-73.120972 749.07715 160.67456
-66.865166 762.83276 133.92261
-60.733734 776.12964 108.0625
-55.212467 776.12964 108.0625
-49.233582 789.42676 82.201904
-43.763157 789.42676 82.201904
-38.292843 789.42676 82.201904
-32.822422 789.42676 82.201904
-27.352001 789.42676 82.201904
-22.084965 776.12964 108.0625
-16.563698 776.12964 108.0625
-11.042537 776.12964 108.0625
-5.5212684 776.12964 108.0625
0 776.12964 108.0625
5.521163 776.12964 108.0625
10.940842 789.42676 82.201904
16.41116 789.42676 82.201904
22.085073 776.12964 108.0625
27.606234 776.12964 108.0625
33.127396 776.12964 108.0625
38.648773 776.12964 108.0625
44.16993 776.12964 108.0625
49.691303 776.12964 108.0625
55.212467 776.12964 108.0625
60.733631 776.12964 108.0625
66.255005 776.12964 108.0625
71.776169 776.12964 108.0625
77.297546 776.12964 108.0625
82.818703 776.12964 108.0625
88.339859 776.12964 108.0625
93.861237 776.12964 108.0625
100.29764 762.83276 133.92261
105.86987 762.83276 133.92261
111.44187 762.83276 133.92261
118.11848 749.07715 160.67456
123.7433 749.07715 160.67456
128.15811 762.83276 133.92261
133.73033 762.83276 133.92261
139.30234 762.83276 133.92261
-232.52357 893.44214 -131.11353
-227.4687 893.44214 -131.11353
-226.27116 870.43555 -86.561035
-221.12862 870.43555 -86.561035
-214.14517 881.93896 -108.83716
-209.04645 881.93896 -108.83716
-205.70108 870.43555 -86.561035
-200.55853 870.43555 -86.561035
-195.41597 870.43555 -86.561035
-190.27354 870.43555 -86.561035
-185.13098 870.43555 -86.561035
-179.98843 870.43555 -86.561035
-174.8459 870.43555 -86.561035
-169.70334 870.43555 -86.561035
-165.96358 858.93225 -64.284912
-160.77718 858.93225 -64.284912
-175.31581 686.38318 269.85742
-169.47191 686.38318 269.85742
-163.62804 686.38318 269.85742
-157.78427 686.38318 269.85742
-151.9404 686.38318 269.85742
-144.65001 701.5675 240.45288
-138.86398 701.5675 240.45288
-133.07796 701.5675 240.45288
-126.09628 715.83154 212.83057
-119.22319 730.0957 185.20801
-113.54587 730.0957 185.20801
-107.86855 730.0957 185.20801
-102.19124 730.0957 185.20801
-95.619835 743.89954 158.47681
-89.995117 743.89954 158.47681
-84.370399 743.89954 158.47681
-78.745689 743.89954 158.47681
-73.120972 743.89954 158.47681
-66.865166 757.70349 131.74536
-61.293053 757.70349 131.74536
-55.212467 771.04724 105.90503
-49.6912 771.04724 105.90503
-43.763157 784.39111 80.064453
-38.292843 784.39111 80.064453
-32.822422 784.39111 80.064453
-27.606234 771.04724 105.90503
-22.084965 771.04724 105.90503
-16.563698 771.04724 105.90503
-11.042537 771.04724 105.90503
-5.5212684 771.04724 105.90503
0 771.04724 105.90503
5.521163 771.04724 105.90503
11.042537 771.04724 105.90503
16.563698 771.04724 105.90503
22.085073 771.04724 105.90503
27.606234 771.04724 105.90503
33.127396 771.04724 105.90503
38.648773 771.04724 105.90503
44.16993 771.04724 105.90503
49.691303 771.04724 105.90503
55.212467 771.04724 105.90503
61.292946 757.70349 131.74536
66.255005 771.04724 105.90503
71.776169 771.04724 105.90503
77.297546 771.04724 105.90503
82.818703 771.04724 105.90503
88.339859 771.04724 105.90503
93.861237 771.04724 105.90503
100.29764 757.70349 131.74536
105.86987 757.70349 131.74536
111.44187 757.70349 131.74536
118.11848 743.89954 158.47681
123.7433 743.89954 158.47681
128.15811 757.70349 131.74536
133.73033 757.70349 131.74536
139.30234 757.70349 131.74536
-232.52357 888.78931 -133.08862
-227.4687 888.78931 -133.08862
-226.27116 865.7019 -88.570312
-221.12862 865.7019 -88.570312
-214.14517 877.24561 -110.82935
-209.04645 877.24561 -110.82935
-203.94774 877.24561 -110.82935
-198.84903 877.24561 -110.82935
-195.41597 865.7019 -88.570312
-190.27354 865.7019 -88.570312
-185.13098 865.7019 -88.570312
-179.98843 865.7019 -88.570312
-174.8459 865.7019 -88.570312
-169.70334 865.7019 -88.570312
-165.96358 854.15833 -66.311279
-160.77718 854.15833 -66.311279
-175.31581 681.00391 267.57422
-169.47191 681.00391 267.57422
-163.62804 681.00391 267.57422
-157.78427 681.00391 267.57422
-151.9404 681.00391 267.57422
-146.09651 681.00391 267.57422
-138.86398 696.24158 238.19214
-133.07796 696.24158 238.19214
-127.29205 696.24158 238.19214
-120.36461 710.55566 210.59106
-114.63293 710.55566 210.59106
-108.90127 710.55566 210.59106
-102.19124 724.86975 182.98975
-96.514038 724.86975 182.98975
-90.836716 724.86975 182.98975
-84.370399 738.72205 156.27905
-78.745689 738.72205 156.27905
-73.120972 738.72205 156.27905
-66.865166 752.57446 129.56812
-61.293053 752.57446 129.56812
-55.212467 765.96497 103.7478
-49.6912 765.96497 103.7478
-44.16993 765.96497 103.7478
-38.648773 765.96497 103.7478
-33.127502 765.96497 103.7478
-27.606234 765.96497 103.7478
-22.084965 765.96497 103.7478
-16.563698 765.96497 103.7478
-11.042537 765.96497 103.7478
-5.5212684 765.96497 103.7478
0 765.96497 103.7478
5.521163 765.96497 103.7478
11.042537 765.96497 103.7478
16.563698 765.96497 103.7478
22.085073 765.96497 103.7478
27.606234 765.96497 103.7478
33.127396 765.96497 103.7478
38.648773 765.96497 103.7478
44.16993 765.96497 103.7478
49.691303 765.96497 103.7478
55.720936 752.57446 129.56812
61.292946 752.57446 129.56812
66.865166 752.57446 129.56812
71.776169 765.96497 103.7478
77.297546 765.96497 103.7478
82.818703 765.96497 103.7478
88.339859 765.96497 103.7478
93.861237 765.96497 103.7478
100.29764 752.57446 129.56812
105.86987 752.57446 129.56812
112.49387 738.72205 156.27905
118.11848 738.72205 156.27905
123.7433 738.72205 156.27905
128.15811 752.57446 129.56812
133.73033 752.57446 129.56812
-241.69881 860.96814 -90.57959
-236.55624 860.96814 -90.57959
-231.41371 860.96814 -90.57959
-226.27116 860.96814 -90.57959
-219.24377 872.55212 -112.82178
-214.14517 872.55212 -112.82178
-209.04645 872.55212 -112.82178
-203.94774 872.55212 -112.82178
-198.84903 872.55212 -112.82178
-195.41597 860.96814 -90.57959
-190.27354 860.96814 -90.57959
-185.13098 860.96814 -90.57959
-179.98843 860.96814 -90.57959
-176.33623 849.38416 -68.337646
-171.14984 849.38416 -68.337646
-165.96358 849.38416 -68.337646
-160.77718 849.38416 -68.337646
-175.31581 675.62451 265.29077
-169.47191 675.62451 265.29077
-163.62804 675.62451 265.29077
-157.78427 675.62451 265.29077
-151.9404 675.62451 265.29077
-146.09651 675.62451 265.29077
-140.25262 675.62451 265.29077
-133.07796 690.91541 235.9314
-127.29205 690.91541 235.9314
-121.50603 690.91541 235.9314
-114.63293 705.27954 208.35132
-108.90127 705.27954 208.35132
-102.19124 719.64368 180.77148
-96.514038 719.64368 180.77148
-90.836716 719.64368 180.77148
-84.370399 733.54443 154.0813
-78.745689 733.54443 154.0813
-72.437172 747.44519 127.39087
-66.865166 747.44519 127.39087
-61.293053 747.44519 127.39087
-55.212467 760.88257 101.59033
-49.6912 760.88257 101.59033
-44.16993 760.88257 101.59033
-38.648773 760.88257 101.59033
-33.127502 760.88257 101.59033
-27.606234 760.88257 101.59033
-22.084965 760.88257 101.59033
-16.563698 760.88257 101.59033
-11.042537 760.88257 101.59033
-5.5212684 760.88257 101.59033
0 760.88257 101.59033
5.521163 760.88257 101.59033
11.042537 760.88257 101.59033
16.563698 760.88257 101.59033
22.085073 760.88257 101.59033
27.606234 760.88257 101.59033
33.127396 760.88257 101.59033
38.648773 760.88257 101.59033
44.16993 760.88257 101.59033
50.148926 747.44519 127.39087
55.720936 747.44519 127.39087
61.292946 747.44519 127.39087
66.865166 747.44519 127.39087
71.776169 760.88257 101.59033
77.297546 760.88257 101.59033
82.818703 760.88257 101.59033
88.339859 760.88257 101.59033
93.861237 760.88257 101.59033
99.382401 760.88257 101.59033
105.86987 747.44519 127.39087
112.49387 733.54443 154.0813
118.11848 733.54443 154.0813
123.7433 733.54443 154.0813
129.3679 733.54443 154.0813
134.99274 733.54443 154.0813
-246.84125 856.23438 -92.589111
-241.69881 856.23438 -92.589111
-236.55624 856.23438 -92.589111
-231.41371 856.23438 -92.589111
-226.27116 856.23438 -92.589111
-219.24377 867.85876 -114.81396
-214.14517 867.85876 -114.81396
-209.04645 867.85876 -114.81396
-203.94774 867.85876 -114.81396
-198.84903 867.85876 -114.81396
-195.41597 856.23438 -92.589111
-190.27354 856.23438 -92.589111
-185.13098 856.23438 -92.589111
-179.98843 856.23438 -92.589111
-176.33623 844.60999 -70.364258
-171.14984 844.60999 -70.364258
-167.42235 832.52075 -47.250488
-162.19038 832.52075 -47.250488
-175.31581 670.24512 263.00732
-169.47191 670.24512 263.00732
-163.62804 670.24512 263.00732
-157.78427 670.24512 263.00732
-151.9404 670.24512 263.00732
-146.09651 670.24512 263.00732
-140.25262 670.24512 263.00732
-134.40874 670.24512 263.00732
-127.29205 685.58936 233.67065
-121.50603 685.58936 233.67065
-115.72 685.58936 233.67065
-108.90127 700.00342 206.11182
-102.19124 714.41772 178.55322
-96.514038 714.41772 178.55322
-90.836716 714.41772 178.55322
-84.370399 728.36682 151.88354
-78.745689 728.36682 151.88354
-72.437172 742.31604 125.21362
-66.865166 742.31604 125.21362
-61.293053 742.31604 125.21362
-55.212467 755.80017 99.433105
-49.6912 755.80017 99.433105
-44.16993 755.80017 99.433105
-38.648773 755.80017 99.433105
-33.127502 755.80017 99.433105
-27.606234 755.80017 99.433105
-22.084965 755.80017 99.433105
-16.563698 755.80017 99.433105
-11.042537 755.80017 99.433105
-5.5212684 755.80017 99.433105
0 755.80017 99.433105
5.521163 755.80017 99.433105
11.042537 755.80017 99.433105
16.563698 755.80017 99.433105
22.085073 755.80017 99.433105
27.606234 755.80017 99.433105
33.127396 755.80017 99.433105
38.648773 755.80017 99.433105
44.576702 742.31604 125.21362
50.148926 742.31604 125.21362
55.720936 742.31604 125.21362
61.292946 742.31604 125.21362
66.865166 742.31604 125.21362
71.776169 755.80017 99.433105
77.297546 755.80017 99.433105
82.818703 755.80017 99.433105
88.339859 755.80017 99.433105
93.861237 755.80017 99.433105
99.382401 755.80017 99.433105
105.86987 742.31604 125.21362
112.49387 728.36682 151.88354
118.11848 728.36682 151.88354
123.7433 728.36682 151.88354
129.3679 728.36682 151.88354
134.99274 728.36682 151.88354
-246.84125 851.50073 -94.598389
-241.69881 851.50073 -94.598389
-236.55624 851.50073 -94.598389
-231.41371 851.50073 -94.598389
-226.27116 851.50073 -94.598389
-219.24377 863.16541 -116.80615
-214.14517 863.16541 -116.80615
-209.04645 863.16541 -116.80615
-203.94774 863.16541 -116.80615
-198.84903 863.16541 -116.80615
-195.41597 851.50073 -94.598389
-190.27354 851.50073 -94.598389
-185.13098 851.50073 -94.598389
-181.52261 839.83606 -72.390625
-176.33623 839.83606 -72.390625
-172.65421 827.70483 -49.294678
-167.42235 827.70483 -49.294678
-162.19038 827.70483 -49.294678
-175.31581 664.86597 260.72388
-169.47191 664.86597 260.72388
-163.62804 664.86597 260.72388
-157.78427 664.86597 260.72388
-151.9404 664.86597 260.72388
-146.09651 664.86597 260.72388
-140.25262 664.86597 260.72388
-134.40874 664.86597 260.72388
-128.56497 664.86597 260.72388
-121.50603 680.26331 231.40991
-115.72 680.26331 231.40991
-109.93398 680.26331 231.40991
-103.16959 694.72754 203.87231
-96.514038 709.19177 176.33496
-90.836716 709.19177 176.33496
-84.370399 723.18933 149.68579
-78.745689 723.18933 149.68579
-73.120972 723.18933 149.68579
-67.496368 723.18933 149.68579
-61.293053 737.18689 123.03662
-55.720936 737.18689 123.03662
-49.6912 750.7179 97.275635
-44.16993 750.7179 97.275635
-38.648773 750.7179 97.275635
-33.127502 750.7179 97.275635
-27.606234 750.7179 97.275635
-22.084965 750.7179 97.275635
-16.563698 750.7179 97.275635
-11.042537 750.7179 97.275635
-5.5212684 750.7179 97.275635
0 750.7179 97.275635
5.521163 750.7179 97.275635
11.042537 750.7179 97.275635
16.563698 750.7179 97.275635
22.085073 750.7179 97.275635
27.606234 750.7179 97.275635
33.127396 750.7179 97.275635
38.648773 750.7179 97.275635
44.576702 737.18689 123.03662
50.148926 737.18689 123.03662
55.720936 737.18689 123.03662
60.733631 750.7179 97.275635
66.255005 750.7179 97.275635
72.437172 737.18689 123.03662
77.297546 750.7179 97.275635
82.818703 750.7179 97.275635
88.339859 750.7179 97.275635
93.861237 750.7179 97.275635
99.382401 750.7179 97.275635
105.86987 737.18689 123.03662
112.49387 723.18933 149.68579
118.11848 723.18933 149.68579
123.7433 723.18933 149.68579
129.3679 723.18933 149.68579
134.99274 723.18933 149.68579
-251.9838 846.76697 -96.607666
-246.84125 846.76697 -96.607666
-241.69881 846.76697 -96.607666
-236.55624 846.76697 -96.607666
-231.41371 846.76697 -96.607666
-226.27116 846.76697 -96.607666
-221.12862 846.76697 -96.607666
-214.14517 858.47192 -118.79834
-209.04645 858.47192 -118.79834
-205.70108 846.76697 -96.607666
-200.55853 846.76697 -96.607666
-195.41597 846.76697 -96.607666
-190.27354 846.76697 -96.607666
-185.13098 846.76697 -96.607666
-181.52261 835.06189 -74.417236
-173.35556 858.47192 -118.79834
-168.25684 858.47192 -118.79834
-163.15823 858.47192 -118.79834
-181.1597 659.48657 258.44067
-175.31581 659.48657 258.44067
-169.47191 659.48657 258.44067
-163.62804 659.48657 258.44067
-157.78427 659.48657 258.44067
-151.9404 659.48657 258.44067
-146.09651 659.48657 258.44067
-140.25262 659.48657 258.44067
-134.40874 659.48657 258.44067
-128.56497 659.48657 258.44067
-122.72108 659.48657 258.44067
-115.72 674.93726 229.14893
-109.93398 674.93726 229.14893
-103.16959 689.45142 201.63281
-96.514038 703.9657 174.11646
-90.836716 703.9657 174.11646
-84.370399 718.01172 147.48804
-78.745689 718.01172 147.48804
-73.120972 718.01172 147.48804
-67.496368 718.01172 147.48804
-61.293053 732.05774 120.85938
-55.720936 732.05774 120.85938
-50.148819 732.05774 120.85938
-44.16993 745.6355 95.118408
-38.648773 745.6355 95.118408
-33.127502 745.6355 95.118408
-27.606234 745.6355 95.118408
-22.084965 745.6355 95.118408
-16.563698 745.6355 95.118408
-11.042537 745.6355 95.118408
-5.5212684 745.6355 95.118408
0 745.6355 95.118408
5.521163 745.6355 95.118408
11.042537 745.6355 95.118408
16.563698 745.6355 95.118408
22.085073 745.6355 95.118408
27.606234 745.6355 95.118408
33.127396 745.6355 95.118408
38.648773 745.6355 95.118408
44.576702 732.05774 120.85938
50.148926 732.05774 120.85938
55.212467 745.6355 95.118408
60.733631 745.6355 95.118408
66.255005 745.6355 95.118408
71.776169 745.6355 95.118408
77.297546 745.6355 95.118408
82.818703 745.6355 95.118408
88.339859 745.6355 95.118408
93.861237 745.6355 95.118408
99.382401 745.6355 95.118408
105.86987 732.05774 120.85938
112.49387 718.01172 147.48804
119.22308 703.9657 174.11646
123.7433 718.01172 147.48804
129.3679 718.01172 147.48804
134.99274 718.01172 147.48804
141.93234 703.9657 174.11646
-259.31802 830.28784 -76.443604
-251.9838 842.03333 -98.617188
-246.84125 842.03333 -98.617188
-241.69881 842.03333 -98.617188
-236.55624 842.03333 -98.617188
-231.41371 842.03333 -98.617188
-226.27116 842.03333 -98.617188
-221.12862 842.03333 -98.617188
-214.14517 853.77869 -120.79053
-209.04645 853.77869 -120.79053
-205.70108 842.03333 -98.617188
-200.55853 842.03333 -98.617188
-195.41597 842.03333 -98.617188
-190.27354 842.03333 -98.617188
-186.70898 830.28784 -76.443604
-181.52261 830.28784 -76.443604
-173.35556 853.77869 -120.79053
-168.25684 853.77869 -120.79053
-163.15823 853.77869 -120.79053
-181.1597 654.10742 256.15723
-175.31581 654.10742 256.15723
-169.47191 654.10742 256.15723
-163.62804 654.10742 256.15723
-157.78427 654.10742 256.15723
-151.9404 654.10742 256.15723
-146.09651 654.10742 256.15723
-140.25262 654.10742 256.15723
-134.40874 654.10742 256.15723
-128.56497 654.10742 256.15723
-122.72108 654.10742 256.15723
-115.72 669.61133 226.88818
-109.93398 669.61133 226.88818
-103.16959 684.17554 199.39331
-97.438042 684.17554 199.39331
-90.836716 698.73975 171.89819
-85.159401 698.73975 171.89819
-79.482086 698.73975 171.89819
-73.120972 712.83423 145.29028
-67.496368 712.83423 145.29028
-61.871651 712.83423 145.29028
-55.720936 726.92871 118.68213
-50.148819 726.92871 118.68213
-44.576702 726.92871 118.68213
-39.0047 726.92871 118.68213
-33.432583 726.92871 118.68213
-27.606234 740.55322 92.961182
-22.084965 740.55322 92.961182
-16.563698 740.55322 92.961182
-11.042537 740.55322 92.961182
-5.5212684 740.55322 92.961182
0 740.55322 92.961182
5.521163 740.55322 92.961182
11.042537 740.55322 92.961182
16.563698 740.55322 92.961182
22.085073 740.55322 92.961182
27.606234 740.55322 92.961182
33.127396 740.55322 92.961182
38.648773 740.55322 92.961182
44.576702 726.92871 118.68213
50.148926 726.92871 118.68213
55.212467 740.55322 92.961182
60.733631 740.55322 92.961182
66.865166 726.92871 118.68213
71.776169 740.55322 92.961182
77.297546 740.55322 92.961182
82.818703 740.55322 92.961182
88.339859 740.55322 92.961182
94.725632 726.92871 118.68213
100.29764 726.92871 118.68213
105.86987 726.92871 118.68213
112.49387 712.83423 145.29028
118.11848 712.83423 145.29028
123.7433 712.83423 145.29028
129.3679 712.83423 145.29028
136.25513 698.73975 171.89819
141.93234 698.73975 171.89819
-264.50439 825.51379 -78.470215
-259.31802 825.51379 -78.470215
-251.9838 837.29944 -100.62646
-246.84125 837.29944 -100.62646
-241.69881 837.29944 -100.62646
-238.57259 825.51379 -78.470215
-231.41371 837.29944 -100.62646
-226.27116 837.29944 -100.62646
-221.12862 837.29944 -100.62646
-215.98618 837.29944 -100.62646
-210.84361 837.29944 -100.62646
-205.70108 837.29944 -100.62646
-200.55853 837.29944 -100.62646
-195.41597 837.29944 -100.62646
-191.89537 825.51379 -78.470215
-186.70898 825.51379 -78.470215
-181.52261 825.51379 -78.470215
-173.35556 849.08521 -122.78271
-168.25684 849.08521 -122.78271
-187.00357 648.72803 253.87378
-181.1597 648.72803 253.87378
-175.31581 648.72803 253.87378
-169.47191 648.72803 253.87378
-165.19902 633.64233 282.23364
-157.78427 648.72803 253.87378
-151.9404 648.72803 253.87378
-147.49918 633.64233 282.23364
-140.25262 648.72803 253.87378
-134.40874 648.72803 253.87378
-128.56497 648.72803 253.87378
-122.72108 648.72803 253.87378
-116.8772 648.72803 253.87378
-111.03333 648.72803 253.87378
-104.14796 664.28516 224.62744
-97.438042 678.89941 197.15381
-91.706375 678.89941 197.15381
-85.159401 693.51379 169.67993
-79.482086 693.51379 169.67993
-73.120972 707.65662 143.09253
-67.496368 707.65662 143.09253
-61.871651 707.65662 143.09253
-55.720936 721.79944 116.50488
-50.148819 721.79944 116.50488
-44.576702 721.79944 116.50488
-39.0047 721.79944 116.50488
-33.432583 721.79944 116.50488
-27.606234 735.47083 90.803711
-22.084965 735.47083 90.803711
-16.563698 735.47083 90.803711
-11.042537 735.47083 90.803711
-5.5212684 735.47083 90.803711
0 735.47083 90.803711
5.521163 735.47083 90.803711
11.042537 735.47083 90.803711
16.563698 735.47083 90.803711
22.085073 735.47083 90.803711
27.606234 735.47083 90.803711
33.127396 735.47083 90.803711
38.648773 735.47083 90.803711
44.576702 721.79944 116.50488
50.148926 721.79944 116.50488
55.212467 735.47083 90.803711
60.733631 735.47083 90.803711
66.865166 721.79944 116.50488
72.437172 721.79944 116.50488
78.009399 721.79944 116.50488
83.581406 721.79944 116.50488
89.153404 721.79944 116.50488
94.725632 721.79944 116.50488
100.29764 721.79944 116.50488
105.86987 721.79944 116.50488
112.49387 707.65662 143.09253
118.11848 707.65662 143.09253
123.7433 707.65662 143.09253
130.57771 693.51379 169.67993
136.25513 693.51379 169.67993
141.93234 693.51379 169.67993
147.60954 693.51379 169.67993
-269.69077 820.73975 -80.496582
-264.50439 820.73975 -80.496582
-259.31802 820.73975 -80.496582
-251.9838 832.56592 -102.63574
-246.84125 832.56592 -102.63574
-241.69881 832.56592 -102.63574
-238.57259 820.73975 -80.496582
-231.41371 832.56592 -102.63574
-226.27116 832.56592 -102.63574
-221.12862 832.56592 -102.63574
-215.98618 832.56592 -102.63574
-210.84361 832.56592 -102.63574
-205.70108 832.56592 -102.63574
-200.55853 832.56592 -102.63574
-195.41597 832.56592 -102.63574
-191.89537 820.73975 -80.496582
-186.70898 820.73975 -80.496582
-181.52261 820.73975 -80.496582
-176.33623 820.73975 -80.496582
-192.84734 643.34875 251.59058
-187.00357 643.34875 251.59058
-181.1597 643.34875 251.59058
-175.31581 643.34875 251.59058
-169.47191 643.34875 251.59058
-165.19902 628.21143 279.92847
-159.29916 628.21143 279.92847
-153.39915 628.21143 279.92847
-147.49918 628.21143 279.92847
-140.25262 643.34875 251.59058
-134.40874 643.34875 251.59058
-128.56497 643.34875 251.59058
-122.72108 643.34875 251.59058
-116.8772 643.34875 251.59058
-111.03333 643.34875 251.59058
-105.18944 643.34875 251.59058
-98.362045 658.95923 222.3667
-91.706375 673.62354 194.91431
-85.974701 673.62354 194.91431
-79.482086 688.28784 167.46167
-73.804771 688.28784 167.46167
-67.496368 702.47913 140.89478
-61.871651 702.47913 140.89478
-55.720936 716.67041 114.32788
-50.148819 716.67041 114.32788
-44.576702 716.67041 114.32788
-39.0047 716.67041 114.32788
-33.432583 716.67041 114.32788
-27.860468 716.67041 114.32788
-22.084965 730.38867 88.646484
-16.563698 730.38867 88.646484
-11.042537 730.38867 88.646484
-5.5212684 730.38867 88.646484
0 730.38867 88.646484
5.521163 730.38867 88.646484
11.042537 730.38867 88.646484
16.563698 730.38867 88.646484
22.085073 730.38867 88.646484
27.606234 730.38867 88.646484
33.127396 730.38867 88.646484
39.0047 716.67041 114.32788
44.576702 716.67041 114.32788
50.148926 716.67041 114.32788
55.720936 716.67041 114.32788
61.292946 716.67041 114.32788
66.865166 716.67041 114.32788
72.437172 716.67041 114.32788
78.009399 716.67041 114.32788
84.370399 702.47913 140.89478
89.99501 702.47913 140.89478
95.619835 702.47913 140.89478
102.19124 688.28784 167.46167
107.86867 688.28784 167.46167
112.49387 702.47913 140.89478
118.11848 702.47913 140.89478
124.90051 688.28784 167.46167
130.57771 688.28784 167.46167
136.25513 688.28784 167.46167
141.93234 688.28784 167.46167
-280.06345 815.96558 -82.522949
-274.87704 815.96558 -82.522949
-269.69077 815.96558 -82.522949
-264.50439 815.96558 -82.522949
-259.31802 815.96558 -82.522949
-254.13164 815.96558 -82.522949
-248.94525 815.96558 -82.522949
-243.75897 815.96558 -82.522949
-238.57259 815.96558 -82.522949
-233.38622 815.96558 -82.522949
-228.19983 815.96558 -82.522949
-223.01344 815.96558 -82.522949
-217.82718 815.96558 -82.522949
-212.64078 815.96558 -82.522949
-207.45441 815.96558 -82.522949
-202.26804 815.96558 -82.522949
-197.08165 815.96558 -82.522949
-191.89537 815.96558 -82.522949
-186.70898 815.96558 -82.522949
-181.52261 815.96558 -82.522949
-176.33623 815.96558 -82.522949
-194.69885 622.78052 277.62305
-188.799 622.78052 277.62305
-182.89899 622.78052 277.62305
-176.99901 622.78052 277.62305
-171.09903 622.78052 277.62305
-165.19902 622.78052 277.62305
-159.29916 622.78052 277.62305
-153.39915 622.78052 277.62305
-147.49918 622.78052 277.62305
-140.25262 637.96936 249.30713
-134.40874 637.96936 249.30713
-128.56497 637.96936 249.30713
-122.72108 637.96936 249.30713
-116.8772 637.96936 249.30713
-111.03333 637.96936 249.30713
-105.18944 637.96936 249.30713
-98.362045 653.63306 220.10596
-91.706375 668.34741 192.67456
-85.974701 668.34741 192.67456
-79.482086 683.06177 165.24341
-73.804771 683.06177 165.24341
-68.127563 683.06177 165.24341
-61.871651 697.30151 138.69702
-56.246937 697.30151 138.69702
-50.622219 697.30151 138.69702
-44.576702 711.54126 112.15063
-39.0047 711.54126 112.15063
-33.432583 711.54126 112.15063
-27.860468 711.54126 112.15063
-22.288351 711.54126 112.15063
-16.563698 725.30615 86.489014
-11.042537 725.30615 86.489014
-5.5212684 725.30615 86.489014
0 725.30615 86.489014
5.521163 725.30615 86.489014
11.042537 725.30615 86.489014
16.563698 725.30615 86.489014
22.085073 725.30615 86.489014
27.860468 711.54126 112.15063
33.432476 711.54126 112.15063
39.0047 711.54126 112.15063
44.576702 711.54126 112.15063
50.148926 711.54126 112.15063
55.720936 711.54126 112.15063
61.292946 711.54126 112.15063
66.865166 711.54126 112.15063
72.437172 711.54126 112.15063
78.745796 697.30151 138.69702
84.370399 697.30151 138.69702
89.99501 697.30151 138.69702
96.514038 683.06177 165.24341
102.19124 683.06177 165.24341
107.86867 683.06177 165.24341
113.54587 683.06177 165.24341
119.22308 683.06177 165.24341
124.90051 683.06177 165.24341
130.57771 683.06177 165.24341
136.25513 683.06177 165.24341
141.93234 683.06177 165.24341
-285.24982 811.19165 -84.549561
-280.06345 811.19165 -84.549561
-274.87704 811.19165 -84.549561
-272.06128 798.80872 -61.560547
-264.50439 811.19165 -84.549561
-259.31802 811.19165 -84.549561
-254.13164 811.19165 -84.549561
-248.94525 811.19165 -84.549561
-243.75897 811.19165 -84.549561
-238.57259 811.19165 -84.549561
-233.38622 811.19165 -84.549561
-228.19983 811.19165 -84.549561
-223.01344 811.19165 -84.549561
-217.82718 811.19165 -84.549561
-212.64078 811.19165 -84.549561
-207.45441 811.19165 -84.549561
-202.26804 811.19165 -84.549561
-197.08165 811.19165 -84.549561
-191.89537 811.19165 -84.549561
-186.70898 811.19165 -84.549561
-181.52261 811.19165 -84.549561
-200.59886 617.34961 275.31787
-194.69885 617.34961 275.31787
-188.799 617.34961 275.31787
-182.89899 617.34961 275.31787
-176.99901 617.34961 275.31787
-171.09903 617.34961 275.31787
-165.19902 617.34961 275.31787
