ply
format ascii 1.0
comment PCL generated
element vertex 1579
property float x
property float y
property float z
element camera 0
property float view_px
property float view_py
property float view_pz
property float x_axisx
property float x_axisy
property float x_axisz
property float y_axisx
property float y_axisy
property float y_axisz
property float z_axisx
property float z_axisy
property float z_axisz
property float focal
property float scalex
property float scaley
property float centerx
property float centery
property int viewportx
property int viewporty
property float k1
property float k2
end_header
-106.19936 644.50427 286.84424
-100.29948 644.50427 286.84424
-94.399498 644.50427 286.84424
-88.499504 644.50427 286.84424
-82.59951 644.50427 286.84424
-76.699524 644.50427 286.84424
-70.799652 644.50427 286.84424
-64.899658 644.50427 286.84424
-58.999668 644.50427 286.84424
-53.099682 644.50427 286.84424
-47.199688 644.50427 286.84424
-41.299816 644.50427 286.84424
-35.399826 644.50427 286.84424
-29.499834 644.50427 286.84424
-23.838299 628.58533 317.02368
-17.878695 628.58533 317.02368
-11.799978 644.50427 286.84424
-5.8999891 644.50427 286.84424
0 659.48657 258.44067
5.785912 674.93726 229.14893
11.572044 674.93726 229.14893
17.357956 674.93726 229.14893
23.144089 674.93726 229.14893
28.658234 689.45142 201.63281
34.389793 689.45142 201.63281
40.121571 689.45142 201.63281
45.85313 689.45142 201.63281
51.584908 689.45142 201.63281
57.316467 689.45142 201.63281
63.048027 689.45142 201.63281
68.779808 689.45142 201.63281
74.51136 689.45142 201.63281
80.243141 689.45142 201.63281
85.974701 689.45142 201.63281
91.706261 689.45142 201.63281
98.362045 674.93726 229.14893
104.14796 674.93726 229.14893
111.03343 659.48657 258.44067
116.8772 659.48657 258.44067
122.72098 659.48657 258.44067
128.56497 659.48657 258.44067
134.40874 659.48657 258.44067
141.5993 644.50427 286.84424
147.49918 644.50427 286.84424
153.39905 644.50427 286.84424
-156.49907 607.12585 344.85083
-148.9895 623.09961 314.69507
-143.02991 623.09961 314.69507
-137.0703 623.09961 314.69507
-131.11081 623.09961 314.69507
-123.89933 639.07336 284.53906
-117.99934 639.07336 284.53906
-113.232 623.09961 314.69507
-106.19936 639.07336 284.53906
-100.29948 639.07336 284.53906
-94.399498 639.07336 284.53906
-88.499504 639.07336 284.53906
-82.59951 639.07336 284.53906
-76.699524 639.07336 284.53906
-70.799652 639.07336 284.53906
-64.899658 639.07336 284.53906
-58.999668 639.07336 284.53906
-53.099682 639.07336 284.53906
-47.676598 623.09961 314.69507
-41.717106 623.09961 314.69507
-35.757504 623.09961 314.69507
-29.797901 623.09961 314.69507
-23.838299 623.09961 314.69507
-17.878695 623.09961 314.69507
-11.799978 639.07336 284.53906
-5.8999891 639.07336 284.53906
0 654.10742 256.15723
5.785912 669.61133 226.88818
11.572044 669.61133 226.88818
17.357956 669.61133 226.88818
23.144089 669.61133 226.88818
28.93 669.61133 226.88818
34.389793 684.17554 199.39331
40.121571 684.17554 199.39331
45.85313 684.17554 199.39331
51.584908 684.17554 199.39331
57.316467 684.17554 199.39331
63.048027 684.17554 199.39331
68.779808 684.17554 199.39331
74.51136 684.17554 199.39331
80.243141 684.17554 199.39331
85.974701 684.17554 199.39331
92.57592 669.61133 226.88818
98.362045 669.61133 226.88818
104.14796 669.61133 226.88818
111.03343 654.10742 256.15723
116.8772 654.10742 256.15723
122.72098 654.10742 256.15723
128.56497 654.10742 256.15723
135.69919 639.07336 284.53906
141.5993 639.07336 284.53906
147.49918 639.07336 284.53906
153.39905 639.07336 284.53906
-156.49907 601.58508 342.49902
-150.47984 601.58508 342.49902
-143.02991 617.61377 312.36646
-137.0703 617.61377 312.36646
-131.11081 617.61377 312.36646
-125.15121 617.61377 312.36646
-119.1916 617.61377 312.36646
-113.232 617.61377 312.36646
-106.19936 633.64233 282.23364
-100.29948 633.64233 282.23364
-94.399498 633.64233 282.23364
-88.499504 633.64233 282.23364
-83.434097 617.61377 312.36646
-76.699524 633.64233 282.23364
-70.799652 633.64233 282.23364
-64.899658 633.64233 282.23364
-58.999668 633.64233 282.23364
-53.636196 617.61377 312.36646
-47.676598 617.61377 312.36646
-41.717106 617.61377 312.36646
-35.757504 617.61377 312.36646
-30.095968 601.58508 342.49902
-23.838299 617.61377 312.36646
-17.878695 617.61377 312.36646
-11.799978 633.64233 282.23364
-5.8438826 648.72803 253.87378
0 648.72803 253.87378
5.785912 664.28516 224.62744
11.572044 664.28516 224.62744
17.357956 664.28516 224.62744
23.144089 664.28516 224.62744
28.93 664.28516 224.62744
34.715912 664.28516 224.62744
40.502045 664.28516 224.62744
46.28796 664.28516 224.62744
52.074093 664.28516 224.62744
57.316467 678.89941 197.15381
63.048027 678.89941 197.15381
69.432045 664.28516 224.62744
75.217957 664.28516 224.62744
80.243141 678.89941 197.15381
85.974701 678.89941 197.15381
92.57592 664.28516 224.62744
98.362045 664.28516 224.62744
104.14796 664.28516 224.62744
111.03343 648.72803 253.87378
116.8772 648.72803 253.87378
122.72098 648.72803 253.87378
128.56497 648.72803 253.87378
135.69919 633.64233 282.23364
141.5993 633.64233 282.23364
147.49918 633.64233 282.23364
153.39905 633.64233 282.23364
-158.09459 579.48804 371.14185
-150.47984 596.04443 340.14697
-144.46062 596.04443 340.14697
-137.0703 612.12793 310.03784
-131.11081 612.12793 310.03784
-125.15121 612.12793 310.03784
-119.1916 612.12793 310.03784
-113.232 612.12793 310.03784
-107.27239 612.12793 310.03784
-100.29948 628.21143 279.92847
-94.399498 628.21143 279.92847
-88.499504 628.21143 279.92847
-83.434097 612.12793 310.03784
-76.699524 628.21143 279.92847
-70.799652 628.21143 279.92847
-64.899658 628.21143 279.92847
-58.999668 628.21143 279.92847
-53.636196 612.12793 310.03784
-47.676598 612.12793 310.03784
-41.717106 612.12793 310.03784
-36.115185 596.04443 340.14697
-30.095968 596.04443 340.14697
-24.322218 579.48804 371.14185
-17.878695 612.12793 310.03784
-11.799978 628.21143 279.92847
-5.8438826 643.34875 251.59058
0 643.34875 251.59058
5.785912 658.95923 222.3667
11.572044 658.95923 222.3667
17.357956 658.95923 222.3667
23.144089 658.95923 222.3667
28.93 658.95923 222.3667
34.715912 658.95923 222.3667
40.502045 658.95923 222.3667
46.28796 658.95923 222.3667
52.074093 658.95923 222.3667
57.860001 658.95923 222.3667
63.645912 658.95923 222.3667
69.432045 658.95923 222.3667
75.217957 658.95923 222.3667
81.004089 658.95923 222.3667
87.657906 643.34875 251.59058
93.501671 643.34875 251.59058
99.345665 643.34875 251.59058
105.18944 643.34875 251.59058
111.03343 643.34875 251.59058
116.8772 643.34875 251.59058
123.89921 628.21143 279.92847
129.79932 628.21143 279.92847
135.69919 628.21143 279.92847
141.5993 628.21143 279.92847
147.49918 628.21143 279.92847
153.39905 628.21143 279.92847
-165.83208 557.27783 399.73682
-158.09459 573.89087 368.76587
-150.47984 590.50366 337.79517
-144.46062 590.50366 337.79517
-138.44141 590.50366 337.79517
-131.11081 606.64209 307.70923
-125.15121 606.64209 307.70923
-119.1916 606.64209 307.70923
-113.232 606.64209 307.70923
-107.27239 606.64209 307.70923
-101.31291 606.64209 307.70923
-94.399498 622.78052 277.62305
-88.499504 622.78052 277.62305
-83.434097 606.64209 307.70923
-76.699524 622.78052 277.62305
-70.799652 622.78052 277.62305
-64.899658 622.78052 277.62305
-58.999668 622.78052 277.62305
-53.636196 606.64209 307.70923
-47.676598 606.64209 307.70923
-41.717106 606.64209 307.70923
-35.757504 606.64209 307.70923
-30.095968 590.50366 337.79517
-24.322218 573.89087 368.76587
-17.878695 606.64209 307.70923
-11.799978 622.78052 277.62305
-5.8999891 622.78052 277.62305
0 637.96936 249.30713
5.843771 637.96936 249.30713
11.687765 637.96936 249.30713
17.531536 637.96936 249.30713
23.144089 653.63306 220.10596
28.93 653.63306 220.10596
34.715912 653.63306 220.10596
40.502045 653.63306 220.10596
46.28796 653.63306 220.10596
52.074093 653.63306 220.10596
57.860001 653.63306 220.10596
63.645912 653.63306 220.10596
69.432045 653.63306 220.10596
75.217957 653.63306 220.10596
81.004089 653.63306 220.10596
87.657906 637.96936 249.30713
93.501671 637.96936 249.30713
99.345665 637.96936 249.30713
105.18944 637.96936 249.30713
111.03343 637.96936 249.30713
117.99934 622.78052 277.62305
123.89921 622.78052 277.62305
129.79932 622.78052 277.62305
135.69919 622.78052 277.62305
141.5993 622.78052 277.62305
147.49918 622.78052 277.62305
153.39905 622.78052 277.62305
-165.83208 551.62427 397.33691
-159.69012 551.62427 397.33691
-148.9895 601.15637 305.38062
-143.02991 601.15637 305.38062
-138.44141 584.96313 335.44336
-131.11081 601.15637 305.38062
-125.15121 601.15637 305.38062
-119.1916 601.15637 305.38062
-113.232 601.15637 305.38062
-107.27239 601.15637 305.38062
-101.31291 601.15637 305.38062
-95.35331 601.15637 305.38062
-89.3937 601.15637 305.38062
-83.434097 601.15637 305.38062
-76.699524 617.34961 275.31787
-70.799652 617.34961 275.31787
-65.555405 601.15637 305.38062
-59.595802 601.15637 305.38062
-53.636196 601.15637 305.38062
-47.676598 601.15637 305.38062
-41.717106 601.15637 305.38062
-35.757504 601.15637 305.38062
-30.095968 584.96313 335.44336
-24.322218 568.2937 366.38989
-18.057533 584.96313 335.44336
-11.919207 601.15637 305.38062
-5.8999891 617.34961 275.31787
0 632.59009 247.02368
5.843771 632.59009 247.02368
11.687765 632.59009 247.02368
17.531536 632.59009 247.02368
23.37553 632.59009 247.02368
28.93 648.30713 217.84521
34.715912 648.30713 217.84521
40.502045 648.30713 217.84521
46.28796 648.30713 217.84521
52.074093 648.30713 217.84521
57.860001 648.30713 217.84521
63.645912 648.30713 217.84521
69.432045 648.30713 217.84521
75.217957 648.30713 217.84521
81.004089 648.30713 217.84521
87.657906 632.59009 247.02368
93.501671 632.59009 247.02368
99.345665 632.59009 247.02368
105.18944 632.59009 247.02368
111.03343 632.59009 247.02368
117.99934 617.34961 275.31787
123.89921 617.34961 275.31787
129.79932 617.34961 275.31787
135.69919 617.34961 275.31787
141.5993 617.34961 275.31787
148.9895 601.15637 305.38062
154.94899 601.15637 305.38062
-165.83208 545.97046 394.93701
-159.69012 545.97046 394.93701
-148.9895 595.67041 303.052
-143.02991 595.67041 303.052
-137.0703 595.67041 303.052
-131.11081 595.67041 303.052
-125.15121 595.67041 303.052
-119.1916 595.67041 303.052
-113.232 595.67041 303.052
-107.27239 595.67041 303.052
-101.31291 595.67041 303.052
-95.35331 595.67041 303.052
-89.3937 595.67041 303.052
-83.434097 595.67041 303.052
-77.474495 595.67041 303.052
-71.515007 595.67041 303.052
-65.555405 595.67041 303.052
-59.595802 595.67041 303.052
-54.172718 579.42236 333.09131
-48.153503 579.42236 333.09131
-42.134399 579.42236 333.09131
-36.115185 579.42236 333.09131
-30.402802 562.69641 364.01416
-24.322218 562.69641 364.01416
-18.057533 579.42236 333.09131
-11.919207 595.67041 303.052
-5.8999891 611.91858 273.01245
0 627.21082 244.74023
5.785912 642.98096 215.58447
11.572044 642.98096 215.58447
17.531536 627.21082 244.74023
23.37553 627.21082 244.74023
29.219301 627.21082 244.74023
34.715912 642.98096 215.58447
40.502045 642.98096 215.58447
46.28796 642.98096 215.58447
52.074093 642.98096 215.58447
57.860001 642.98096 215.58447
63.645912 642.98096 215.58447
69.432045 642.98096 215.58447
75.217957 642.98096 215.58447
81.004089 642.98096 215.58447
87.657906 627.21082 244.74023
93.501671 627.21082 244.74023
99.345665 627.21082 244.74023
105.18944 627.21082 244.74023
111.03343 627.21082 244.74023
117.99934 611.91858 273.01245
123.89921 611.91858 273.01245
129.79932 611.91858 273.01245
135.69919 611.91858 273.01245
141.5993 611.91858 273.01245
148.9895 595.67041 303.052
154.94899 595.67041 303.052
-165.83208 540.31689 392.53735
-158.09459 557.09937 361.63818
-148.9895 590.18469 300.72363
-143.02991 590.18469 300.72363
-137.0703 590.18469 300.72363
-131.11081 590.18469 300.72363
-125.15121 590.18469 300.72363
-119.1916 590.18469 300.72363
-113.232 590.18469 300.72363
-107.27239 590.18469 300.72363
-101.31291 590.18469 300.72363
-95.35331 590.18469 300.72363
-89.3937 590.18469 300.72363
-83.434097 590.18469 300.72363
-78.249474 573.88171 330.7395
-72.23037 573.88171 330.7395
-66.211151 573.88171 330.7395
-60.191936 573.88171 330.7395
-54.172718 573.88171 330.7395
-48.153503 573.88171 330.7395
-42.134399 573.88171 330.7395
-36.115185 573.88171 330.7395
-30.402802 557.09937 361.63818
-24.322218 557.09937 361.63818
-18.241634 557.09937 361.63818
-12.2839 540.31689 392.53735
-5.8999891 606.48779 270.70728
0 621.83154 242.45703
5.785912 637.65503 213.32373
11.572044 637.65503 213.32373
17.531536 621.83154 242.45703
23.37553 621.83154 242.45703
29.219301 621.83154 242.45703
34.715912 637.65503 213.32373
40.502045 637.65503 213.32373
46.28796 637.65503 213.32373
52.59483 621.83154 242.45703
58.438602 621.83154 242.45703
64.282372 621.83154 242.45703
70.126366 621.83154 242.45703
75.217957 637.65503 213.32373
81.004089 637.65503 213.32373
87.657906 621.83154 242.45703
93.501671 621.83154 242.45703
99.345665 621.83154 242.45703
105.18944 621.83154 242.45703
111.03343 621.83154 242.45703
117.99934 606.48779 270.70728
123.89921 606.48779 270.70728
129.79932 606.48779 270.70728
135.69919 606.48779 270.70728
141.5993 606.48779 270.70728
148.9895 590.18469 300.72363
154.94899 590.18469 300.72363
160.90871 590.18469 300.72363
-164.17517 551.50208 359.26245
-158.09459 551.50208 359.26245
-148.9895 584.69885 298.39502
-143.02991 584.69885 298.39502
-137.0703 584.69885 298.39502
-131.11081 584.69885 298.39502
-125.15121 584.69885 298.39502
-119.1916 584.69885 298.39502
-113.232 584.69885 298.39502
-107.27239 584.69885 298.39502
-101.31291 584.69885 298.39502
-95.35331 584.69885 298.39502
-89.3937 584.69885 298.39502
-83.434097 584.69885 298.39502
-78.249474 568.34094 328.3877
-72.23037 568.34094 328.3877
-66.211151 568.34094 328.3877
-60.191936 568.34094 328.3877
-54.172718 568.34094 328.3877
-48.153503 568.34094 328.3877
-42.563965 551.50208 359.26245
-36.483383 551.50208 359.26245
-30.402802 551.50208 359.26245
-24.567682 534.66321 390.13745
-18.425734 534.66321 390.13745
-12.2839 534.66321 390.13745
-5.8999891 601.05664 268.40186
0 632.32898 211.06299
5.785912 632.32898 211.06299
11.687765 616.45215 240.17358
17.531536 616.45215 240.17358
23.37553 616.45215 240.17358
29.219301 616.45215 240.17358
35.063072 616.45215 240.17358
40.502045 632.32898 211.06299
46.28796 632.32898 211.06299
52.59483 616.45215 240.17358
58.438602 616.45215 240.17358
64.282372 616.45215 240.17358
70.126366 616.45215 240.17358
75.970139 616.45215 240.17358
81.814133 616.45215 240.17358
87.657906 616.45215 240.17358
93.501671 616.45215 240.17358
99.345665 616.45215 240.17358
105.18944 616.45215 240.17358
111.03343 616.45215 240.17358
117.99934 601.05664 268.40186
123.89921 601.05664 268.40186
129.79932 601.05664 268.40186
135.69919 601.05664 268.40186
141.5993 601.05664 268.40186
148.9895 584.69885 298.39502
154.94899 584.69885 298.39502
160.90871 584.69885 298.39502
166.86819 584.69885 298.39502
-162.51826 562.80029 326.03564
-156.49907 562.80029 326.03564
-148.9895 579.21313 296.06641
-143.02991 579.21313 296.06641
-137.0703 579.21313 296.06641
-131.11081 579.21313 296.06641
-125.15121 579.21313 296.06641
-119.1916 579.21313 296.06641
-113.232 579.21313 296.06641
-107.27239 579.21313 296.06641
-101.31291 579.21313 296.06641
-95.35331 579.21313 296.06641
-89.3937 579.21313 296.06641
-83.434097 579.21313 296.06641
-78.249474 562.80029 326.03564
-72.23037 562.80029 326.03564
-66.211151 562.80029 326.03564
-60.191936 562.80029 326.03564
-54.172718 562.80029 326.03564
-48.644436 545.90503 356.88647
-42.563965 545.90503 356.88647
-36.483383 545.90503 356.88647
-30.402802 545.90503 356.88647
-24.567682 529.00964 387.73755
-18.425734 529.00964 387.73755
-12.2839 529.00964 387.73755
-5.9596033 579.21313 296.06641
0 627.00305 208.80225
5.785912 627.00305 208.80225
11.687765 611.073 237.89014
17.531536 611.073 237.89014
23.37553 611.073 237.89014
29.219301 611.073 237.89014
35.063072 611.073 237.89014
40.907066 611.073 237.89014
46.750835 611.073 237.89014
52.59483 611.073 237.89014
58.438602 611.073 237.89014
64.282372 611.073 237.89014
70.126366 611.073 237.89014
75.970139 611.073 237.89014
81.814133 611.073 237.89014
87.657906 611.073 237.89014
94.399376 595.62585 266.09668
99.345665 611.073 237.89014
105.18944 611.073 237.89014
111.03343 611.073 237.89014
117.99934 595.62585 266.09668
123.89921 595.62585 266.09668
129.79932 595.62585 266.09668
135.69919 595.62585 266.09668
141.5993 595.62585 266.09668
148.9895 579.21313 296.06641
154.94899 579.21313 296.06641
160.90871 579.21313 296.06641
-162.51826 557.25952 323.68384
-156.49907 557.25952 323.68384
-148.9895 573.72717 293.73779
-143.02991 573.72717 293.73779
-137.0703 573.72717 293.73779
-132.4223 557.25952 323.68384
-126.40308 557.25952 323.68384
-120.38387 557.25952 323.68384
-113.232 573.72717 293.73779
-107.27239 573.72717 293.73779
-101.31291 573.72717 293.73779
-96.307121 557.25952 323.68384
-90.287903 557.25952 323.68384
-84.268684 557.25952 323.68384
-78.249474 557.25952 323.68384
-72.23037 557.25952 323.68384
-66.211151 557.25952 323.68384
-60.805603 540.30774 354.51074
-54.725021 540.30774 354.51074
-48.644436 540.30774 354.51074
-42.563965 540.30774 354.51074
-36.483383 540.30774 354.51074
-30.402802 540.30774 354.51074
-24.567682 523.35583 385.33765
-18.615093 505.91943 417.04541
-12.2839 523.35583 385.33765
-6.0192165 557.25952 323.68384
0 573.72717 293.73779
5.9594893 573.72717 293.73779
11.919207 573.72717 293.73779
17.531536 605.6936 235.60669
23.37553 605.6936 235.60669
29.219301 605.6936 235.60669
35.063072 605.6936 235.60669
40.907066 605.6936 235.60669
46.750835 605.6936 235.60669
52.59483 605.6936 235.60669
58.438602 605.6936 235.60669
64.282372 605.6936 235.60669
70.126366 605.6936 235.60669
75.970139 605.6936 235.60669
81.814133 605.6936 235.60669
87.657906 605.6936 235.60669
94.399376 590.19482 263.79126
100.29948 590.19482 263.79126
106.19936 590.19482 263.79126
112.09946 590.19482 263.79126
117.99934 590.19482 263.79126
123.89921 590.19482 263.79126
129.79932 590.19482 263.79126
135.69919 590.19482 263.79126
141.5993 590.19482 263.79126
148.9895 573.72717 293.73779
154.94899 573.72717 293.73779
160.90871 573.72717 293.73779
166.86819 573.72717 293.73779
-162.51826 551.71899 321.33203
-156.49907 551.71899 321.33203
-150.47984 551.71899 321.33203
-144.46062 551.71899 321.33203
-138.44141 551.71899 321.33203
-132.4223 551.71899 321.33203
-126.40308 551.71899 321.33203
-120.38387 551.71899 321.33203
-114.36465 551.71899 321.33203
-107.27239 568.24146 291.40918
-101.31291 568.24146 291.40918
-96.307121 551.71899 321.33203
-90.287903 551.71899 321.33203
-84.268684 551.71899 321.33203
-78.249474 551.71899 321.33203
-72.23037 551.71899 321.33203
-66.211151 551.71899 321.33203
-60.805603 534.71057 352.13477
-54.725021 534.71057 352.13477
-48.644436 534.71057 352.13477
-42.993538 517.70227 382.93799
-36.483383 534.71057 352.13477
-30.402802 534.71057 352.13477
-24.820164 500.20776 414.62109
-18.615093 500.20776 414.62109
-12.2839 517.70227 382.93799
-6.0192165 551.71899 321.33203
0 551.71899 321.33203
5.9594893 568.24146 291.40918
11.919207 568.24146 291.40918
17.699856 584.76392 261.48608
23.599957 584.76392 261.48608
29.499834 584.76392 261.48608
35.063072 600.31445 233.32349
40.907066 600.31445 233.32349
46.750835 600.31445 233.32349
52.59483 600.31445 233.32349
58.438602 600.31445 233.32349
64.282372 600.31445 233.32349
70.126366 600.31445 233.32349
75.970139 600.31445 233.32349
81.814133 600.31445 233.32349
87.657906 600.31445 233.32349
94.399376 584.76392 261.48608
100.29948 584.76392 261.48608
106.19936 584.76392 261.48608
112.09946 584.76392 261.48608
117.99934 584.76392 261.48608
123.89921 584.76392 261.48608
129.79932 584.76392 261.48608
135.69919 584.76392 261.48608
141.5993 584.76392 261.48608
148.9895 568.24146 291.40918
154.94899 568.24146 291.40918
160.90871 568.24146 291.40918
166.86819 568.24146 291.40918
-170.25565 529.1134 349.75903
-164.17517 529.1134 349.75903
-158.09459 529.1134 349.75903
-150.47984 546.17822 318.97998
-144.46062 546.17822 318.97998
-138.44141 546.17822 318.97998
-132.4223 546.17822 318.97998
-126.40308 546.17822 318.97998
-121.61121 529.1134 349.75903
-115.53062 529.1134 349.75903
-108.34544 546.17822 318.97998
-102.32633 546.17822 318.97998
-96.307121 546.17822 318.97998
-90.287903 546.17822 318.97998
-84.268684 546.17822 318.97998
-78.249474 546.17822 318.97998
-72.23037 546.17822 318.97998
-66.886185 529.1134 349.75903
-60.805603 529.1134 349.75903
-54.725021 529.1134 349.75903
-48.644436 529.1134 349.75903
-42.993538 512.04858 380.53809
-36.483383 529.1134 349.75903
-30.402802 529.1134 349.75903
-24.567682 512.04858 380.53809
-18.425734 512.04858 380.53809
-12.161167 529.1134 349.75903
-6.0192165 546.17822 318.97998
0 562.75562 289.08057
5.9594893 562.75562 289.08057
11.919207 562.75562 289.08057
17.699856 579.33301 259.18066
23.599957 579.33301 259.18066
29.499834 579.33301 259.18066
35.063072 594.93506 231.04004
40.907066 594.93506 231.04004
46.750835 594.93506 231.04004
52.59483 594.93506 231.04004
58.438602 594.93506 231.04004
64.282372 594.93506 231.04004
70.126366 594.93506 231.04004
75.970139 594.93506 231.04004
81.814133 594.93506 231.04004
88.499504 579.33301 259.18066
94.399376 579.33301 259.18066
100.29948 579.33301 259.18066
106.19936 579.33301 259.18066
112.09946 579.33301 259.18066
117.99934 579.33301 259.18066
123.89921 579.33301 259.18066
129.79932 579.33301 259.18066
137.0703 562.75562 289.08057
143.03001 562.75562 289.08057
148.9895 562.75562 289.08057
154.94899 562.75562 289.08057
160.90871 562.75562 289.08057
-170.25565 523.51611 347.38306
-164.17517 523.51611 347.38306
-158.09459 523.51611 347.38306
-152.01401 523.51611 347.38306
-145.93341 523.51611 347.38306
-138.44141 540.63745 316.62817
-132.4223 540.63745 316.62817
-126.40308 540.63745 316.62817
-121.61121 523.51611 347.38306
-114.36465 540.63745 316.62817
-108.34544 540.63745 316.62817
-102.32633 540.63745 316.62817
-96.307121 540.63745 316.62817
-91.208405 523.51611 347.38306
-84.268684 540.63745 316.62817
-78.249474 540.63745 316.62817
-72.23037 540.63745 316.62817
-66.886185 523.51611 347.38306
-60.805603 523.51611 347.38306
-54.725021 523.51611 347.38306
-48.644436 523.51611 347.38306
-42.993538 506.39478 378.13818
-36.851585 506.39478 378.13818
-30.709635 506.39478 378.13818
-24.567682 506.39478 378.13818
-18.425734 506.39478 378.13818
-12.161167 523.51611 347.38306
-6.0192165 540.63745 316.62817
0 557.26965 286.75195
5.9594893 557.26965 286.75195
11.919207 557.26965 286.75195
17.699856 573.90186 256.87549
23.599957 573.90186 256.87549
29.499834 573.90186 256.87549
35.063072 589.55566 228.75659
40.907066 589.55566 228.75659
46.750835 589.55566 228.75659
52.59483 589.55566 228.75659
58.438602 589.55566 228.75659
64.899544 573.90186 256.87549
70.799652 573.90186 256.87549
76.699524 573.90186 256.87549
82.599632 573.90186 256.87549
88.499504 573.90186 256.87549
94.399376 573.90186 256.87549
100.29948 573.90186 256.87549
106.19936 573.90186 256.87549
112.09946 573.90186 256.87549
117.99934 573.90186 256.87549
123.89921 573.90186 256.87549
129.79932 573.90186 256.87549
135.69919 573.90186 256.87549
143.03001 557.26965 286.75195
148.9895 557.26965 286.75195
154.94899 557.26965 286.75195
160.90871 557.26965 286.75195
-176.33621 517.91895 345.00732
-170.25565 517.91895 345.00732
-164.17517 517.91895 345.00732
-158.09459 517.91895 345.00732
-152.01401 517.91895 345.00732
-145.93341 517.91895 345.00732
-139.85284 517.91895 345.00732
-133.77237 517.91895 345.00732
-127.69179 517.91895 345.00732
-121.61121 517.91895 345.00732
-114.36465 535.0968 314.27637
-108.34544 535.0968 314.27637
-102.32633 535.0968 314.27637
-96.307121 535.0968 314.27637
-91.208405 517.91895 345.00732
-85.127823 517.91895 345.00732
-78.249474 535.0968 314.27637
-72.23037 535.0968 314.27637
-66.886185 517.91895 345.00732
-60.805603 517.91895 345.00732
-54.725021 517.91895 345.00732
-49.135365 500.74121 375.73828
-42.993538 500.74121 375.73828
-36.851585 500.74121 375.73828
-30.709635 500.74121 375.73828
-24.567682 500.74121 375.73828
-18.425734 500.74121 375.73828
-12.2839 500.74121 375.73828
-6.1419501 500.74121 375.73828
0 551.78394 284.42334
5.9594893 551.78394 284.42334
11.919207 551.78394 284.42334
17.699856 568.47107 254.57007
23.599957 568.47107 254.57007
29.499834 568.47107 254.57007
35.063072 584.17639 226.47339
40.907066 584.17639 226.47339
46.750835 584.17639 226.47339
52.59483 584.17639 226.47339
58.999668 568.47107 254.57007
64.899544 568.47107 254.57007
70.799652 568.47107 254.57007
76.699524 568.47107 254.57007
82.599632 568.47107 254.57007
88.499504 568.47107 254.57007
94.399376 568.47107 254.57007
100.29948 568.47107 254.57007
106.19936 568.47107 254.57007
112.09946 568.47107 254.57007
117.99934 568.47107 254.57007
123.89921 568.47107 254.57007
129.79932 568.47107 254.57007
135.69919 568.47107 254.57007
143.03001 551.78394 284.42334
148.9895 551.78394 284.42334
154.94899 551.78394 284.42334
160.90871 551.78394 284.42334
-176.33621 512.32178 342.63135
-170.25565 512.32178 342.63135
-164.17517 512.32178 342.63135
-158.09459 512.32178 342.63135
-152.01401 512.32178 342.63135
-145.93341 512.32178 342.63135
-139.85284 512.32178 342.63135
-133.77237 512.32178 342.63135
-127.69179 512.32178 342.63135
-121.61121 512.32178 342.63135
-115.53062 512.32178 342.63135
-109.45004 512.32178 342.63135
-103.36957 512.32178 342.63135
-97.288986 512.32178 342.63135
-91.208405 512.32178 342.63135
-85.127823 512.32178 342.63135
-79.047241 512.32178 342.63135
-72.966766 512.32178 342.63135
-66.886185 512.32178 342.63135
-60.805603 512.32178 342.63135
-54.725021 512.32178 342.63135
-49.135365 495.0874 373.33838
-42.993538 495.0874 373.33838
-36.851585 495.0874 373.33838
-30.709635 495.0874 373.33838
-24.567682 495.0874 373.33838
-18.425734 495.0874 373.33838
0 546.2981 282.09473
5.9594893 546.2981 282.09473
11.919207 546.2981 282.09473
17.699856 563.04004 252.26489
23.599957 563.04004 252.26489
29.499834 563.04004 252.26489
35.399712 563.04004 252.26489
40.907066 578.79712 224.18994
46.750835 578.79712 224.18994
52.59483 578.79712 224.18994
58.999668 563.04004 252.26489
64.899544 563.04004 252.26489
70.799652 563.04004 252.26489
76.699524 563.04004 252.26489
82.599632 563.04004 252.26489
88.499504 563.04004 252.26489
94.399376 563.04004 252.26489
100.29948 563.04004 252.26489
106.19936 563.04004 252.26489
112.09946 563.04004 252.26489
117.99934 563.04004 252.26489
123.89921 563.04004 252.26489
129.79932 563.04004 252.26489
137.0703 546.2981 282.09473
143.03001 546.2981 282.09473
148.9895 546.2981 282.09473
154.94899 546.2981 282.09473
160.90871 546.2981 282.09473
-176.33621 506.72461 340.25537
-170.25565 506.72461 340.25537
-164.17517 506.72461 340.25537
-158.09459 506.72461 340.25537
-152.01401 506.72461 340.25537
-145.93341 506.72461 340.25537
-139.85284 506.72461 340.25537
-133.77237 506.72461 340.25537
-127.69179 506.72461 340.25537
-121.61121 506.72461 340.25537
-115.53062 506.72461 340.25537
-109.45004 506.72461 340.25537
-103.36957 506.72461 340.25537
-97.288986 506.72461 340.25537
-91.208405 506.72461 340.25537
-85.127823 506.72461 340.25537
-79.047241 506.72461 340.25537
-72.966766 506.72461 340.25537
-66.886185 506.72461 340.25537
-60.805603 506.72461 340.25537
-54.725021 506.72461 340.25537
-49.135365 489.43384 370.93872
-42.993538 489.43384 370.93872
-36.851585 489.43384 370.93872
-30.709635 489.43384 370.93872
-24.820164 471.64893 402.49854
0 540.81226 279.76611
5.9594893 540.81226 279.76611
11.919207 540.81226 279.76611
17.699856 557.60913 249.95947
23.599957 557.60913 249.95947
29.499834 557.60913 249.95947
35.399712 557.60913 249.95947
41.299816 557.60913 249.95947
47.199688 557.60913 249.95947
53.099792 557.60913 249.95947
58.999668 557.60913 249.95947
64.899544 557.60913 249.95947
70.799652 557.60913 249.95947
76.699524 557.60913 249.95947
82.599632 557.60913 249.95947
88.499504 557.60913 249.95947
94.399376 557.60913 249.95947
100.29948 557.60913 249.95947
106.19936 557.60913 249.95947
112.09946 557.60913 249.95947
117.99934 557.60913 249.95947
123.89921 557.60913 249.95947
129.79932 557.60913 249.95947
137.0703 540.81226 279.76611
143.03001 540.81226 279.76611
148.9895 540.81226 279.76611
154.94899 540.81226 279.76611
162.51826 524.01538 309.57251
-176.33621 501.12744 337.87964
-170.25565 501.12744 337.87964
-164.17517 501.12744 337.87964
-158.09459 501.12744 337.87964
-152.01401 501.12744 337.87964
-145.93341 501.12744 337.87964
-139.85284 501.12744 337.87964
-133.77237 501.12744 337.87964
-127.69179 501.12744 337.87964
-121.61121 501.12744 337.87964
-115.53062 501.12744 337.87964
-109.45004 501.12744 337.87964
-103.36957 501.12744 337.87964
-97.288986 501.12744 337.87964
-91.208405 501.12744 337.87964
-85.127823 501.12744 337.87964
-79.047241 501.12744 337.87964
-72.966766 501.12744 337.87964
-66.886185 501.12744 337.87964
-60.805603 501.12744 337.87964
-55.277321 483.78015 368.53882
-49.135365 483.78015 368.53882
-42.993538 483.78015 368.53882
-37.230305 465.93701 400.07397
-31.025234 465.93701 400.07397
11.919207 535.32642 277.4375
17.699856 552.1781 247.6543
23.599957 552.1781 247.6543
29.499834 552.1781 247.6543
35.399712 552.1781 247.6543
41.299816 552.1781 247.6543
47.199688 552.1781 247.6543
53.099792 552.1781 247.6543
58.999668 552.1781 247.6543
64.899544 552.1781 247.6543
70.799652 552.1781 247.6543
76.699524 552.1781 247.6543
82.599632 552.1781 247.6543
88.499504 552.1781 247.6543
94.399376 552.1781 247.6543
100.29948 552.1781 247.6543
106.19936 552.1781 247.6543
112.09946 552.1781 247.6543
117.99934 552.1781 247.6543
123.89921 552.1781 247.6543
129.79932 552.1781 247.6543
137.0703 535.32642 277.4375
143.03001 535.32642 277.4375
148.9895 535.32642 277.4375
156.49895 518.47461 307.2207
162.51826 518.47461 307.2207
168.53737 518.47461 307.2207
-176.33621 495.53027 335.50391
-170.25565 495.53027 335.50391
-164.17517 495.53027 335.50391
-158.09459 495.53027 335.50391
-152.01401 495.53027 335.50391
-145.93341 495.53027 335.50391
-139.85284 495.53027 335.50391
-133.77237 495.53027 335.50391
-127.69179 495.53027 335.50391
-121.61121 495.53027 335.50391
-115.53062 495.53027 335.50391
-109.45004 495.53027 335.50391
-103.36957 495.53027 335.50391
-97.288986 495.53027 335.50391
-91.208405 495.53027 335.50391
-85.127823 495.53027 335.50391
-79.047241 495.53027 335.50391
-72.966766 495.53027 335.50391
-66.886185 495.53027 335.50391
-60.805603 495.53027 335.50391
-55.277321 478.12646 366.13892
-49.135365 478.12646 366.13892
-43.435375 460.22534 397.64941
-37.619545 441.82703 430.03516
-31.349602 441.82703 430.03516
11.919207 529.8407 275.10889
17.699856 546.74731 245.34888
23.599957 546.74731 245.34888
29.499834 546.74731 245.34888
35.399712 546.74731 245.34888
41.299816 546.74731 245.34888
47.199688 546.74731 245.34888
53.099792 546.74731 245.34888
58.999668 546.74731 245.34888
64.899544 546.74731 245.34888
70.799652 546.74731 245.34888
76.699524 546.74731 245.34888
82.599632 546.74731 245.34888
88.499504 546.74731 245.34888
94.399376 546.74731 245.34888
100.29948 546.74731 245.34888
106.19936 546.74731 245.34888
112.09946 546.74731 245.34888
117.99934 546.74731 245.34888
123.89921 546.74731 245.34888
131.11081 529.8407 275.10889
137.0703 529.8407 275.10889
143.03001 529.8407 275.10889
150.47984 512.93408 304.8689
159.69002 478.12646 366.13892
165.83208 478.12646 366.13892
171.97391 478.12646 366.13892
-176.33621 489.93298 333.12793
-170.25565 489.93298 333.12793
-164.17517 489.93298 333.12793
-158.09459 489.93298 333.12793
-152.01401 489.93298 333.12793
-145.93341 489.93298 333.12793
-139.85284 489.93298 333.12793
-133.77237 489.93298 333.12793
-127.69179 489.93298 333.12793
-121.61121 489.93298 333.12793
-115.53062 489.93298 333.12793
-109.45004 489.93298 333.12793
-103.36957 489.93298 333.12793
-97.288986 489.93298 333.12793
-91.208405 489.93298 333.12793
-85.127823 489.93298 333.12793
-79.047241 489.93298 333.12793
-72.966766 489.93298 333.12793
-66.886185 489.93298 333.12793
-60.805603 489.93298 333.12793
-55.277321 472.47278 363.73926
-49.135365 472.47278 363.73926
17.699856 541.31628 243.0437
23.599957 541.31628 243.0437
29.499834 541.31628 243.0437
35.399712 541.31628 243.0437
41.299816 541.31628 243.0437
47.199688 541.31628 243.0437
53.099792 541.31628 243.0437
58.999668 541.31628 243.0437
64.899544 541.31628 243.0437
70.799652 541.31628 243.0437
76.699524 541.31628 243.0437
82.599632 541.31628 243.0437
88.499504 541.31628 243.0437
94.399376 541.31628 243.0437
100.29948 541.31628 243.0437
106.19936 541.31628 243.0437
112.09946 541.31628 243.0437
117.99934 541.31628 243.0437
123.89921 541.31628 243.0437
131.11081 524.35474 272.78027
138.44141 507.39331 302.51685
144.46074 507.39331 302.51685
150.47984 507.39331 302.51685
159.69002 472.47278 363.73926
165.83208 472.47278 363.73926
171.97391 472.47278 363.73926
-178.11584 466.81921 361.33936
-171.97391 466.81921 361.33936
-164.17517 484.33594 330.75195
-158.09459 484.33594 330.75195
-152.01401 484.33594 330.75195
-145.93341 484.33594 330.75195
-139.85284 484.33594 330.75195
-133.77237 484.33594 330.75195
-127.69179 484.33594 330.75195
-121.61121 484.33594 330.75195
-115.53062 484.33594 330.75195
-109.45004 484.33594 330.75195
-103.36957 484.33594 330.75195
-97.288986 484.33594 330.75195
-91.208405 484.33594 330.75195
-85.127823 484.33594 330.75195
-79.047241 484.33594 330.75195
-72.966766 484.33594 330.75195
-66.886185 484.33594 330.75195
-61.41927 466.81921 361.33936
-55.845398 448.80176 392.80054
-49.640327 448.80176 392.80054
23.838413 518.86902 270.4519
29.797901 518.86902 270.4519
35.757389 518.86902 270.4519
41.717106 518.86902 270.4519
47.199688 535.88538 240.73828
53.099792 535.88538 240.73828
58.999668 535.88538 240.73828
64.899544 535.88538 240.73828
70.799652 535.88538 240.73828
76.699524 535.88538 240.73828
82.599632 535.88538 240.73828
88.499504 535.88538 240.73828
94.399376 535.88538 240.73828
100.29948 535.88538 240.73828
106.19936 535.88538 240.73828
113.23211 518.86902 270.4519
119.1916 518.86902 270.4519
125.1511 518.86902 270.4519
131.11081 518.86902 270.4519
138.44141 501.85266 300.16504
144.46074 501.85266 300.16504
150.47984 501.85266 300.16504
158.09448 484.33594 330.75195
165.83208 466.81921 361.33936
171.97391 466.81921 361.33936
-178.11584 461.16541 358.93945
-171.97391 461.16541 358.93945
-164.17517 478.73865 328.37622
-158.09459 478.73865 328.37622
-152.01401 478.73865 328.37622
-145.93341 478.73865 328.37622
-139.85284 478.73865 328.37622
-133.77237 478.73865 328.37622
-127.69179 478.73865 328.37622
-121.61121 478.73865 328.37622
-115.53062 478.73865 328.37622
-109.45004 478.73865 328.37622
-103.36957 478.73865 328.37622
-97.288986 478.73865 328.37622
-91.208405 478.73865 328.37622
-85.127823 478.73865 328.37622
-79.047241 478.73865 328.37622
-72.966766 478.73865 328.37622
-66.886185 478.73865 328.37622
-61.41927 461.16541 358.93945
-55.845398 443.08997 390.37598
-49.640327 443.08997 390.37598
23.838413 513.38306 268.12329
29.797901 513.38306 268.12329
35.757389 513.38306 268.12329
41.717106 513.38306 268.12329
47.676598 513.38306 268.12329
53.636314 513.38306 268.12329
58.999668 530.45435 238.43311
64.899544 530.45435 238.43311
70.799652 530.45435 238.43311
76.699524 530.45435 238.43311
82.599632 530.45435 238.43311
88.499504 530.45435 238.43311
94.399376 530.45435 238.43311
100.29948 530.45435 238.43311
106.19936 530.45435 238.43311
113.23211 513.38306 268.12329
119.1916 513.38306 268.12329
125.1511 513.38306 268.12329
132.4223 496.31189 297.81299
138.44141 496.31189 297.81299
144.46074 496.31189 297.81299
150.47984 496.31189 297.81299
158.09448 478.73865 328.37622
164.17517 478.73865 328.37622
170.25565 478.73865 328.37622
-184.25781 455.51184 356.53955
-178.11584 455.51184 356.53955
-171.97391 455.51184 356.53955
-164.17517 473.1416 326.00024
-158.09459 473.1416 326.00024
-152.01401 473.1416 326.00024
-145.93341 473.1416 326.00024
-139.85284 473.1416 326.00024
-133.77237 473.1416 326.00024
-127.69179 473.1416 326.00024
-121.61121 473.1416 326.00024
-115.53062 473.1416 326.00024
-109.45004 473.1416 326.00024
-103.36957 473.1416 326.00024
-97.288986 473.1416 326.00024
-91.208405 473.1416 326.00024
-85.986954 455.51184 356.53955
-79.845009 455.51184 356.53955
-72.966766 473.1416 326.00024
-66.886185 473.1416 326.00024
-61.41927 455.51184 356.53955
-55.845398 437.37817 387.95142
-49.640327 437.37817 387.95142
24.322334 473.1416 326.00024
30.095968 490.77124 295.46118
35.757389 507.89734 265.79468
41.717106 507.89734 265.79468
47.676598 507.89734 265.79468
53.636314 507.89734 265.79468
59.595802 507.89734 265.79468
64.899544 525.02344 236.12769
70.799652 525.02344 236.12769
76.699524 525.02344 236.12769
82.599632 525.02344 236.12769
88.499504 525.02344 236.12769
94.399376 525.02344 236.12769
100.29948 525.02344 236.12769
106.19936 525.02344 236.12769
113.23211 507.89734 265.79468
119.1916 507.89734 265.79468
125.1511 507.89734 265.79468
132.4223 490.77124 295.46118
138.44141 490.77124 295.46118
144.46074 490.77124 295.46118
150.47984 490.77124 295.46118
158.09448 473.1416 326.00024
164.17517 473.1416 326.00024
170.25565 473.1416 326.00024
176.33633 473.1416 326.00024
-184.25781 449.85815 354.13989
-176.33621 467.54431 323.62451
-170.25565 467.54431 323.62451
-164.17517 467.54431 323.62451
-158.09459 467.54431 323.62451
-152.01401 467.54431 323.62451
-145.93341 467.54431 323.62451
-139.85284 467.54431 323.62451
-133.77237 467.54431 323.62451
-127.69179 467.54431 323.62451
-121.61121 467.54431 323.62451
-115.53062 467.54431 323.62451
-109.45004 467.54431 323.62451
-103.36957 467.54431 323.62451
-97.288986 467.54431 323.62451
-91.208405 467.54431 323.62451
-85.986954 449.85815 354.13989
-79.845009 449.85815 354.13989
-73.703171 449.85815 354.13989
-67.561218 449.85815 354.13989
-62.050468 431.66638 385.52686
-55.845398 431.66638 385.52686
-49.640327 431.66638 385.52686
30.095968 485.23047 293.10938
35.757389 502.4115 263.46606
41.717106 502.4115 263.46606
47.676598 502.4115 263.46606
53.636314 502.4115 263.46606
59.595802 502.4115 263.46606
65.55529 502.4115 263.46606
71.515007 502.4115 263.46606
77.474495 502.4115 263.46606
83.434212 502.4115 263.46606
89.3937 502.4115 263.46606
95.353195 502.4115 263.46606
101.31291 502.4115 263.46606
107.27239 502.4115 263.46606
113.23211 502.4115 263.46606
119.1916 502.4115 263.46606
125.1511 502.4115 263.46606
132.4223 485.23047 293.10938
138.44141 485.23047 293.10938
144.46074 485.23047 293.10938
150.47984 485.23047 293.10938
158.09448 467.54431 323.62451
164.17517 467.54431 323.62451
170.25565 467.54431 323.62451
176.33633 467.54431 323.62451
-176.33621 461.94727 321.24854
-170.25565 461.94727 321.24854
-164.17517 461.94727 321.24854
-158.09459 461.94727 321.24854
-152.01401 461.94727 321.24854
-145.93341 461.94727 321.24854
-139.85284 461.94727 321.24854
-133.77237 461.94727 321.24854
-127.69179 461.94727 321.24854
-121.61121 461.94727 321.24854
-115.53062 461.94727 321.24854
-109.45004 461.94727 321.24854
-103.36957 461.94727 321.24854
-97.288986 461.94727 321.24854
-92.128906 444.20459 351.73999
-85.986954 444.20459 351.73999
-79.845009 444.20459 351.73999
-73.703171 444.20459 351.73999
-67.561218 444.20459 351.73999
-61.41927 444.20459 351.73999
-55.845398 425.95471 383.10254
30.402802 461.94727 321.24854
36.115067 479.68994 290.75757
42.134399 479.68994 290.75757
47.676598 496.92578 261.13745
53.636314 496.92578 261.13745
59.595802 496.92578 261.13745
65.55529 496.92578 261.13745
71.515007 496.92578 261.13745
77.474495 496.92578 261.13745
83.434212 496.92578 261.13745
89.3937 496.92578 261.13745
95.353195 496.92578 261.13745
101.31291 496.92578 261.13745
107.27239 496.92578 261.13745
113.23211 496.92578 261.13745
119.1916 496.92578 261.13745
126.40298 479.68994 290.75757
132.4223 479.68994 290.75757
138.44141 479.68994 290.75757
144.46074 479.68994 290.75757
150.47984 479.68994 290.75757
158.09448 461.94727 321.24854
164.17517 461.94727 321.24854
170.25565 461.94727 321.24854
176.33633 461.94727 321.24854
-176.33621 456.34998 318.8728
-170.25565 456.34998 318.8728
-164.17517 456.34998 318.8728
-158.09459 456.34998 318.8728
-152.01401 456.34998 318.8728
-145.93341 456.34998 318.8728
-139.85284 456.34998 318.8728
-133.77237 456.34998 318.8728
-127.69179 456.34998 318.8728
-121.61121 456.34998 318.8728
-115.53062 456.34998 318.8728
-109.45004 456.34998 318.8728
-103.36957 456.34998 318.8728
-97.288986 456.34998 318.8728
-92.128906 438.55078 349.34009
-85.986954 438.55078 349.34009
-79.845009 438.55078 349.34009
-73.703171 438.55078 349.34009
-67.561218 438.55078 349.34009
-61.41927 438.55078 349.34009
-55.845398 420.24292 380.67798
30.402802 456.34998 318.8728
36.115067 474.14917 288.40552
42.134399 474.14917 288.40552
48.153503 474.14917 288.40552
53.636314 491.43994 258.80884
59.595802 491.43994 258.80884
65.55529 491.43994 258.80884
71.515007 491.43994 258.80884
77.474495 491.43994 258.80884
83.434212 491.43994 258.80884
89.3937 491.43994 258.80884
95.353195 491.43994 258.80884
101.31291 491.43994 258.80884
107.27239 491.43994 258.80884
113.23211 491.43994 258.80884
120.38387 474.14917 288.40552
126.40298 474.14917 288.40552
132.4223 474.14917 288.40552
138.44141 474.14917 288.40552
144.46074 474.14917 288.40552
150.47984 474.14917 288.40552
158.09448 456.34998 318.8728
164.17517 456.34998 318.8728
170.25565 456.34998 318.8728
178.11597 438.55078 349.34009
-176.33621 450.75281 316.49683
-170.25565 450.75281 316.49683
-164.17517 450.75281 316.49683
-158.09459 450.75281 316.49683
-153.54817 432.89722 346.94043
-145.93341 450.75281 316.49683
-139.85284 450.75281 316.49683
-133.77237 450.75281 316.49683
-127.69179 450.75281 316.49683
-121.61121 450.75281 316.49683
-115.53062 450.75281 316.49683
-109.45004 450.75281 316.49683
-103.36957 450.75281 316.49683
-97.288986 450.75281 316.49683
-92.128906 432.89722 346.94043
-85.986954 432.89722 346.94043
-79.845009 432.89722 346.94043
-73.703171 432.89722 346.94043
-67.561218 432.89722 346.94043
-62.050468 414.53113 378.25342
-55.845398 414.53113 378.25342
36.115067 468.60852 286.05371
42.134399 468.60852 286.05371
48.153503 468.60852 286.05371
53.636314 485.9541 256.48022
59.595802 485.9541 256.48022
65.55529 485.9541 256.48022
71.515007 485.9541 256.48022
77.474495 485.9541 256.48022
83.434212 485.9541 256.48022
89.3937 485.9541 256.48022
95.353195 485.9541 256.48022
101.31291 485.9541 256.48022
107.27239 485.9541 256.48022
113.23211 485.9541 256.48022
120.38387 468.60852 286.05371
126.40298 468.60852 286.05371
131.11081 485.9541 256.48022
137.0703 485.9541 256.48022
144.46074 468.60852 286.05371
150.47984 468.60852 286.05371
158.09448 450.75281 316.49683
164.17517 450.75281 316.49683
170.25565 450.75281 316.49683
176.33633 450.75281 316.49683
-176.33621 445.15552 314.12109
-170.25565 445.15552 314.12109
-164.17517 445.15552 314.12109
-158.09459 445.15552 314.12109
-153.54817 427.24341 344.54053
-147.40622 427.24341 344.54053
-141.26427 427.24341 344.54053
-133.77237 445.15552 314.12109
-127.69179 445.15552 314.12109
-121.61121 445.15552 314.12109
-115.53062 445.15552 314.12109
-109.45004 445.15552 314.12109
-103.36957 445.15552 314.12109
-97.288986 445.15552 314.12109
-92.128906 427.24341 344.54053
-85.986954 427.24341 344.54053
-79.845009 427.24341 344.54053
-73.703171 427.24341 344.54053
-67.561218 427.24341 344.54053
-62.050468 408.81934 375.82886
-55.845398 408.81934 375.82886
36.483269 445.15552 314.12109
42.134399 463.06775 283.7019
48.153503 463.06775 283.7019
54.172836 463.06775 283.7019
59.595802 480.46826 254.15161
65.55529 480.46826 254.15161
71.515007 480.46826 254.15161
77.474495 480.46826 254.15161
83.434212 480.46826 254.15161
89.3937 480.46826 254.15161
95.353195 480.46826 254.15161
101.31291 480.46826 254.15161
107.27239 480.46826 254.15161
113.23211 480.46826 254.15161
120.38387 463.06775 283.7019
126.40298 463.06775 283.7019
131.11081 480.46826 254.15161
137.0703 480.46826 254.15161
144.46074 463.06775 283.7019
150.47984 463.06775 283.7019
158.09448 445.15552 314.12109
164.17517 445.15552 314.12109
170.25565 445.15552 314.12109
176.33633 445.15552 314.12109
-176.33621 439.55835 311.74512
-170.25565 439.55835 311.74512
-164.17517 439.55835 311.74512
-158.09459 439.55835 311.74512
-153.54817 421.5896 342.14062
-147.40622 421.5896 342.14062
-141.26427 421.5896 342.14062
-133.77237 439.55835 311.74512
-127.69179 439.55835 311.74512
-122.83854 421.5896 342.14062
-115.53062 439.55835 311.74512
-109.45004 439.55835 311.74512
-103.36957 439.55835 311.74512
-97.288986 439.55835 311.74512
-92.128906 421.5896 342.14062
-85.986954 421.5896 342.14062
-79.845009 421.5896 342.14062
-73.703171 421.5896 342.14062
-67.561218 421.5896 342.14062
-62.050468 403.10754 373.4043
-55.845398 403.10754 373.4043
42.134399 457.52698 281.34985
48.153503 457.52698 281.34985
53.636314 474.9823 251.823
59.595802 474.9823 251.823
65.55529 474.9823 251.823
71.515007 474.9823 251.823
77.474495 474.9823 251.823
83.434212 474.9823 251.823
89.3937 474.9823 251.823
95.353195 474.9823 251.823
101.31291 474.9823 251.823
107.27239 474.9823 251.823
113.23211 474.9823 251.823
119.1916 474.9823 251.823
125.1511 474.9823 251.823
131.11081 474.9823 251.823
137.0703 474.9823 251.823
144.46074 457.52698 281.34985
150.47984 457.52698 281.34985
158.09448 439.55835 311.74512
164.17517 439.55835 311.74512
170.25565 439.55835 311.74512
176.33633 439.55835 311.74512
182.41681 439.55835 311.74512
-176.33621 433.96118 309.36914
-170.25565 433.96118 309.36914
-164.17517 433.96118 309.36914
-158.09459 433.96118 309.36914
-153.54817 415.93604 339.74072
-147.40622 415.93604 339.74072
-141.26427 415.93604 339.74072
-135.12244 415.93604 339.74072
-128.98048 415.93604 339.74072
-122.83854 415.93604 339.74072
-115.53062 433.96118 309.36914
-109.45004 433.96118 309.36914
-103.36957 433.96118 309.36914
-97.288986 433.96118 309.36914
-92.128906 415.93604 339.74072
-85.986954 415.93604 339.74072
-79.845009 415.93604 339.74072
-73.703171 415.93604 339.74072
-68.255539 397.39575 370.97998
-62.050468 397.39575 370.97998
48.153503 451.98633 278.99805
53.636314 469.49658 249.49438
59.595802 469.49658 249.49438
65.55529 469.49658 249.49438
71.515007 469.49658 249.49438
77.474495 469.49658 249.49438
83.434212 469.49658 249.49438
89.3937 469.49658 249.49438
95.353195 469.49658 249.49438
101.31291 469.49658 249.49438
107.27239 469.49658 249.49438
113.23211 469.49658 249.49438
119.1916 469.49658 249.49438
125.1511 469.49658 249.49438
131.11081 469.49658 249.49438
137.0703 469.49658 249.49438
144.46074 451.98633 278.99805
150.47984 451.98633 278.99805
158.09448 433.96118 309.36914
164.17517 433.96118 309.36914
170.25565 433.96118 309.36914
176.33633 433.96118 309.36914
182.41681 433.96118 309.36914
-176.33621 428.36389 306.99341
-170.25565 428.36389 306.99341
-164.17517 428.36389 306.99341
-158.09459 428.36389 306.99341
-152.01401 428.36389 306.99341
-145.93341 428.36389 306.99341
-139.85284 428.36389 306.99341
-133.77237 428.36389 306.99341
-128.98048 410.28235 337.34082
-122.83854 410.28235 337.34082
-116.69659 410.28235 337.34082
-110.55464 410.28235 337.34082
-104.4128 410.28235 337.34082
-98.270851 410.28235 337.34082
-92.128906 410.28235 337.34082
-85.986954 410.28235 337.34082
-79.845009 410.28235 337.34082
-73.703171 410.28235 337.34082
-68.255539 391.68396 368.55542
-62.050468 391.68396 368.55542
53.636314 464.01074 247.16577
59.595802 464.01074 247.16577
65.55529 464.01074 247.16577
71.515007 464.01074 247.16577
77.474495 464.01074 247.16577
83.434212 464.01074 247.16577
89.3937 464.01074 247.16577
95.353195 464.01074 247.16577
101.31291 464.01074 247.16577
107.27239 464.01074 247.16577
113.23211 464.01074 247.16577
120.38387 446.44556 276.646
126.40298 446.44556 276.646
132.4223 446.44556 276.646
138.44141 446.44556 276.646
144.46074 446.44556 276.646
150.47984 446.44556 276.646
156.49895 446.44556 276.646
162.51826 446.44556 276.646
168.53737 446.44556 276.646
174.5567 446.44556 276.646
180.57581 446.44556 276.646
-176.33621 422.76685 304.61768
-170.25565 422.76685 304.61768
