ply
format ascii 1.0
comment PCL generated
element vertex 1581
property float x
property float y
property float z
element camera 0
property float view_px
property float view_py
property float view_pz
property float x_axisx
property float x_axisy
property float x_axisz
property float y_axisx
property float y_axisy
property float y_axisz
property float z_axisx
property float z_axisy
property float z_axisz
property float focal
property float scalex
property float scaley
property float centerx
property float centery
property int viewportx
property int viewporty
property float k1
property float k2
end_header
-47.49778 1388.817 217.12866
-42.22023 1388.817 217.12866
-36.942772 1388.817 217.12866
-31.391701 1395.9967 191.93091
-25.931801 1403.1763 166.73315
-20.74542 1403.1763 166.73315
-15.695801 1395.9967 191.93091
-10.463933 1395.9967 191.93091
-5.277554 1388.817 217.12866
0 1388.817 217.12866
5.2774534 1388.817 217.12866
10.555108 1388.817 217.12866
15.97458 1381.3612 243.29541
21.299576 1381.3612 243.29541
26.861067 1373.9054 269.4624
32.233196 1373.9054 269.4624
37.949188 1366.1735 296.59863
43.370415 1366.1735 296.59863
49.233688 1358.4417 323.73438
54.704002 1358.4417 323.73438
60.174316 1358.4417 323.73438
65.644844 1358.4417 323.73438
71.776169 1350.4333 351.83984
78.009399 1342.4253 379.94507
83.581406 1342.4253 379.94507
89.99501 1334.1411 409.01953
96.514038 1325.8569 438.09375
102.19124 1325.8569 438.09375
107.86867 1325.8569 438.09375
114.63293 1317.2966 468.13721
120.36449 1317.2966 468.13721
-156.01857 1337.2963 377.76782
-150.44656 1337.2963 377.76782
-144.87445 1337.2963 377.76782
-139.30234 1337.2963 377.76782
-133.73022 1337.2963 377.76782
-126.98864 1345.3511 349.68262
-121.46747 1345.3511 349.68262
-114.87842 1353.406 321.59692
-107.44427 1368.9602 267.36328
-102.07204 1368.9602 267.36328
-96.699806 1368.9602 267.36328
-91.327667 1368.9602 267.36328
-85.955437 1368.9602 267.36328
-81.319603 1361.1831 294.48022
-75.898277 1361.1831 294.48022
-70.476952 1361.1831 294.48022
-65.055725 1361.1831 294.48022
-59.094368 1368.9602 267.36328
-53.722134 1368.9602 267.36328
-47.92384 1376.4597 241.21484
-42.22023 1383.959 215.06641
-36.942772 1383.959 215.06641
-31.391701 1391.1807 189.88647
-26.159735 1391.1807 189.88647
-20.927767 1391.1807 189.88647
-15.695801 1391.1807 189.88647
-10.555108 1383.959 215.06641
-5.277554 1383.959 215.06641
0 1383.959 215.06641
5.2774534 1383.959 215.06641
10.555108 1383.959 215.06641
15.97458 1376.4597 241.21484
21.299576 1376.4597 241.21484
26.861067 1368.9602 267.36328
32.233196 1368.9602 267.36328
37.605534 1368.9602 267.36328
42.977669 1368.9602 267.36328
49.233688 1353.406 321.59692
54.704002 1353.406 321.59692
60.174316 1353.406 321.59692
65.644844 1353.406 321.59692
71.776169 1345.3511 349.68262
78.009399 1337.2963 377.76782
83.581406 1337.2963 377.76782
89.99501 1328.9636 406.82178
96.514038 1320.631 435.87549
102.19124 1320.631 435.87549
107.86867 1320.631 435.87549
113.54587 1320.631 435.87549
120.36449 1312.0205 465.89771
126.09628 1312.0205 465.89771
-163.1161 1323.786 404.62402
-156.01857 1332.1671 375.59058
-150.44656 1332.1671 375.59058
-143.55244 1340.2688 347.52515
-138.03117 1340.2688 347.52515
-132.5099 1340.2688 347.52515
-125.81916 1348.3705 319.45947
-120.34885 1348.3705 319.45947
-113.84747 1356.1929 292.36206
-107.44427 1364.0151 265.2644
-102.07204 1364.0151 265.2644
-96.699806 1364.0151 265.2644
-91.327667 1364.0151 265.2644
-85.955437 1364.0151 265.2644
-80.583206 1364.0151 265.2644
-75.210968 1364.0151 265.2644
-70.476952 1356.1929 292.36206
-65.055725 1356.1929 292.36206
-59.094368 1364.0151 265.2644
-53.722134 1364.0151 265.2644
-47.92384 1371.5581 239.13428
-42.598946 1371.5581 239.13428
-37.274155 1371.5581 239.13428
-31.66522 1379.101 213.00439
-26.159735 1386.3646 187.84229
-20.927767 1386.3646 187.84229
-15.695801 1386.3646 187.84229
-10.555108 1379.101 213.00439
-5.277554 1379.101 213.00439
0 1379.101 213.00439
5.2774534 1379.101 213.00439
10.649788 1371.5581 239.13428
15.97458 1371.5581 239.13428
21.299576 1371.5581 239.13428
26.861067 1364.0151 265.2644
32.233196 1364.0151 265.2644
37.605534 1364.0151 265.2644
42.977669 1364.0151 265.2644
49.233688 1348.3705 319.45947
54.704002 1348.3705 319.45947
60.174316 1348.3705 319.45947
65.644844 1348.3705 319.45947
71.776169 1340.2688 347.52515
77.297546 1340.2688 347.52515
83.581406 1332.1671 375.59058
89.99501 1323.786 404.62402
95.619835 1323.786 404.62402
102.19124 1315.405 433.65723
107.86867 1315.405 433.65723
113.54587 1315.405 433.65723
120.36449 1306.7446 463.6582
126.09628 1306.7446 463.6582
-163.1161 1318.6085 402.42627
-156.01857 1327.038 373.41357
-149.07372 1335.1864 345.36792
-143.55244 1335.1864 345.36792
-138.03117 1335.1864 345.36792
-131.28958 1343.335 317.32202
-125.81916 1343.335 317.32202
-119.26879 1351.2025 290.24365
-112.81651 1359.0699 263.16528
-107.44427 1359.0699 263.16528
-102.07204 1359.0699 263.16528
-96.699806 1359.0699 263.16528
-91.327667 1359.0699 263.16528
-85.955437 1359.0699 263.16528
-80.583206 1359.0699 263.16528
-75.210968 1359.0699 263.16528
-69.838737 1359.0699 263.16528
-65.055725 1351.2025 290.24365
-59.094368 1359.0699 263.16528
-53.722134 1359.0699 263.16528
-47.92384 1366.6565 237.05371
-42.598946 1366.6565 237.05371
-37.274155 1366.6565 237.05371
-31.66522 1374.243 210.94238
-26.387667 1374.243 210.94238
-20.927767 1381.5486 185.79785
-15.695801 1381.5486 185.79785
-10.555108 1374.243 210.94238
-5.277554 1374.243 210.94238
0 1366.6565 237.05371
5.3247924 1366.6565 237.05371
10.649788 1366.6565 237.05371
15.97458 1366.6565 237.05371
21.488937 1359.0699 263.16528
26.861067 1359.0699 263.16528
32.233196 1359.0699 263.16528
37.949188 1351.2025 290.24365
43.370415 1351.2025 290.24365
49.233688 1343.335 317.32202
54.704002 1343.335 317.32202
60.174316 1343.335 317.32202
65.644844 1343.335 317.32202
71.776169 1335.1864 345.36792
77.297546 1335.1864 345.36792
83.581406 1327.038 373.41357
89.153404 1327.038 373.41357
95.619835 1318.6085 402.42627
101.24444 1318.6085 402.42627
107.86867 1310.179 431.43872
113.54587 1310.179 431.43872
119.22308 1310.179 431.43872
126.09628 1301.4685 461.4187
131.82784 1301.4685 461.4187
-161.5907 1321.9087 371.23633
-154.59486 1330.104 343.21045
-149.07372 1330.104 343.21045
-142.23042 1338.2994 315.18457
-136.76001 1338.2994 315.18457
-130.11134 1346.212 288.12549
-124.69002 1346.212 288.12549
-118.18874 1354.1248 261.06616
-112.81651 1354.1248 261.06616
-106.49747 1361.7549 234.9729
-101.17258 1361.7549 234.9729
-95.847679 1361.7549 234.9729
-90.522888 1361.7549 234.9729
-85.197998 1361.7549 234.9729
-80.583206 1354.1248 261.06616
-75.210968 1354.1248 261.06616
-69.838737 1354.1248 261.06616
-65.055725 1346.212 288.12549
-59.094368 1354.1248 261.06616
-53.722134 1354.1248 261.06616
-48.349903 1354.1248 261.06616
-42.977669 1354.1248 261.06616
-37.274155 1361.7549 234.9729
-31.66522 1369.3849 208.88013
-26.387667 1369.3849 208.88013
-21.110115 1369.3849 208.88013
-15.83256 1369.3849 208.88013
-10.649788 1361.7549 234.9729
-5.324894 1361.7549 234.9729
0 1361.7549 234.9729
5.3247924 1361.7549 234.9729
10.649788 1361.7549 234.9729
16.116598 1354.1248 261.06616
21.488937 1354.1248 261.06616
26.861067 1354.1248 261.06616
32.233196 1354.1248 261.06616
37.949188 1346.212 288.12549
43.370415 1346.212 288.12549
49.233688 1338.2994 315.18457
54.704002 1338.2994 315.18457
60.174316 1338.2994 315.18457
65.644844 1338.2994 315.18457
71.776169 1330.104 343.21045
77.297546 1330.104 343.21045
83.581406 1321.9087 371.23633
89.153404 1321.9087 371.23633
94.725632 1321.9087 371.23633
101.24444 1313.4309 400.22852
106.86926 1313.4309 400.22852
113.54587 1304.953 429.22046
119.22308 1304.953 429.22046
124.90051 1304.953 429.22046
131.82784 1296.1925 459.17896
-160.11613 1325.0217 341.05322
-153.17117 1333.2639 313.04712
-147.70084 1333.2639 313.04712
-140.95399 1341.2217 286.00732
-135.53267 1341.2217 286.00732
-130.11134 1341.2217 286.00732
-124.69002 1341.2217 286.00732
-118.18874 1349.1796 258.96704
-112.81651 1349.1796 258.96704
-106.49747 1356.8533 232.89233
-101.17258 1356.8533 232.89233
-95.847679 1356.8533 232.89233
-90.522888 1356.8533 232.89233
-85.197998 1356.8533 232.89233
-79.8731 1356.8533 232.89233
-74.54821 1356.8533 232.89233
-69.838737 1349.1796 258.96704
-65.055725 1341.2217 286.00732
-59.094368 1349.1796 258.96704
-53.722134 1349.1796 258.96704
-48.349903 1349.1796 258.96704
-42.977669 1349.1796 258.96704
-37.605534 1349.1796 258.96704
-31.949263 1356.8533 232.89233
-26.624367 1356.8533 232.89233
-21.299473 1356.8533 232.89233
-15.97458 1356.8533 232.89233
-10.744469 1349.1796 258.96704
-5.3722343 1349.1796 258.96704
0 1356.8533 232.89233
5.3247924 1356.8533 232.89233
10.744469 1349.1796 258.96704
16.26388 1341.2217 286.00732
21.68531 1341.2217 286.00732
27.106535 1341.2217 286.00732
32.52776 1341.2217 286.00732
37.949188 1341.2217 286.00732
43.370415 1341.2217 286.00732
49.233688 1333.2639 313.04712
54.704002 1333.2639 313.04712
60.174316 1333.2639 313.04712
65.644844 1333.2639 313.04712
71.115158 1333.2639 313.04712
77.297546 1325.0217 341.05322
82.818703 1325.0217 341.05322
88.339859 1325.0217 341.05322
94.725632 1316.7797 369.05908
100.29764 1316.7797 369.05908
105.86987 1316.7797 369.05908
112.49387 1308.2533 398.03076
118.11848 1308.2533 398.03076
123.7433 1308.2533 398.03076
-169.58243 1328.2284 310.90967
-164.112 1328.2284 310.90967
-158.64159 1328.2284 310.90967
-153.17117 1328.2284 310.90967
-146.37532 1336.2314 283.88892
-140.95399 1336.2314 283.88892
-135.53267 1336.2314 283.88892
-130.11134 1336.2314 283.88892
-124.69002 1336.2314 283.88892
-119.26879 1336.2314 283.88892
-112.81651 1344.2344 256.86792
-106.49747 1351.9518 230.81177
-101.17258 1351.9518 230.81177
-95.847679 1351.9518 230.81177
-90.522888 1351.9518 230.81177
-85.197998 1351.9518 230.81177
-79.8731 1351.9518 230.81177
-74.54821 1351.9518 230.81177
-69.223312 1351.9518 230.81177
-64.466599 1344.2344 256.86792
-59.094368 1344.2344 256.86792
-53.722134 1344.2344 256.86792
-48.349903 1344.2344 256.86792
-42.977669 1344.2344 256.86792
-37.605534 1344.2344 256.86792
-31.949263 1351.9518 230.81177
-26.624367 1351.9518 230.81177
-21.299473 1351.9518 230.81177
-15.97458 1351.9518 230.81177
-10.744469 1344.2344 256.86792
-5.3722343 1344.2344 256.86792
0 1344.2344 256.86792
5.3721313 1344.2344 256.86792
10.744469 1344.2344 256.86792
16.26388 1336.2314 283.88892
21.68531 1336.2314 283.88892
27.106535 1336.2314 283.88892
32.233196 1344.2344 256.86792
37.605534 1344.2344 256.86792
43.370415 1336.2314 283.88892
48.791843 1336.2314 283.88892
54.21307 1336.2314 283.88892
60.174316 1328.2284 310.90967
65.644844 1328.2284 310.90967
71.115158 1328.2284 310.90967
77.297546 1319.9393 338.896
82.818703 1319.9393 338.896
88.339859 1319.9393 338.896
93.861237 1319.9393 338.896
100.29764 1311.6505 366.88184
105.86987 1311.6505 366.88184
111.44187 1311.6505 366.88184
117.01388 1311.6505 366.88184
122.58611 1311.6505 366.88184
128.15811 1311.6505 366.88184
133.73033 1311.6505 366.88184
-168.06053 1331.2411 281.77075
-162.63921 1331.2411 281.77075
-158.64159 1323.1929 308.77222
-151.79655 1331.2411 281.77075
-146.37532 1331.2411 281.77075
-140.95399 1331.2411 281.77075
-135.53267 1331.2411 281.77075
-130.11134 1331.2411 281.77075
-124.69002 1331.2411 281.77075
-118.18874 1339.2893 254.7688
-112.81651 1339.2893 254.7688
-106.49747 1347.0502 228.7312
-101.17258 1347.0502 228.7312
-96.699806 1339.2893 254.7688
-90.522888 1347.0502 228.7312
-85.197998 1347.0502 228.7312
-79.8731 1347.0502 228.7312
-74.54821 1347.0502 228.7312
-69.223312 1347.0502 228.7312
-64.466599 1339.2893 254.7688
-59.094368 1339.2893 254.7688
-53.722134 1339.2893 254.7688
-48.349903 1339.2893 254.7688
-42.977669 1339.2893 254.7688
-37.605534 1339.2893 254.7688
-31.949263 1347.0502 228.7312
-26.624367 1347.0502 228.7312
-21.299473 1347.0502 228.7312
-16.116598 1339.2893 254.7688
-10.842655 1331.2411 281.77075
-5.4213276 1331.2411 281.77075
0 1339.2893 254.7688
5.3721313 1339.2893 254.7688
10.744469 1339.2893 254.7688
16.26388 1331.2411 281.77075
21.488937 1339.2893 254.7688
26.861067 1339.2893 254.7688
32.233196 1339.2893 254.7688
37.605534 1339.2893 254.7688
43.370415 1331.2411 281.77075
48.791843 1331.2411 281.77075
54.21307 1331.2411 281.77075
59.634293 1331.2411 281.77075
65.644844 1323.1929 308.77222
71.115158 1323.1929 308.77222
76.585686 1323.1929 308.77222
82.818703 1314.8571 336.73853
88.339859 1314.8571 336.73853
93.861237 1314.8571 336.73853
99.382401 1314.8571 336.73853
104.90378 1314.8571 336.73853
110.42493 1314.8571 336.73853
115.9461 1314.8571 336.73853
121.46747 1314.8571 336.73853
126.98864 1314.8571 336.73853
132.51001 1314.8571 336.73853
138.03117 1314.8571 336.73853
143.55234 1314.8571 336.73853
149.07372 1314.8571 336.73853
154.59486 1314.8571 336.73853
160.11624 1314.8571 336.73853
165.63741 1314.8571 336.73853
171.15857 1314.8571 336.73853
-173.48186 1326.2507 279.65234
-168.06053 1326.2507 279.65234
-162.63921 1326.2507 279.65234
-157.21788 1326.2507 279.65234
-151.79655 1326.2507 279.65234
-146.37532 1326.2507 279.65234
-140.95399 1326.2507 279.65234
-135.53267 1326.2507 279.65234
-128.93311 1334.3441 252.66968
-123.56087 1334.3441 252.66968
-118.18874 1334.3441 252.66968
-112.81651 1334.3441 252.66968
-106.49747 1342.1487 226.65063
-101.17258 1342.1487 226.65063
-95.847679 1342.1487 226.65063
-90.522888 1342.1487 226.65063
-85.197998 1342.1487 226.65063
-79.8731 1342.1487 226.65063
-74.54821 1342.1487 226.65063
-69.223312 1342.1487 226.65063
-64.466599 1334.3441 252.66968
-59.094368 1334.3441 252.66968
-53.248734 1342.1487 226.65063
-47.92384 1342.1487 226.65063
-42.977669 1334.3441 252.66968
-37.605534 1334.3441 252.66968
-32.233299 1334.3441 252.66968
-26.861067 1334.3441 252.66968
-21.488834 1334.3441 252.66968
-16.116598 1334.3441 252.66968
-10.842655 1326.2507 279.65234
-5.4213276 1326.2507 279.65234
0 1326.2507 279.65234
5.4212241 1326.2507 279.65234
10.842655 1326.2507 279.65234
16.26388 1326.2507 279.65234
21.488937 1334.3441 252.66968
26.861067 1334.3441 252.66968
32.233196 1334.3441 252.66968
37.605534 1334.3441 252.66968
43.370415 1326.2507 279.65234
48.791843 1326.2507 279.65234
54.21307 1326.2507 279.65234
59.634293 1326.2507 279.65234
65.644844 1318.1572 306.63477
71.115158 1318.1572 306.63477
76.585686 1318.1572 306.63477
82.056 1318.1572 306.63477
87.526314 1318.1572 306.63477
93.861237 1309.7747 334.5813
99.382401 1309.7747 334.5813
104.90378 1309.7747 334.5813
110.42493 1309.7747 334.5813
115.9461 1309.7747 334.5813
121.46747 1309.7747 334.5813
126.98864 1309.7747 334.5813
132.51001 1309.7747 334.5813
138.03117 1309.7747 334.5813
143.55234 1309.7747 334.5813
149.07372 1309.7747 334.5813
154.59486 1309.7747 334.5813
160.11624 1309.7747 334.5813
165.63741 1309.7747 334.5813
171.15857 1309.7747 334.5813
176.67995 1309.7747 334.5813
182.2011 1309.7747 334.5813
189.45126 1301.3922 362.52759
-193.3997 1329.3989 250.57056
-188.02748 1329.3989 250.57056
-184.32442 1321.2604 277.53418
-178.90309 1321.2604 277.53418
-173.48186 1321.2604 277.53418
-168.06053 1321.2604 277.53418
-162.63921 1321.2604 277.53418
-157.21788 1321.2604 277.53418
-151.79655 1321.2604 277.53418
-146.37532 1321.2604 277.53418
-140.95399 1321.2604 277.53418
-134.30534 1329.3989 250.57056
-128.93311 1329.3989 250.57056
-123.56087 1329.3989 250.57056
-118.18874 1329.3989 250.57056
-112.81651 1329.3989 250.57056
-106.49747 1337.2471 224.57007
-101.17258 1337.2471 224.57007
-95.847679 1337.2471 224.57007
-90.522888 1337.2471 224.57007
-85.197998 1337.2471 224.57007
-79.8731 1337.2471 224.57007
-74.54821 1337.2471 224.57007
-69.223312 1337.2471 224.57007
-63.898525 1337.2471 224.57007
-58.573627 1337.2471 224.57007
-53.248734 1337.2471 224.57007
-47.92384 1337.2471 224.57007
-42.977669 1329.3989 250.57056
-37.605534 1329.3989 250.57056
-32.233299 1329.3989 250.57056
-26.861067 1329.3989 250.57056
-21.488834 1329.3989 250.57056
-16.116598 1329.3989 250.57056
-10.940842 1313.1218 304.49731
-5.4213276 1321.2604 277.53418
0 1321.2604 277.53418
5.4212241 1321.2604 277.53418
10.842655 1321.2604 277.53418
16.26388 1321.2604 277.53418
21.488937 1329.3989 250.57056
26.861067 1329.3989 250.57056
32.233196 1329.3989 250.57056
37.605534 1329.3989 250.57056
43.370415 1321.2604 277.53418
48.791843 1321.2604 277.53418
54.21307 1321.2604 277.53418
59.634293 1321.2604 277.53418
65.644844 1313.1218 304.49731
71.115158 1313.1218 304.49731
76.585686 1313.1218 304.49731
82.056 1313.1218 304.49731
87.526314 1313.1218 304.49731
93.861237 1304.6924 332.42383
99.382401 1304.6924 332.42383
104.90378 1304.6924 332.42383
110.42493 1304.6924 332.42383
115.9461 1304.6924 332.42383
121.46747 1304.6924 332.42383
126.98864 1304.6924 332.42383
132.51001 1304.6924 332.42383
138.03117 1304.6924 332.42383
143.55234 1304.6924 332.42383
149.07372 1304.6924 332.42383
154.59486 1304.6924 332.42383
160.11624 1304.6924 332.42383
165.63741 1304.6924 332.42383
171.15857 1304.6924 332.42383
176.67995 1304.6924 332.42383
182.2011 1304.6924 332.42383
189.45126 1296.2631 360.35034
-202.34515 1332.3455 222.4895
-197.02036 1332.3455 222.4895
-191.69547 1332.3455 222.4895
-188.02748 1324.4539 248.47168
-184.32442 1316.27 275.41577
-178.90309 1316.27 275.41577
-173.48186 1316.27 275.41577
-168.06053 1316.27 275.41577
-162.63921 1316.27 275.41577
-157.21788 1316.27 275.41577
-151.79655 1316.27 275.41577
-145.04982 1324.4539 248.47168
-139.67758 1324.4539 248.47168
-134.30534 1324.4539 248.47168
-128.93311 1324.4539 248.47168
-123.56087 1324.4539 248.47168
-118.18874 1324.4539 248.47168
-111.82236 1332.3455 222.4895
-106.49747 1332.3455 222.4895
-101.17258 1332.3455 222.4895
-95.847679 1332.3455 222.4895
-90.522888 1332.3455 222.4895
-85.197998 1332.3455 222.4895
-79.8731 1332.3455 222.4895
-74.54821 1332.3455 222.4895
-69.223312 1332.3455 222.4895
-63.898525 1332.3455 222.4895
-58.573627 1332.3455 222.4895
-53.248734 1332.3455 222.4895
-47.92384 1332.3455 222.4895
-42.977669 1324.4539 248.47168
-37.605534 1324.4539 248.47168
-32.233299 1324.4539 248.47168
-26.861067 1324.4539 248.47168
-21.488834 1324.4539 248.47168
-16.26388 1316.27 275.41577
-10.940842 1308.0863 302.35986
-5.4704208 1308.0863 302.35986
0 1316.27 275.41577
5.4212241 1316.27 275.41577
10.842655 1316.27 275.41577
16.26388 1316.27 275.41577
21.488937 1324.4539 248.47168
26.861067 1324.4539 248.47168
32.233196 1324.4539 248.47168
37.605534 1324.4539 248.47168
43.370415 1316.27 275.41577
48.791843 1316.27 275.41577
54.704002 1308.0863 302.35986
60.174316 1308.0863 302.35986
65.644844 1308.0863 302.35986
71.115158 1308.0863 302.35986
76.585686 1308.0863 302.35986
82.056 1308.0863 302.35986
87.526314 1308.0863 302.35986
93.861237 1299.6101 330.2666
99.382401 1299.6101 330.2666
104.90378 1299.6101 330.2666
110.42493 1299.6101 330.2666
115.9461 1299.6101 330.2666
121.46747 1299.6101 330.2666
126.98864 1299.6101 330.2666
132.51001 1299.6101 330.2666
138.03117 1299.6101 330.2666
144.87434 1291.1339 358.1731
149.07372 1299.6101 330.2666
154.59486 1299.6101 330.2666
160.11624 1299.6101 330.2666
165.63741 1299.6101 330.2666
171.15857 1299.6101 330.2666
176.67995 1299.6101 330.2666
182.2011 1299.6101 330.2666
189.45126 1291.1339 358.1731
-205.82379 1335.379 194.44556
-200.54623 1335.379 194.44556
-197.02036 1327.4438 220.40894
-191.69547 1327.4438 220.40894
-188.02748 1319.5087 246.37256
-184.32442 1311.2798 273.29761
-178.90309 1311.2798 273.29761
-173.48186 1311.2798 273.29761
-168.06053 1311.2798 273.29761
-162.63921 1311.2798 273.29761
-157.21788 1311.2798 273.29761
-151.79655 1311.2798 273.29761
-145.04982 1319.5087 246.37256
-139.67758 1319.5087 246.37256
-134.30534 1319.5087 246.37256
-128.93311 1319.5087 246.37256
-123.56087 1319.5087 246.37256
-118.18874 1319.5087 246.37256
-111.82236 1327.4438 220.40894
-106.49747 1327.4438 220.40894
-101.17258 1327.4438 220.40894
-95.847679 1327.4438 220.40894
-90.522888 1327.4438 220.40894
-85.197998 1327.4438 220.40894
-79.8731 1327.4438 220.40894
-74.54821 1327.4438 220.40894
-69.223312 1327.4438 220.40894
-63.898525 1327.4438 220.40894
-58.573627 1327.4438 220.40894
-53.248734 1327.4438 220.40894
-47.92384 1327.4438 220.40894
-42.977669 1319.5087 246.37256
-37.605534 1319.5087 246.37256
-32.233299 1319.5087 246.37256
-26.861067 1319.5087 246.37256
-21.488834 1319.5087 246.37256
-16.26388 1311.2798 273.29761
-10.940842 1303.0508 300.22241
-5.4704208 1303.0508 300.22241
0 1311.2798 273.29761
5.4212241 1311.2798 273.29761
10.842655 1311.2798 273.29761
16.26388 1311.2798 273.29761
21.488937 1319.5087 246.37256
26.861067 1319.5087 246.37256
32.233196 1319.5087 246.37256
37.605534 1319.5087 246.37256
43.370415 1311.2798 273.29761
48.791843 1311.2798 273.29761
54.704002 1303.0508 300.22241
60.174316 1303.0508 300.22241
65.644844 1303.0508 300.22241
71.115158 1303.0508 300.22241
76.585686 1303.0508 300.22241
82.056 1303.0508 300.22241
87.526314 1303.0508 300.22241
93.861237 1294.5277 328.10938
99.382401 1294.5277 328.10938
104.90378 1294.5277 328.10938
110.42493 1294.5277 328.10938
115.9461 1294.5277 328.10938
121.46747 1294.5277 328.10938
126.98864 1294.5277 328.10938
132.51001 1294.5277 328.10938
138.03117 1294.5277 328.10938
143.55234 1294.5277 328.10938
149.07372 1294.5277 328.10938
154.59486 1294.5277 328.10938
160.11624 1294.5277 328.10938
165.63741 1294.5277 328.10938
171.15857 1294.5277 328.10938
176.67995 1294.5277 328.10938
183.87904 1286.0048 355.99585
189.45126 1286.0048 355.99585
195.02327 1286.0048 355.99585
-205.82379 1330.521 192.38354
-200.54623 1330.521 192.38354
-197.02036 1322.5424 218.32837
-191.69547 1322.5424 218.32837
-188.02748 1314.5636 244.27344
-184.32442 1306.2894 271.1792
-178.90309 1306.2894 271.1792
-171.91087 1314.5636 244.27344
-166.53865 1314.5636 244.27344
-162.63921 1306.2894 271.1792
-157.21788 1306.2894 271.1792
-151.79655 1306.2894 271.1792
-145.04982 1314.5636 244.27344
-139.67758 1314.5636 244.27344
-134.30534 1314.5636 244.27344
-128.93311 1314.5636 244.27344
-123.56087 1314.5636 244.27344
-118.18874 1314.5636 244.27344
-111.82236 1322.5424 218.32837
-106.49747 1322.5424 218.32837
-101.17258 1322.5424 218.32837
-95.847679 1322.5424 218.32837
-90.522888 1322.5424 218.32837
-85.197998 1322.5424 218.32837
-79.8731 1322.5424 218.32837
-73.885452 1330.521 192.38354
-68.607895 1330.521 192.38354
-63.898525 1322.5424 218.32837
-58.573627 1322.5424 218.32837
-53.248734 1322.5424 218.32837
-47.92384 1322.5424 218.32837
-42.598946 1322.5424 218.32837
-37.605534 1314.5636 244.27344
-32.233299 1314.5636 244.27344
-26.861067 1314.5636 244.27344
-21.488834 1314.5636 244.27344
-16.26388 1306.2894 271.1792
-10.940842 1298.0151 298.08496
-5.4704208 1298.0151 298.08496
0 1298.0151 298.08496
5.4212241 1306.2894 271.1792
10.842655 1306.2894 271.1792
16.26388 1306.2894 271.1792
21.488937 1314.5636 244.27344
26.861067 1314.5636 244.27344
32.233196 1314.5636 244.27344
37.605534 1314.5636 244.27344
42.977669 1314.5636 244.27344
48.791843 1306.2894 271.1792
54.704002 1298.0151 298.08496
60.174316 1298.0151 298.08496
65.644844 1298.0151 298.08496
71.115158 1298.0151 298.08496
76.585686 1298.0151 298.08496
82.056 1298.0151 298.08496
87.526314 1298.0151 298.08496
93.861237 1289.4453 325.9519
99.382401 1289.4453 325.9519
104.90378 1289.4453 325.9519
110.42493 1289.4453 325.9519
115.9461 1289.4453 325.9519
121.46747 1289.4453 325.9519
126.98864 1289.4453 325.9519
132.51001 1289.4453 325.9519
138.03117 1289.4453 325.9519
143.55234 1289.4453 325.9519
149.07372 1289.4453 325.9519
154.59486 1289.4453 325.9519
160.11624 1289.4453 325.9519
165.63741 1289.4453 325.9519
171.15857 1289.4453 325.9519
178.30704 1280.8757 353.81885
183.87904 1280.8757 353.81885
189.45126 1280.8757 353.81885
195.02327 1280.8757 353.81885
-214.88853 1309.6184 242.17432
-207.67004 1317.6409 216.2478
-202.34515 1317.6409 216.2478
-198.77194 1309.6184 242.17432
-193.3997 1309.6184 242.17432
-188.02748 1309.6184 242.17432
-184.32442 1301.2991 269.06104
-178.90309 1301.2991 269.06104
-171.91087 1309.6184 242.17432
-166.53865 1309.6184 242.17432
-162.63921 1301.2991 269.06104
-157.21788 1301.2991 269.06104
-151.79655 1301.2991 269.06104
-145.04982 1309.6184 242.17432
-139.67758 1309.6184 242.17432
-134.30534 1309.6184 242.17432
-128.93311 1309.6184 242.17432
-123.56087 1309.6184 242.17432
-118.18874 1309.6184 242.17432
-111.82236 1317.6409 216.2478
-106.49747 1317.6409 216.2478
-101.17258 1317.6409 216.2478
-95.847679 1317.6409 216.2478
-90.522888 1317.6409 216.2478
-85.197998 1317.6409 216.2478
-79.8731 1317.6409 216.2478
-73.885452 1325.6631 190.32129
-68.607895 1325.6631 190.32129
-63.898525 1317.6409 216.2478
-58.573627 1317.6409 216.2478
-53.248734 1317.6409 216.2478
-47.92384 1317.6409 216.2478
-42.598946 1317.6409 216.2478
-37.605534 1309.6184 242.17432
-32.233299 1309.6184 242.17432
-26.861067 1309.6184 242.17432
-21.685207 1301.2991 269.06104
-16.26388 1301.2991 269.06104
-10.940842 1292.9797 295.94751
-5.4704208 1292.9797 295.94751
0 1292.9797 295.94751
5.4212241 1301.2991 269.06104
10.842655 1301.2991 269.06104
16.116598 1309.6184 242.17432
21.488937 1309.6184 242.17432
26.861067 1309.6184 242.17432
32.233196 1309.6184 242.17432
37.605534 1309.6184 242.17432
42.977669 1309.6184 242.17432
48.791843 1301.2991 269.06104
54.704002 1292.9797 295.94751
60.174316 1292.9797 295.94751
65.644844 1292.9797 295.94751
71.115158 1292.9797 295.94751
76.585686 1292.9797 295.94751
82.056 1292.9797 295.94751
87.526314 1292.9797 295.94751
93.861237 1284.363 323.79468
99.382401 1284.363 323.79468
104.90378 1284.363 323.79468
110.42493 1284.363 323.79468
115.9461 1284.363 323.79468
121.46747 1284.363 323.79468
126.98864 1284.363 323.79468
132.51001 1284.363 323.79468
138.03117 1284.363 323.79468
143.55234 1284.363 323.79468
149.07372 1284.363 323.79468
154.59486 1284.363 323.79468
160.11624 1284.363 323.79468
165.63741 1284.363 323.79468
171.15857 1284.363 323.79468
176.67995 1284.363 323.79468
183.87904 1275.7466 351.6416
189.45126 1275.7466 351.6416
195.02327 1275.7466 351.6416
200.59528 1275.7466 351.6416
-214.88853 1304.6733 240.0752
-209.5163 1304.6733 240.0752
-204.14407 1304.6733 240.0752
-198.77194 1304.6733 240.0752
-193.3997 1304.6733 240.0752
-188.02748 1304.6733 240.0752
-184.32442 1296.3087 266.94287
-178.90309 1296.3087 266.94287
-171.91087 1304.6733 240.0752
-166.53865 1304.6733 240.0752
-162.63921 1296.3087 266.94287
-157.21788 1296.3087 266.94287
-151.79655 1296.3087 266.94287
-145.04982 1304.6733 240.0752
-139.67758 1304.6733 240.0752
-134.30534 1304.6733 240.0752
-128.93311 1304.6733 240.0752
-123.56087 1304.6733 240.0752
-117.14725 1312.7393 214.16699
-111.82236 1312.7393 214.16699
-106.49747 1312.7393 214.16699
-101.17258 1312.7393 214.16699
-95.847679 1312.7393 214.16699
-90.522888 1312.7393 214.16699
-85.197998 1312.7393 214.16699
-79.8731 1312.7393 214.16699
-74.54821 1312.7393 214.16699
-69.223312 1312.7393 214.16699
-63.898525 1312.7393 214.16699
-58.573627 1312.7393 214.16699
-53.248734 1312.7393 214.16699
-47.92384 1312.7393 214.16699
-42.598946 1312.7393 214.16699
-37.274155 1312.7393 214.16699
-32.233299 1304.6733 240.0752
-27.106535 1296.3087 266.94287
-21.685207 1296.3087 266.94287
-16.26388 1296.3087 266.94287
-10.940842 1287.9442 293.81006
-5.4704208 1287.9442 293.81006
0 1287.9442 293.81006
5.4212241 1296.3087 266.94287
10.842655 1296.3087 266.94287
16.116598 1304.6733 240.0752
21.488937 1304.6733 240.0752
26.861067 1304.6733 240.0752
32.233196 1304.6733 240.0752
37.605534 1304.6733 240.0752
42.977669 1304.6733 240.0752
48.791843 1296.3087 266.94287
54.704002 1287.9442 293.81006
60.174316 1287.9442 293.81006
65.644844 1287.9442 293.81006
71.115158 1287.9442 293.81006
76.585686 1287.9442 293.81006
82.056 1287.9442 293.81006
87.526314 1287.9442 293.81006
93.861237 1279.2808 321.63721
99.382401 1279.2808 321.63721
104.90378 1279.2808 321.63721
110.42493 1279.2808 321.63721
115.9461 1279.2808 321.63721
121.46747 1279.2808 321.63721
126.98864 1279.2808 321.63721
132.51001 1279.2808 321.63721
138.03117 1279.2808 321.63721
143.55234 1279.2808 321.63721
149.07372 1279.2808 321.63721
154.59486 1279.2808 321.63721
160.11624 1279.2808 321.63721
165.63741 1279.2808 321.63721
171.15857 1279.2808 321.63721
176.67995 1279.2808 321.63721
182.2011 1279.2808 321.63721
187.72247 1279.2808 321.63721
195.02327 1270.6174 349.46436
198.7648 1279.2808 321.63721
204.28618 1279.2808 321.63721
211.73952 1270.6174 349.46436
-222.27361 1291.3184 264.82446
-214.88853 1299.7281 237.97607
-209.5163 1299.7281 237.97607
-204.14407 1299.7281 237.97607
-198.77194 1299.7281 237.97607
-193.3997 1299.7281 237.97607
-188.02748 1299.7281 237.97607
-184.32442 1291.3184 264.82446
-178.90309 1291.3184 264.82446
-173.48186 1291.3184 264.82446
-168.06053 1291.3184 264.82446
-162.63921 1291.3184 264.82446
-157.21788 1291.3184 264.82446
-150.42194 1299.7281 237.97607
-145.04982 1299.7281 237.97607
-138.44673 1307.8376 212.08643
-133.12184 1307.8376 212.08643
-128.93311 1299.7281 237.97607
-123.56087 1299.7281 237.97607
-117.14725 1307.8376 212.08643
-111.82236 1307.8376 212.08643
-106.49747 1307.8376 212.08643
-101.17258 1307.8376 212.08643
-95.847679 1307.8376 212.08643
-90.522888 1307.8376 212.08643
-85.197998 1307.8376 212.08643
-80.583206 1299.7281 237.97607
-74.54821 1307.8376 212.08643
-69.223312 1307.8376 212.08643
-63.898525 1307.8376 212.08643
-58.573627 1307.8376 212.08643
-53.248734 1307.8376 212.08643
-47.92384 1307.8376 212.08643
-42.598946 1307.8376 212.08643
-37.274155 1307.8376 212.08643
-32.233299 1299.7281 237.97607
-26.861067 1299.7281 237.97607
-21.488834 1299.7281 237.97607
-16.116598 1299.7281 237.97607
-10.940842 1282.9087 291.67261
-5.4704208 1282.9087 291.67261
0 1282.9087 291.67261
5.4212241 1291.3184 264.82446
10.842655 1291.3184 264.82446
16.26388 1291.3184 264.82446
21.488937 1299.7281 237.97607
26.861067 1299.7281 237.97607
32.233196 1299.7281 237.97607
37.605534 1299.7281 237.97607
42.977669 1299.7281 237.97607
48.791843 1291.3184 264.82446
54.704002 1282.9087 291.67261
60.174316 1282.9087 291.67261
65.644844 1282.9087 291.67261
71.115158 1282.9087 291.67261
76.585686 1282.9087 291.67261
82.056 1282.9087 291.67261
87.526314 1282.9087 291.67261
92.996849 1282.9087 291.67261
99.382401 1274.1984 319.47998
103.93769 1282.9087 291.67261
109.408 1282.9087 291.67261
114.87832 1282.9087 291.67261
121.46747 1274.1984 319.47998
126.98864 1274.1984 319.47998
132.51001 1274.1984 319.47998
138.03117 1274.1984 319.47998
143.55234 1274.1984 319.47998
149.07372 1274.1984 319.47998
154.59486 1274.1984 319.47998
160.11624 1274.1984 319.47998
165.63741 1274.1984 319.47998
171.15857 1274.1984 319.47998
176.67995 1274.1984 319.47998
182.2011 1274.1984 319.47998
187.72247 1274.1984 319.47998
195.02327 1265.4883 347.28711
198.7648 1274.1984 319.47998
204.28618 1274.1984 319.47998
211.73952 1265.4883 347.28711
-222.27361 1286.328 262.7063
-214.88853 1294.783 235.87695
-209.5163 1294.783 235.87695
-204.14407 1294.783 235.87695
-198.77194 1294.783 235.87695
-193.3997 1294.783 235.87695
-188.02748 1294.783 235.87695
-182.65524 1294.783 235.87695
-177.283 1294.783 235.87695
-171.91087 1294.783 235.87695
-166.53865 1294.783 235.87695
-161.16641 1294.783 235.87695
-155.79417 1294.783 235.87695
-150.42194 1294.783 235.87695
-145.04982 1294.783 235.87695
-138.44673 1302.936 210.00586
-133.12184 1302.936 210.00586
-128.93311 1294.783 235.87695
-123.56087 1294.783 235.87695
-117.14725 1302.936 210.00586
-111.82236 1302.936 210.00586
-107.44427 1294.783 235.87695
-101.17258 1302.936 210.00586
-95.847679 1302.936 210.00586
-91.327667 1294.783 235.87695
-85.955437 1294.783 235.87695
-80.583206 1294.783 235.87695
-74.54821 1302.936 210.00586
-69.223312 1302.936 210.00586
-63.898525 1302.936 210.00586
-58.573627 1302.936 210.00586
-53.248734 1302.936 210.00586
-47.92384 1302.936 210.00586
-42.598946 1302.936 210.00586
-37.274155 1302.936 210.00586
-31.949263 1302.936 210.00586
-26.861067 1294.783 235.87695
-21.488834 1294.783 235.87695
-16.116598 1294.783 235.87695
-10.842655 1286.328 262.7063
-5.4213276 1286.328 262.7063
0 1286.328 262.7063
5.4212241 1286.328 262.7063
10.842655 1286.328 262.7063
16.26388 1286.328 262.7063
21.68531 1286.328 262.7063
27.106535 1286.328 262.7063
32.233196 1294.783 235.87695
37.605534 1294.783 235.87695
42.977669 1294.783 235.87695
48.791843 1286.328 262.7063
54.21307 1286.328 262.7063
59.634293 1286.328 262.7063
65.644844 1277.873 289.53516
71.115158 1277.873 289.53516
76.585686 1277.873 289.53516
82.056 1277.873 289.53516
87.526314 1277.873 289.53516
92.996849 1277.873 289.53516
99.382401 1269.1161 317.32275
103.93769 1277.873 289.53516
109.408 1277.873 289.53516
114.87832 1277.873 289.53516
121.46747 1269.1161 317.32275
126.98864 1269.1161 317.32275
132.51001 1269.1161 317.32275
138.03117 1269.1161 317.32275
143.55234 1269.1161 317.32275
149.07372 1269.1161 317.32275
154.59486 1269.1161 317.32275
160.11624 1269.1161 317.32275
165.63741 1269.1161 317.32275
171.15857 1269.1161 317.32275
176.67995 1269.1161 317.32275
182.2011 1269.1161 317.32275
187.72247 1269.1161 317.32275
195.02327 1260.3591 345.10986
200.59528 1260.3591 345.10986
206.16751 1260.3591 345.10986
211.73952 1260.3591 345.10986
-235.22717 1272.8375 287.39771
-227.69493 1281.3376 260.58789
-222.27361 1281.3376 260.58789
-216.85228 1281.3376 260.58789
-209.5163 1289.8379 233.77783
-204.14407 1289.8379 233.77783
-198.77194 1289.8379 233.77783
-193.3997 1289.8379 233.77783
-188.02748 1289.8379 233.77783
-182.65524 1289.8379 233.77783
-177.283 1289.8379 233.77783
-171.91087 1289.8379 233.77783
-166.53865 1289.8379 233.77783
-161.16641 1289.8379 233.77783
-155.79417 1289.8379 233.77783
-150.42194 1289.8379 233.77783
-143.77162 1298.0345 207.92529
-138.44673 1298.0345 207.92529
-133.12184 1298.0345 207.92529
-127.79694 1298.0345 207.92529
-123.56087 1289.8379 233.77783
-118.18874 1289.8379 233.77783
-112.81651 1289.8379 233.77783
-107.44427 1289.8379 233.77783
-101.17258 1298.0345 207.92529
-95.847679 1298.0345 207.92529
-91.327667 1289.8379 233.77783
-85.955437 1289.8379 233.77783
-80.583206 1289.8379 233.77783
-74.54821 1298.0345 207.92529
-69.223312 1298.0345 207.92529
-63.898525 1298.0345 207.92529
-58.573627 1298.0345 207.92529
-53.248734 1298.0345 207.92529
-47.49778 1306.2311 182.073
-42.22023 1306.2311 182.073
-37.274155 1298.0345 207.92529
-31.949263 1298.0345 207.92529
-26.861067 1289.8379 233.77783
-21.488834 1289.8379 233.77783
-16.116598 1289.8379 233.77783
-10.842655 1281.3376 260.58789
-5.4213276 1281.3376 260.58789
0 1281.3376 260.58789
5.4212241 1281.3376 260.58789
10.842655 1281.3376 260.58789
16.26388 1281.3376 260.58789
21.68531 1281.3376 260.58789
27.106535 1281.3376 260.58789
32.233196 1289.8379 233.77783
37.605534 1289.8379 233.77783
42.977669 1289.8379 233.77783
48.791843 1281.3376 260.58789
54.21307 1281.3376 260.58789
59.634293 1281.3376 260.58789
65.644844 1272.8375 287.39771
71.115158 1272.8375 287.39771
76.585686 1272.8375 287.39771
82.056 1272.8375 287.39771
87.526314 1272.8375 287.39771
92.996849 1272.8375 287.39771
98.467163 1272.8375 287.39771
103.93769 1272.8375 287.39771
109.408 1272.8375 287.39771
114.87832 1272.8375 287.39771
121.46747 1264.0337 315.16528
126.98864 1264.0337 315.16528
132.51001 1264.0337 315.16528
138.03117 1264.0337 315.16528
143.55234 1264.0337 315.16528
149.07372 1264.0337 315.16528
154.59486 1264.0337 315.16528
160.11624 1264.0337 315.16528
165.63741 1264.0337 315.16528
171.15857 1264.0337 315.16528
176.67995 1264.0337 315.16528
182.2011 1264.0337 315.16528
187.72247 1264.0337 315.16528
195.02327 1255.23 342.93286
200.59528 1255.23 342.93286
206.16751 1255.23 342.93286
211.73952 1255.23 342.93286
221.41454 1237.0154 400.38257
-235.22717 1267.802 285.26025
-227.69493 1276.3474 258.46973
-222.27361 1276.3474 258.46973
-216.85228 1276.3474 258.46973
-209.5163 1284.8927 231.67896
-204.14407 1284.8927 231.67896
-198.77194 1284.8927 231.67896
-193.3997 1284.8927 231.67896
-188.02748 1284.8927 231.67896
-182.65524 1284.8927 231.67896
-177.283 1284.8927 231.67896
-171.91087 1284.8927 231.67896
-166.53865 1284.8927 231.67896
-161.16641 1284.8927 231.67896
-155.79417 1284.8927 231.67896
-149.09642 1293.1329 205.84473
-143.77162 1293.1329 205.84473
-138.44673 1293.1329 205.84473
-133.12184 1293.1329 205.84473
-127.79694 1293.1329 205.84473
-122.47205 1293.1329 205.84473
-117.14725 1293.1329 205.84473
-112.81651 1284.8927 231.67896
-107.44427 1284.8927 231.67896
-101.17258 1293.1329 205.84473
-95.847679 1293.1329 205.84473
-91.327667 1284.8927 231.67896
-85.955437 1284.8927 231.67896
-80.583206 1284.8927 231.67896
-74.54821 1293.1329 205.84473
-69.223312 1293.1329 205.84473
-63.898525 1293.1329 205.84473
-58.573627 1293.1329 205.84473
-53.248734 1293.1329 205.84473
-47.49778 1301.373 180.01074
-42.22023 1301.373 180.01074
-37.274155 1293.1329 205.84473
-31.949263 1293.1329 205.84473
-26.861067 1284.8927 231.67896
-21.488834 1284.8927 231.67896
-16.116598 1284.8927 231.67896
-10.842655 1276.3474 258.46973
-5.4213276 1276.3474 258.46973
0 1276.3474 258.46973
5.4212241 1276.3474 258.46973
10.842655 1276.3474 258.46973
16.26388 1276.3474 258.46973
21.68531 1276.3474 258.46973
27.106535 1276.3474 258.46973
32.233196 1284.8927 231.67896
37.605534 1284.8927 231.67896
42.977669 1284.8927 231.67896
48.791843 1276.3474 258.46973
54.21307 1276.3474 258.46973
59.634293 1276.3474 258.46973
65.644844 1267.802 285.26025
71.115158 1267.802 285.26025
76.585686 1267.802 285.26025
82.056 1267.802 285.26025
87.526314 1267.802 285.26025
92.996849 1267.802 285.26025
98.467163 1267.802 285.26025
103.93769 1267.802 285.26025
109.408 1267.802 285.26025
114.87832 1267.802 285.26025
121.46747 1258.9514 313.00806
126.98864 1258.9514 313.00806
132.51001 1258.9514 313.00806
138.03117 1258.9514 313.00806
143.55234 1258.9514 313.00806
149.07372 1258.9514 313.00806
154.59486 1258.9514 313.00806
160.11624 1258.9514 313.00806
165.63741 1258.9514 313.00806
171.15857 1258.9514 313.00806
176.67995 1258.9514 313.00806
182.2011 1258.9514 313.00806
187.72247 1258.9514 313.00806
195.02327 1250.1008 340.75562
200.59528 1250.1008 340.75562
206.16751 1250.1008 340.75562
211.73952 1250.1008 340.75562
219.36314 1240.9451 369.46021
-238.53748 1271.3569 256.35132
-233.11615 1271.3569 256.35132
-227.69493 1271.3569 256.35132
-222.27361 1271.3569 256.35132
-214.88853 1279.9475 229.57959
-209.5163 1279.9475 229.57959
-204.14407 1279.9475 229.57959
-198.77194 1279.9475 229.57959
-193.3997 1279.9475 229.57959
-188.02748 1279.9475 229.57959
-182.65524 1279.9475 229.57959
-177.283 1279.9475 229.57959
-171.91087 1279.9475 229.57959
-166.53865 1279.9475 229.57959
-161.16641 1279.9475 229.57959
-154.42131 1288.2313 203.76416
-149.09642 1288.2313 203.76416
-143.77162 1288.2313 203.76416
-138.44673 1288.2313 203.76416
-133.12184 1288.2313 203.76416
-127.79694 1288.2313 203.76416
-122.47205 1288.2313 203.76416
-117.14725 1288.2313 203.76416
-112.81651 1279.9475 229.57959
-107.44427 1279.9475 229.57959
-101.17258 1288.2313 203.76416
-95.847679 1288.2313 203.76416
-91.327667 1279.9475 229.57959
-85.955437 1279.9475 229.57959
-80.583206 1279.9475 229.57959
-75.210968 1279.9475 229.57959
-69.223312 1288.2313 203.76416
-63.898525 1288.2313 203.76416
-58.573627 1288.2313 203.76416
-53.248734 1288.2313 203.76416
-47.49778 1296.515 177.94873
-42.22023 1296.515 177.94873
-36.942772 1296.515 177.94873
-31.949263 1288.2313 203.76416
-26.624367 1288.2313 203.76416
-21.488834 1279.9475 229.57959
-16.116598 1279.9475 229.57959
-10.842655 1271.3569 256.35132
-5.4213276 1271.3569 256.35132
0 1271.3569 256.35132
5.4212241 1271.3569 256.35132
10.842655 1271.3569 256.35132
16.26388 1271.3569 256.35132
21.68531 1271.3569 256.35132
27.106535 1271.3569 256.35132
32.233196 1279.9475 229.57959
37.605534 1279.9475 229.57959
42.977669 1279.9475 229.57959
48.791843 1271.3569 256.35132
54.21307 1271.3569 256.35132
59.634293 1271.3569 256.35132
65.055725 1271.3569 256.35132
70.476952 1271.3569 256.35132
76.585686 1262.7665 283.1228
82.056 1262.7665 283.1228
87.526314 1262.7665 283.1228
92.996849 1262.7665 283.1228
98.467163 1262.7665 283.1228
103.93769 1262.7665 283.1228
109.408 1262.7665 283.1228
114.87832 1262.7665 283.1228
120.34885 1262.7665 283.1228
125.81916 1262.7665 283.1228
132.51001 1253.869 310.85059
138.03117 1253.869 310.85059
143.55234 1253.869 310.85059
149.07372 1253.869 310.85059
154.59486 1253.869 310.85059
160.11624 1253.869 310.85059
165.63741 1253.869 310.85059
171.15857 1253.869 310.85059
176.67995 1253.869 310.85059
182.2011 1253.869 310.85059
187.72247 1253.869 310.85059
195.02327 1244.9717 338.57837
200.59528 1244.9717 338.57837
206.16751 1244.9717 338.57837
211.73952 1244.9717 338.57837
219.36314 1235.7675 367.26245
227.09174 1226.5634 395.94604
-236.37737 1275.0023 227.48071
-231.00513 1275.0023 227.48071
-225.63301 1275.0023 227.48071
-220.26077 1275.0023 227.48071
-214.88853 1275.0023 227.48071
-209.5163 1275.0023 227.48071
-204.14407 1275.0023 227.48071
-198.77194 1275.0023 227.48071
-193.3997 1275.0023 227.48071
-188.02748 1275.0023 227.48071
-181.04568 1283.3297 201.68359
-175.72078 1283.3297 201.68359
-170.396 1283.3297 201.68359
-166.53865 1275.0023 227.48071
-159.7462 1283.3297 201.68359
-154.42131 1283.3297 201.68359
-149.09642 1283.3297 201.68359
-143.77162 1283.3297 201.68359
-138.44673 1283.3297 201.68359
-133.12184 1283.3297 201.68359
-127.79694 1283.3297 201.68359
-122.47205 1283.3297 201.68359
-117.14725 1283.3297 201.68359
-112.81651 1275.0023 227.48071
-107.44427 1275.0023 227.48071
-101.17258 1283.3297 201.68359
-95.847679 1283.3297 201.68359
-91.327667 1275.0023 227.48071
-85.955437 1275.0023 227.48071
-80.583206 1275.0023 227.48071
-74.54821 1283.3297 201.68359
-69.223312 1283.3297 201.68359
-63.898525 1283.3297 201.68359
-58.573627 1283.3297 201.68359
-53.248734 1283.3297 201.68359
-47.49778 1291.657 175.88672
-42.22023 1291.657 175.88672
-36.942772 1291.657 175.88672
-31.949263 1283.3297 201.68359
-26.624367 1283.3297 201.68359
-21.299473 1283.3297 201.68359
-15.97458 1283.3297 201.68359
-10.842655 1266.3667 254.23315
-5.4213276 1266.3667 254.23315
0 1266.3667 254.23315
5.4212241 1266.3667 254.23315
10.842655 1266.3667 254.23315
16.26388 1266.3667 254.23315
21.68531 1266.3667 254.23315
27.106535 1266.3667 254.23315
32.52776 1266.3667 254.23315
37.949188 1266.3667 254.23315
43.370415 1266.3667 254.23315
48.791843 1266.3667 254.23315
54.21307 1266.3667 254.23315
59.634293 1266.3667 254.23315
65.055725 1266.3667 254.23315
70.476952 1266.3667 254.23315
76.585686 1257.731 280.98535
82.056 1257.731 280.98535
87.526314 1257.731 280.98535
92.996849 1257.731 280.98535
98.467163 1257.731 280.98535
103.93769 1257.731 280.98535
109.408 1257.731 280.98535
114.87832 1257.731 280.98535
120.34885 1257.731 280.98535
125.81916 1257.731 280.98535
132.51001 1248.7866 308.69336
138.03117 1248.7866 308.69336
143.55234 1248.7866 308.69336
149.07372 1248.7866 308.69336
154.59486 1248.7866 308.69336
160.11624 1248.7866 308.69336
165.63741 1248.7866 308.69336
171.15857 1248.7866 308.69336
176.67995 1248.7866 308.69336
182.2011 1248.7866 308.69336
187.72247 1248.7866 308.69336
195.02327 1239.8425 336.40112
200.59528 1239.8425 336.40112
206.16751 1239.8425 336.40112
211.73952 1239.8425 336.40112
215.3287 1248.7866 308.69336
220.84987 1248.7866 308.69336
226.37105 1248.7866 308.69336
-236.37737 1270.0571 225.38159
-231.00513 1270.0571 225.38159
-225.63301 1270.0571 225.38159
-220.26077 1270.0571 225.38159
-214.88853 1270.0571 225.38159
-209.5163 1270.0571 225.38159
-204.14407 1270.0571 225.38159
-198.77194 1270.0571 225.38159
-193.3997 1270.0571 225.38159
-186.37057 1278.4282 199.60303
-181.04568 1278.4282 199.60303
-175.72078 1278.4282 199.60303
-170.396 1278.4282 199.60303
-165.07111 1278.4282 199.60303
-159.7462 1278.4282 199.60303
-154.42131 1278.4282 199.60303
-149.09642 1278.4282 199.60303
-143.77162 1278.4282 199.60303
-138.44673 1278.4282 199.60303
-133.12184 1278.4282 199.60303
-127.79694 1278.4282 199.60303
-122.47205 1278.4282 199.60303
-118.18874 1270.0571 225.38159
-112.81651 1270.0571 225.38159
-107.44427 1270.0571 225.38159
-101.17258 1278.4282 199.60303
-95.847679 1278.4282 199.60303
-90.522888 1278.4282 199.60303
-85.197998 1278.4282 199.60303
-79.8731 1278.4282 199.60303
-74.54821 1278.4282 199.60303
-69.223312 1278.4282 199.60303
-63.898525 1278.4282 199.60303
-58.573627 1278.4282 199.60303
-53.248734 1278.4282 199.60303
-47.49778 1286.7991 173.82446
-42.22023 1286.7991 173.82446
-36.942772 1286.7991 173.82446
-31.949263 1278.4282 199.60303
-26.624367 1278.4282 199.60303
-21.299473 1278.4282 199.60303
-15.97458 1278.4282 199.60303
-10.842655 1261.3763 252.11475
-5.4213276 1261.3763 252.11475
0 1261.3763 252.11475
5.4212241 1261.3763 252.11475
10.842655 1261.3763 252.11475
16.26388 1261.3763 252.11475
21.68531 1261.3763 252.11475
27.106535 1261.3763 252.11475
32.52776 1261.3763 252.11475
37.949188 1261.3763 252.11475
43.370415 1261.3763 252.11475
48.791843 1261.3763 252.11475
54.21307 1261.3763 252.11475
59.634293 1261.3763 252.11475
65.055725 1261.3763 252.11475
70.476952 1261.3763 252.11475
75.898376 1261.3763 252.11475
81.319603 1261.3763 252.11475
86.740829 1261.3763 252.11475
92.996849 1252.6954 278.8479
98.467163 1252.6954 278.8479
103.93769 1252.6954 278.8479
109.408 1252.6954 278.8479
114.87832 1252.6954 278.8479
120.34885 1252.6954 278.8479
125.81916 1252.6954 278.8479
132.51001 1243.7043 306.53613
138.03117 1243.7043 306.53613
143.55234 1243.7043 306.53613
149.07372 1243.7043 306.53613
154.59486 1243.7043 306.53613
160.11624 1243.7043 306.53613
165.63741 1243.7043 306.53613
171.15857 1243.7043 306.53613
176.67995 1243.7043 306.53613
182.2011 1243.7043 306.53613
187.72247 1243.7043 306.53613
195.02327 1234.7134 334.22412
200.59528 1234.7134 334.22412
206.16751 1234.7134 334.22412
211.73952 1234.7134 334.22412
215.3287 1243.7043 306.53613
220.84987 1243.7043 306.53613
226.37105 1243.7043 306.53613
-241.7496 1265.1121 223.28247
-236.37737 1265.1121 223.28247
-231.00513 1265.1121 223.28247
-225.63301 1265.1121 223.28247
-222.27361 1256.386 249.99658
-216.85228 1256.386 249.99658
-209.5163 1265.1121 223.28247
-204.14407 1265.1121 223.28247
-198.77194 1265.1121 223.28247
-193.3997 1265.1121 223.28247
-186.37057 1273.5266 197.52246
-181.04568 1273.5266 197.52246
-175.72078 1273.5266 197.52246
-170.396 1273.5266 197.52246
-165.07111 1273.5266 197.52246
-159.7462 1273.5266 197.52246
-154.42131 1273.5266 197.52246
-149.09642 1273.5266 197.52246
-143.77162 1273.5266 197.52246
-138.44673 1273.5266 197.52246
-133.12184 1273.5266 197.52246
-127.79694 1273.5266 197.52246
-122.47205 1273.5266 197.52246
-118.18874 1265.1121 223.28247
-112.81651 1265.1121 223.28247
-107.44427 1265.1121 223.28247
-101.17258 1273.5266 197.52246
-95.847679 1273.5266 197.52246
-90.522888 1273.5266 197.52246
-85.197998 1273.5266 197.52246
-79.8731 1273.5266 197.52246
-74.54821 1273.5266 197.52246
-69.223312 1273.5266 197.52246
-63.898525 1273.5266 197.52246
-58.573627 1273.5266 197.52246
-53.248734 1273.5266 197.52246
-47.49778 1281.941 171.76245
-42.22023 1281.941 171.76245
-36.942772 1281.941 171.76245
-31.949263 1273.5266 197.52246
-26.624367 1273.5266 197.52246
-21.299473 1273.5266 197.52246
-15.97458 1273.5266 197.52246
-10.744469 1265.1121 223.28247
-5.4213276 1256.386 249.99658
0 1256.386 249.99658
5.3721313 1265.1121 223.28247
10.744469 1265.1121 223.28247
16.26388 1256.386 249.99658
21.68531 1256.386 249.99658
27.106535 1256.386 249.99658
32.52776 1256.386 249.99658
37.949188 1256.386 249.99658
43.370415 1256.386 249.99658
48.791843 1256.386 249.99658
54.21307 1256.386 249.99658
59.634293 1256.386 249.99658
65.055725 1256.386 249.99658
70.476952 1256.386 249.99658
75.898376 1256.386 249.99658
81.319603 1256.386 249.99658
86.740829 1256.386 249.99658
92.996849 1247.6599 276.71045
98.467163 1247.6599 276.71045
103.93769 1247.6599 276.71045
109.408 1247.6599 276.71045
114.87832 1247.6599 276.71045
120.34885 1247.6599 276.71045
125.81916 1247.6599 276.71045
131.28969 1247.6599 276.71045
