ply
format ascii 1.0
comment PCL generated
element vertex 1528
property float x
property float y
property float z
element camera 0
property float view_px
property float view_py
property float view_pz
property float x_axisx
property float x_axisy
property float x_axisz
property float y_axisx
property float y_axisy
property float y_axisz
property float z_axisx
property float z_axisy
property float z_axisz
property float focal
property float scalex
property float scaley
property float centerx
property float centery
property int viewportx
property int viewporty
property float k1
property float k2
end_header
76.978279 1143.405 -176.0144
81.789536 1143.405 -176.0144
87.326485 1134.3811 -154.85889
92.17807 1134.3811 -154.85889
97.029472 1134.3811 -154.85889
102.6909 1125.7495 -134.62256
107.58107 1125.7495 -134.62256
112.47104 1125.7495 -134.62256
117.36121 1125.7495 -134.62256
122.25117 1125.7495 -134.62256
127.14114 1125.7495 -134.62256
132.03131 1125.7495 -134.62256
-233.38622 1054.6692 18.800537
-228.19983 1054.6692 18.800537
-223.01344 1054.6692 18.800537
-217.82718 1054.6692 18.800537
-210.84361 1064.5182 -4.1779785
-205.70108 1064.5182 -4.1779785
-200.55853 1064.5182 -4.1779785
-195.41597 1064.5182 -4.1779785
-190.27354 1064.5182 -4.1779785
-183.55298 1074.3672 -27.15625
-178.45427 1074.3672 -27.15625
-173.35556 1074.3672 -27.15625
-168.25684 1074.3672 -27.15625
-161.75557 1084.2162 -50.134766
-155.39621 1093.6711 -72.193848
-150.38341 1093.6711 -72.193848
-145.37061 1093.6711 -72.193848
-140.3578 1093.6711 -72.193848
-134.20894 1103.1261 -94.253174
-129.23822 1103.1261 -94.253174
-124.2675 1103.1261 -94.253174
-119.29678 1103.1261 -94.253174
-114.32607 1103.1261 -94.253174
-109.35544 1103.1261 -94.253174
-104.38472 1103.1261 -94.253174
-99.414001 1103.1261 -94.253174
-94.443283 1103.1261 -94.253174
-89.472572 1103.1261 -94.253174
-84.501938 1103.1261 -94.253174
-79.531219 1103.1261 -94.253174
-74.560501 1103.1261 -94.253174
-69.589783 1103.1261 -94.253174
-64.619064 1103.1261 -94.253174
-59.648441 1103.1261 -94.253174
-54.677719 1103.1261 -94.253174
-49.707001 1103.1261 -94.253174
-44.736286 1103.1261 -94.253174
-39.765564 1103.1261 -94.253174
-34.794941 1103.1261 -94.253174
-29.824221 1103.1261 -94.253174
-24.651867 1112.1871 -115.39307
-19.560167 1121.2483 -136.5332
-14.670103 1121.2483 -136.5332
-9.6223307 1138.9764 -177.89429
-4.8111653 1138.9764 -177.89429
0 1138.9764 -177.89429
4.8110733 1138.9764 -177.89429
9.6223307 1138.9764 -177.89429
14.322945 1147.2496 -197.19629
19.09738 1147.2496 -197.19629
23.871634 1147.2496 -197.19629
28.645889 1147.2496 -197.19629
33.678066 1138.9764 -177.89429
38.48914 1138.9764 -177.89429
43.300396 1138.9764 -177.89429
48.111469 1138.9764 -177.89429
52.922543 1138.9764 -177.89429
57.733799 1138.9764 -177.89429
62.544872 1138.9764 -177.89429
67.356133 1138.9764 -177.89429
72.772102 1129.9153 -156.75439
77.623505 1129.9153 -156.75439
82.47509 1129.9153 -156.75439
87.326485 1129.9153 -156.75439
92.17807 1129.9153 -156.75439
97.029472 1129.9153 -156.75439
101.88087 1129.9153 -156.75439
106.73246 1129.9153 -156.75439
111.58385 1129.9153 -156.75439
116.43544 1129.9153 -156.75439
121.28683 1129.9153 -156.75439
127.14114 1121.2483 -136.5332
132.03131 1121.2483 -136.5332
-233.38622 1049.895 16.77417
-228.19983 1049.895 16.77417
-223.01344 1049.895 16.77417
-217.82718 1049.895 16.77417
-212.64078 1049.895 16.77417
-207.45441 1049.895 16.77417
-200.55853 1059.7844 -6.1872559
-195.41597 1059.7844 -6.1872559
-190.27354 1059.7844 -6.1872559
-183.55298 1069.6737 -29.148438
-178.45427 1069.6737 -29.148438
-173.35556 1069.6737 -29.148438
-168.25684 1069.6737 -29.148438
-161.75557 1079.5631 -52.109863
-155.39621 1089.0568 -74.152588
-150.38341 1089.0568 -74.152588
-145.37061 1089.0568 -74.152588
-139.17957 1098.5505 -96.195312
-134.20894 1098.5505 -96.195312
-129.23822 1098.5505 -96.195312
-124.2675 1098.5505 -96.195312
-119.29678 1098.5505 -96.195312
-114.32607 1098.5505 -96.195312
-109.35544 1098.5505 -96.195312
-104.38472 1098.5505 -96.195312
-99.414001 1098.5505 -96.195312
-94.443283 1098.5505 -96.195312
-89.472572 1098.5505 -96.195312
-84.501938 1098.5505 -96.195312
-79.531219 1098.5505 -96.195312
-74.560501 1098.5505 -96.195312
-69.589783 1098.5505 -96.195312
-64.619064 1098.5505 -96.195312
-59.648441 1098.5505 -96.195312
-54.677719 1098.5505 -96.195312
-49.707001 1098.5505 -96.195312
-45.115002 1089.0568 -74.152588
-39.765564 1098.5505 -96.195312
-34.794941 1098.5505 -96.195312
-29.824221 1098.5505 -96.195312
-24.651867 1107.6487 -117.31958
-19.721476 1107.6487 -117.31958
-14.670103 1116.7468 -138.44409
-9.7029839 1125.4495 -158.6499
-4.8514919 1125.4495 -158.6499
0 1125.4495 -158.6499
4.8110733 1134.5476 -179.77417
9.6223307 1134.5476 -179.77417
14.433403 1134.5476 -179.77417
19.244661 1134.5476 -179.77417
24.055735 1134.5476 -179.77417
28.866806 1134.5476 -179.77417
33.678066 1134.5476 -179.77417
38.48914 1134.5476 -179.77417
43.300396 1134.5476 -179.77417
48.514736 1125.4495 -158.6499
52.922543 1134.5476 -179.77417
57.733799 1134.5476 -179.77417
62.544872 1134.5476 -179.77417
67.356133 1134.5476 -179.77417
72.772102 1125.4495 -158.6499
77.623505 1125.4495 -158.6499
82.47509 1125.4495 -158.6499
87.326485 1125.4495 -158.6499
92.17807 1125.4495 -158.6499
97.029472 1125.4495 -158.6499
101.88087 1125.4495 -158.6499
106.73246 1125.4495 -158.6499
111.58385 1125.4495 -158.6499
116.43544 1125.4495 -158.6499
121.28683 1125.4495 -158.6499
126.13824 1125.4495 -158.6499
130.98982 1125.4495 -158.6499
-228.19983 1045.121 14.747559
-223.01344 1045.121 14.747559
-217.82718 1045.121 14.747559
-212.64078 1045.121 14.747559
-207.45441 1045.121 14.747559
-200.55853 1055.0508 -8.1965332
-195.41597 1055.0508 -8.1965332
-190.27354 1055.0508 -8.1965332
-183.55298 1064.9805 -31.140625
-178.45427 1064.9805 -31.140625
-173.35556 1064.9805 -31.140625
-168.25684 1064.9805 -31.140625
-161.75557 1074.9102 -54.084961
-155.39621 1084.4425 -76.111084
-150.38341 1084.4425 -76.111084
-145.37061 1084.4425 -76.111084
-139.17957 1093.975 -98.137451
-134.20894 1093.975 -98.137451
-129.23822 1093.975 -98.137451
-124.2675 1093.975 -98.137451
-119.29678 1093.975 -98.137451
-114.32607 1093.975 -98.137451
-109.35544 1093.975 -98.137451
-104.38472 1093.975 -98.137451
-99.414001 1093.975 -98.137451
-94.443283 1093.975 -98.137451
-89.472572 1093.975 -98.137451
-84.501938 1093.975 -98.137451
-79.531219 1093.975 -98.137451
-74.560501 1093.975 -98.137451
-69.589783 1093.975 -98.137451
-64.619064 1093.975 -98.137451
-60.1534 1084.4425 -76.111084
-55.140602 1084.4425 -76.111084
-50.1278 1084.4425 -76.111084
-45.115002 1084.4425 -76.111084
-40.102203 1084.4425 -76.111084
-35.089497 1084.4425 -76.111084
-29.824221 1093.975 -98.137451
-24.8535 1093.975 -98.137451
-19.721476 1103.1104 -119.24609
-14.670103 1112.2456 -140.35474
-9.7029839 1120.9838 -160.54565
-4.8514919 1120.9838 -160.54565
0 1120.9838 -160.54565
4.8110733 1130.119 -181.65405
9.6223307 1130.119 -181.65405
14.433403 1130.119 -181.65405
19.244661 1130.119 -181.65405
24.055735 1130.119 -181.65405
28.866806 1130.119 -181.65405
33.678066 1130.119 -181.65405
38.48914 1130.119 -181.65405
43.300396 1130.119 -181.65405
48.514736 1120.9838 -160.54565
53.366135 1120.9838 -160.54565
58.21772 1120.9838 -160.54565
63.069118 1120.9838 -160.54565
67.356133 1130.119 -181.65405
72.167206 1130.119 -181.65405
77.623505 1120.9838 -160.54565
82.47509 1120.9838 -160.54565
87.326485 1120.9838 -160.54565
92.17807 1120.9838 -160.54565
97.029472 1120.9838 -160.54565
101.88087 1120.9838 -160.54565
106.73246 1120.9838 -160.54565
111.58385 1120.9838 -160.54565
116.43544 1120.9838 -160.54565
121.28683 1120.9838 -160.54565
126.13824 1120.9838 -160.54565
130.98982 1120.9838 -160.54565
-228.19983 1040.3469 12.721191
-223.01344 1040.3469 12.721191
-217.82718 1040.3469 12.721191
-212.64078 1040.3469 12.721191
-205.70108 1050.3169 -10.205811
-200.55853 1050.3169 -10.205811
-195.41597 1050.3169 -10.205811
-188.6517 1060.287 -33.133057
-183.55298 1060.287 -33.133057
-178.45427 1060.287 -33.133057
-173.35556 1060.287 -33.133057
-168.25684 1060.287 -33.133057
-161.75557 1070.2571 -56.060059
-155.39621 1079.8281 -78.069824
-150.38341 1079.8281 -78.069824
-145.37061 1079.8281 -78.069824
-140.3578 1079.8281 -78.069824
-134.20894 1089.3994 -100.07959
-129.23822 1089.3994 -100.07959
-124.2675 1089.3994 -100.07959
-119.29678 1089.3994 -100.07959
-114.32607 1089.3994 -100.07959
-109.35544 1089.3994 -100.07959
-104.38472 1089.3994 -100.07959
-99.414001 1089.3994 -100.07959
-94.443283 1089.3994 -100.07959
-89.472572 1089.3994 -100.07959
-84.501938 1089.3994 -100.07959
-79.531219 1089.3994 -100.07959
-74.560501 1089.3994 -100.07959
-69.589783 1089.3994 -100.07959
-65.1661 1079.8281 -78.069824
-60.1534 1079.8281 -78.069824
-55.140602 1079.8281 -78.069824
-50.1278 1079.8281 -78.069824
-45.115002 1079.8281 -78.069824
-40.102203 1079.8281 -78.069824
-35.089497 1079.8281 -78.069824
-30.0767 1079.8281 -78.069824
-25.0639 1079.8281 -78.069824
-19.721476 1098.5718 -121.17261
-14.791082 1098.5718 -121.17261
-9.7801313 1107.7443 -142.26538
-4.8514919 1116.5178 -162.44116
0 1116.5178 -162.44116
4.8513994 1116.5178 -162.44116
9.7029839 1116.5178 -162.44116
14.433403 1125.6903 -183.53394
19.244661 1125.6903 -183.53394
24.055735 1125.6903 -183.53394
28.866806 1125.6903 -183.53394
33.96035 1116.5178 -162.44116
38.48914 1125.6903 -183.53394
43.300396 1125.6903 -183.53394
48.514736 1116.5178 -162.44116
53.366135 1116.5178 -162.44116
58.21772 1116.5178 -162.44116
63.069118 1116.5178 -162.44116
67.356133 1125.6903 -183.53394
72.167206 1125.6903 -183.53394
76.978279 1125.6903 -183.53394
82.47509 1116.5178 -162.44116
87.326485 1116.5178 -162.44116
91.411858 1125.6903 -183.53394
96.222939 1125.6903 -183.53394
101.88087 1116.5178 -162.44116
106.73246 1116.5178 -162.44116
111.58385 1116.5178 -162.44116
116.43544 1116.5178 -162.44116
121.28683 1116.5178 -162.44116
126.13824 1116.5178 -162.44116
130.98982 1116.5178 -162.44116
-226.27116 1045.5833 -12.215332
-221.12862 1045.5833 -12.215332
-215.98618 1045.5833 -12.215332
-210.84361 1045.5833 -12.215332
-205.70108 1045.5833 -12.215332
-198.84903 1055.5938 -35.125244
-193.75031 1055.5938 -35.125244
-188.6517 1055.5938 -35.125244
-183.55298 1055.5938 -35.125244
-176.9201 1065.6041 -58.035156
-171.86523 1065.6041 -58.035156
-166.81035 1065.6041 -58.035156
-161.75557 1065.6041 -58.035156
-155.39621 1075.214 -80.028564
-150.38341 1075.214 -80.028564
-145.37061 1075.214 -80.028564
-140.3578 1075.214 -80.028564
-134.20894 1084.824 -102.02197
-129.23822 1084.824 -102.02197
-124.2675 1084.824 -102.02197
-120.30671 1075.214 -80.028564
-115.29391 1075.214 -80.028564
-110.2812 1075.214 -80.028564
-105.2684 1075.214 -80.028564
-100.2556 1075.214 -80.028564
-95.242805 1075.214 -80.028564
-90.230003 1075.214 -80.028564
-84.501938 1084.824 -102.02197
-79.531219 1084.824 -102.02197
-75.191704 1075.214 -80.028564
-70.178902 1075.214 -80.028564
-65.1661 1075.214 -80.028564
-60.1534 1075.214 -80.028564
-55.140602 1075.214 -80.028564
-50.1278 1075.214 -80.028564
-45.115002 1075.214 -80.028564
-40.102203 1075.214 -80.028564
-35.089497 1075.214 -80.028564
-30.0767 1075.214 -80.028564
-25.0639 1075.214 -80.028564
-19.882782 1084.824 -102.02197
-14.791082 1094.0334 -123.09888
-9.8607845 1094.0334 -123.09888
-4.8900657 1103.243 -144.17603
0 1103.243 -144.17603
4.8899722 1103.243 -144.17603
9.7801313 1103.243 -144.17603
14.554383 1112.0521 -164.33691
19.244661 1121.2617 -185.41382
24.055735 1121.2617 -185.41382
29.108767 1112.0521 -164.33691
33.96035 1112.0521 -164.33691
38.811752 1112.0521 -164.33691
43.663334 1112.0521 -164.33691
48.514736 1112.0521 -164.33691
53.366135 1112.0521 -164.33691
58.21772 1112.0521 -164.33691
63.069118 1112.0521 -164.33691
67.356133 1121.2617 -185.41382
72.167206 1121.2617 -185.41382
76.978279 1121.2617 -185.41382
82.47509 1112.0521 -164.33691
87.326485 1112.0521 -164.33691
91.411858 1121.2617 -185.41382
96.222939 1121.2617 -185.41382
101.88087 1112.0521 -164.33691
106.73246 1112.0521 -164.33691
111.58385 1112.0521 -164.33691
115.4676 1121.2617 -185.41382
120.27867 1121.2617 -185.41382
125.08974 1121.2617 -185.41382
129.901 1121.2617 -185.41382
-231.41371 1040.8495 -14.224609
-226.27116 1040.8495 -14.224609
-221.12862 1040.8495 -14.224609
-215.98618 1040.8495 -14.224609
-210.84361 1040.8495 -14.224609
-203.94774 1050.9003 -37.117432
-198.84903 1050.9003 -37.117432
-193.75031 1050.9003 -37.117432
-188.6517 1050.9003 -37.117432
-183.55298 1050.9003 -37.117432
-176.9201 1060.951 -60.010254
-171.86523 1060.951 -60.010254
-166.81035 1060.951 -60.010254
-161.75557 1060.951 -60.010254
-155.39621 1070.5996 -81.987061
-150.38341 1070.5996 -81.987061
-145.37061 1070.5996 -81.987061
-140.3578 1070.5996 -81.987061
-134.20894 1080.2483 -103.96411
-129.23822 1080.2483 -103.96411
-125.3195 1070.5996 -81.987061
-120.30671 1070.5996 -81.987061
-115.29391 1070.5996 -81.987061
-110.2812 1070.5996 -81.987061
-105.2684 1070.5996 -81.987061
-100.2556 1070.5996 -81.987061
-95.242805 1070.5996 -81.987061
-90.230003 1070.5996 -81.987061
-85.2173 1070.5996 -81.987061
-80.204498 1070.5996 -81.987061
-75.191704 1070.5996 -81.987061
-70.178902 1070.5996 -81.987061
-65.1661 1070.5996 -81.987061
-60.1534 1070.5996 -81.987061
-55.140602 1070.5996 -81.987061
-50.1278 1070.5996 -81.987061
-45.493725 1060.951 -60.010254
-40.438843 1060.951 -60.010254
-35.38406 1060.951 -60.010254
-30.329182 1060.951 -60.010254
-25.0639 1070.5996 -81.987061
-19.882782 1080.2483 -103.96411
-14.912063 1080.2483 -103.96411
-9.8607845 1089.495 -125.02539
-4.9303923 1089.495 -125.02539
0 1089.495 -125.02539
4.8899722 1098.7416 -146.08667
9.7801313 1098.7416 -146.08667
14.554383 1107.5863 -166.23242
19.405968 1107.5863 -166.23242
24.257368 1107.5863 -166.23242
29.108767 1107.5863 -166.23242
33.96035 1107.5863 -166.23242
38.811752 1107.5863 -166.23242
43.663334 1107.5863 -166.23242
48.514736 1107.5863 -166.23242
53.366135 1107.5863 -166.23242
58.21772 1107.5863 -166.23242
63.069118 1107.5863 -166.23242
67.356133 1116.8329 -187.2937
72.167206 1116.8329 -187.2937
77.623505 1107.5863 -166.23242
82.47509 1107.5863 -166.23242
87.326485 1107.5863 -166.23242
91.411858 1116.8329 -187.2937
96.222939 1116.8329 -187.2937
101.88087 1107.5863 -166.23242
106.73246 1107.5863 -166.23242
111.58385 1107.5863 -166.23242
115.4676 1116.8329 -187.2937
120.27867 1116.8329 -187.2937
125.08974 1116.8329 -187.2937
130.98982 1107.5863 -166.23242
-231.41371 1036.1158 -16.233887
-226.27116 1036.1158 -16.233887
-221.12862 1036.1158 -16.233887
-215.98618 1036.1158 -16.233887
-210.84361 1036.1158 -16.233887
-203.94774 1046.2069 -39.109619
-198.84903 1046.2069 -39.109619
-193.75031 1046.2069 -39.109619
-188.6517 1046.2069 -39.109619
-181.97498 1056.2981 -61.985352
-176.9201 1056.2981 -61.985352
-171.86523 1056.2981 -61.985352
-166.81035 1056.2981 -61.985352
-161.75557 1056.2981 -61.985352
-156.70068 1056.2981 -61.985352
-151.64581 1056.2981 -61.985352
-146.59093 1056.2981 -61.985352
-140.3578 1065.9854 -83.945801
-135.34511 1065.9854 -83.945801
-130.33231 1065.9854 -83.945801
-125.3195 1065.9854 -83.945801
-120.30671 1065.9854 -83.945801
-115.29391 1065.9854 -83.945801
-110.2812 1065.9854 -83.945801
-105.2684 1065.9854 -83.945801
-100.2556 1065.9854 -83.945801
-95.242805 1065.9854 -83.945801
-90.230003 1065.9854 -83.945801
-84.501938 1075.6729 -105.90625
-79.531219 1075.6729 -105.90625
-74.560501 1075.6729 -105.90625
-69.589783 1075.6729 -105.90625
-64.619064 1075.6729 -105.90625
-60.1534 1065.9854 -83.945801
-55.140602 1065.9854 -83.945801
-50.1278 1065.9854 -83.945801
-45.493725 1056.2981 -61.985352
-40.102203 1065.9854 -83.945801
-35.089497 1065.9854 -83.945801
-30.329182 1056.2981 -61.985352
-25.274302 1056.2981 -61.985352
-20.051102 1065.9854 -83.945801
-14.912063 1075.6729 -105.90625
-9.9414377 1075.6729 -105.90625
-4.9707189 1075.6729 -105.90625
0 1075.6729 -105.90625
4.9302983 1084.9567 -126.9519
9.8607845 1084.9567 -126.9519
14.670103 1094.2404 -147.99756
19.560263 1094.2404 -147.99756
24.257368 1103.1205 -168.12817
29.108767 1103.1205 -168.12817
33.96035 1103.1205 -168.12817
38.811752 1103.1205 -168.12817
43.663334 1103.1205 -168.12817
48.514736 1103.1205 -168.12817
53.366135 1103.1205 -168.12817
58.21772 1103.1205 -168.12817
63.069118 1103.1205 -168.12817
67.9207 1103.1205 -168.12817
72.772102 1103.1205 -168.12817
77.623505 1103.1205 -168.12817
82.47509 1103.1205 -168.12817
87.326485 1103.1205 -168.12817
92.17807 1103.1205 -168.12817
97.029472 1103.1205 -168.12817
101.88087 1103.1205 -168.12817
106.73246 1103.1205 -168.12817
111.58385 1103.1205 -168.12817
116.43544 1103.1205 -168.12817
121.28683 1103.1205 -168.12817
126.13824 1103.1205 -168.12817
130.98982 1103.1205 -168.12817
-231.41371 1031.3821 -18.243408
-226.27116 1031.3821 -18.243408
-221.12862 1031.3821 -18.243408
-215.98618 1031.3821 -18.243408
-210.84361 1031.3821 -18.243408
-203.94774 1041.5135 -41.101807
-198.84903 1041.5135 -41.101807
-193.75031 1041.5135 -41.101807
-188.6517 1041.5135 -41.101807
-181.97498 1051.645 -63.960449
-176.9201 1051.645 -63.960449
-171.86523 1051.645 -63.960449
-166.81035 1051.645 -63.960449
-161.75557 1051.645 -63.960449
-156.70068 1051.645 -63.960449
-151.64581 1051.645 -63.960449
-146.59093 1051.645 -63.960449
-140.3578 1061.3711 -85.904541
-135.34511 1061.3711 -85.904541
-130.33231 1061.3711 -85.904541
-125.3195 1061.3711 -85.904541
-120.30671 1061.3711 -85.904541
-115.29391 1061.3711 -85.904541
-110.2812 1061.3711 -85.904541
-105.2684 1061.3711 -85.904541
-100.2556 1061.3711 -85.904541
-95.242805 1061.3711 -85.904541
-90.230003 1061.3711 -85.904541
-84.501938 1071.0972 -107.84863
-79.531219 1071.0972 -107.84863
-74.560501 1071.0972 -107.84863
-69.589783 1071.0972 -107.84863
-64.619064 1071.0972 -107.84863
-60.1534 1061.3711 -85.904541
-55.140602 1061.3711 -85.904541
-50.548603 1051.645 -63.960449
-45.493725 1051.645 -63.960449
-40.102203 1061.3711 -85.904541
-35.089497 1061.3711 -85.904541
-30.329182 1051.645 -63.960449
-25.274302 1051.645 -63.960449
-20.051102 1061.3711 -85.904541
-15.038302 1061.3711 -85.904541
-10.025599 1061.3711 -85.904541
-5.0127993 1061.3711 -85.904541
0 1071.0972 -107.84863
4.9302983 1080.4181 -128.87842
9.8607845 1080.4181 -128.87842
14.670103 1089.739 -149.9082
19.560263 1089.739 -149.9082
24.450233 1089.739 -149.9082
29.340206 1089.739 -149.9082
33.96035 1098.6547 -170.02368
38.811752 1098.6547 -170.02368
43.663334 1098.6547 -170.02368
48.514736 1098.6547 -170.02368
53.366135 1098.6547 -170.02368
58.21772 1098.6547 -170.02368
63.069118 1098.6547 -170.02368
67.9207 1098.6547 -170.02368
72.772102 1098.6547 -170.02368
77.623505 1098.6547 -170.02368
82.47509 1098.6547 -170.02368
87.326485 1098.6547 -170.02368
92.17807 1098.6547 -170.02368
97.029472 1098.6547 -170.02368
101.88087 1098.6547 -170.02368
106.73246 1098.6547 -170.02368
111.58385 1098.6547 -170.02368
116.43544 1098.6547 -170.02368
121.28683 1098.6547 -170.02368
126.13824 1098.6547 -170.02368
130.98982 1098.6547 -170.02368
-226.27116 1026.6484 -20.252686
-221.12862 1026.6484 -20.252686
-215.98618 1026.6484 -20.252686
-210.84361 1026.6484 -20.252686
-205.70108 1026.6484 -20.252686
-198.84903 1036.8202 -43.093994
-193.75031 1036.8202 -43.093994
-188.6517 1036.8202 -43.093994
-181.97498 1046.9921 -65.935547
-176.9201 1046.9921 -65.935547
-171.86523 1046.9921 -65.935547
-166.81035 1046.9921 -65.935547
-161.75557 1046.9921 -65.935547
-156.70068 1046.9921 -65.935547
-151.64581 1046.9921 -65.935547
-146.59093 1046.9921 -65.935547
-140.3578 1056.7568 -87.863037
-135.34511 1056.7568 -87.863037
-130.33231 1056.7568 -87.863037
-125.3195 1056.7568 -87.863037
-120.30671 1056.7568 -87.863037
-115.29391 1056.7568 -87.863037
-110.2812 1056.7568 -87.863037
-105.2684 1056.7568 -87.863037
-100.2556 1056.7568 -87.863037
-94.443283 1066.5217 -109.79077
-89.472572 1066.5217 -109.79077
-84.501938 1066.5217 -109.79077
-79.531219 1066.5217 -109.79077
-74.560501 1066.5217 -109.79077
-70.178902 1056.7568 -87.863037
-65.1661 1056.7568 -87.863037
-60.1534 1056.7568 -87.863037
-55.140602 1056.7568 -87.863037
-50.548603 1046.9921 -65.935547
-45.493725 1046.9921 -65.935547
-40.438843 1046.9921 -65.935547
-35.38406 1046.9921 -65.935547
-30.329182 1046.9921 -65.935547
-25.274302 1046.9921 -65.935547
-20.051102 1056.7568 -87.863037
-15.038302 1056.7568 -87.863037
-10.025599 1056.7568 -87.863037
-5.0127993 1056.7568 -87.863037
0 1056.7568 -87.863037
4.970624 1066.5217 -109.79077
9.9414377 1066.5217 -109.79077
14.791082 1075.8798 -130.80469
19.560263 1085.2378 -151.81885
24.450233 1085.2378 -151.81885
29.340206 1085.2378 -151.81885
33.96035 1094.189 -171.91943
38.811752 1094.189 -171.91943
43.663334 1094.189 -171.91943
48.514736 1094.189 -171.91943
53.366135 1094.189 -171.91943
58.21772 1094.189 -171.91943
63.069118 1094.189 -171.91943
67.9207 1094.189 -171.91943
72.772102 1094.189 -171.91943
77.623505 1094.189 -171.91943
82.47509 1094.189 -171.91943
87.326485 1094.189 -171.91943
92.17807 1094.189 -171.91943
97.029472 1094.189 -171.91943
101.88087 1094.189 -171.91943
106.73246 1094.189 -171.91943
111.58385 1094.189 -171.91943
116.43544 1094.189 -171.91943
121.28683 1094.189 -171.91943
126.13824 1094.189 -171.91943
130.98982 1094.189 -171.91943
-226.27116 1021.9147 -22.261963
-221.12862 1021.9147 -22.261963
-215.98618 1021.9147 -22.261963
-210.84361 1021.9147 -22.261963
-205.70108 1021.9147 -22.261963
-198.84903 1032.1268 -45.086182
-193.75031 1032.1268 -45.086182
-188.6517 1032.1268 -45.086182
-183.55298 1032.1268 -45.086182
-176.9201 1042.339 -67.910645
-171.86523 1042.339 -67.910645
-166.81035 1042.339 -67.910645
-163.15823 1032.1268 -45.086182
-158.05951 1032.1268 -45.086182
-152.9608 1032.1268 -45.086182
-147.86209 1032.1268 -45.086182
-141.53606 1042.339 -67.910645
-135.34511 1052.1425 -89.821777
-130.33231 1052.1425 -89.821777
-125.3195 1052.1425 -89.821777
-120.30671 1052.1425 -89.821777
-115.29391 1052.1425 -89.821777
-110.2812 1052.1425 -89.821777
-105.2684 1052.1425 -89.821777
-100.2556 1052.1425 -89.821777
-94.443283 1061.9462 -111.73291
-89.472572 1061.9462 -111.73291
-84.501938 1061.9462 -111.73291
-79.531219 1061.9462 -111.73291
-74.560501 1061.9462 -111.73291
-70.178902 1052.1425 -89.821777
-65.1661 1052.1425 -89.821777
-60.1534 1052.1425 -89.821777
-55.140602 1052.1425 -89.821777
-50.548603 1042.339 -67.910645
-45.493725 1042.339 -67.910645
-40.438843 1042.339 -67.910645
-35.38406 1042.339 -67.910645
-30.329182 1042.339 -67.910645
-25.274302 1042.339 -67.910645
-20.051102 1052.1425 -89.821777
-15.038302 1052.1425 -89.821777
-10.025599 1052.1425 -89.821777
-5.0127993 1052.1425 -89.821777
0 1061.9462 -111.73291
4.9302983 1071.3413 -132.7312
9.8607845 1071.3413 -132.7312
14.791082 1071.3413 -132.7312
19.560263 1080.7365 -153.72949
24.450233 1080.7365 -153.72949
29.340206 1080.7365 -153.72949
33.96035 1089.723 -173.81494
38.811752 1089.723 -173.81494
43.663334 1089.723 -173.81494
48.514736 1089.723 -173.81494
53.366135 1089.723 -173.81494
58.21772 1089.723 -173.81494
63.069118 1089.723 -173.81494
67.9207 1089.723 -173.81494
72.772102 1089.723 -173.81494
77.623505 1089.723 -173.81494
82.47509 1089.723 -173.81494
87.326485 1089.723 -173.81494
92.17807 1089.723 -173.81494
97.029472 1089.723 -173.81494
101.88087 1089.723 -173.81494
106.73246 1089.723 -173.81494
111.58385 1089.723 -173.81494
116.43544 1089.723 -173.81494
121.28683 1089.723 -173.81494
126.13824 1089.723 -173.81494
130.98982 1089.723 -173.81494
-235.43761 996.26599 22.255127
-226.27116 1017.181 -24.27124
-221.12862 1017.181 -24.27124
-215.98618 1017.181 -24.27124
-210.84361 1017.181 -24.27124
-205.70108 1017.181 -24.27124
-198.84903 1027.4335 -47.078369
-193.75031 1027.4335 -47.078369
-188.6517 1027.4335 -47.078369
-183.55298 1027.4335 -47.078369
-176.9201 1037.686 -69.885742
-171.86523 1037.686 -69.885742
-168.25684 1027.4335 -47.078369
-163.15823 1027.4335 -47.078369
-158.05951 1027.4335 -47.078369
-152.9608 1027.4335 -47.078369
-147.86209 1027.4335 -47.078369
-141.53606 1037.686 -69.885742
-136.48126 1037.686 -69.885742
-130.33231 1047.5282 -91.780273
-125.3195 1047.5282 -91.780273
-120.30671 1047.5282 -91.780273
-114.32607 1057.3706 -113.67505
-109.35544 1057.3706 -113.67505
-105.2684 1047.5282 -91.780273
-99.414001 1057.3706 -113.67505
-94.443283 1057.3706 -113.67505
-89.472572 1057.3706 -113.67505
-84.501938 1057.3706 -113.67505
-79.531219 1057.3706 -113.67505
-74.560501 1057.3706 -113.67505
-70.178902 1047.5282 -91.780273
-65.1661 1047.5282 -91.780273
-60.1534 1047.5282 -91.780273
-55.140602 1047.5282 -91.780273
-50.548603 1037.686 -69.885742
-45.493725 1037.686 -69.885742
-40.438843 1037.686 -69.885742
-35.38406 1037.686 -69.885742
-30.329182 1037.686 -69.885742
-25.274302 1037.686 -69.885742
-20.051102 1047.5282 -91.780273
-15.038302 1047.5282 -91.780273
-10.025599 1047.5282 -91.780273
-4.9707189 1057.3706 -113.67505
0 1057.3706 -113.67505
4.9302983 1066.8029 -134.65771
9.8607845 1066.8029 -134.65771
14.670103 1076.2351 -155.64014
19.560263 1076.2351 -155.64014
24.450233 1076.2351 -155.64014
29.340206 1076.2351 -155.64014
34.230366 1076.2351 -155.64014
38.811752 1085.2573 -175.71069
43.663334 1085.2573 -175.71069
48.514736 1085.2573 -175.71069
53.366135 1085.2573 -175.71069
58.21772 1085.2573 -175.71069
63.069118 1085.2573 -175.71069
67.9207 1085.2573 -175.71069
72.772102 1085.2573 -175.71069
77.623505 1085.2573 -175.71069
82.47509 1085.2573 -175.71069
87.326485 1085.2573 -175.71069
92.17807 1085.2573 -175.71069
97.029472 1085.2573 -175.71069
101.88087 1085.2573 -175.71069
106.73246 1085.2573 -175.71069
111.58385 1085.2573 -175.71069
117.36121 1076.2351 -155.64014
121.28683 1085.2573 -175.71069
126.13824 1085.2573 -175.71069
130.98982 1085.2573 -175.71069
-235.43761 991.44995 20.210938
-226.27116 1012.4473 -26.280762
-221.12862 1012.4473 -26.280762
-215.98618 1012.4473 -26.280762
-210.84361 1012.4473 -26.280762
-205.70108 1012.4473 -26.280762
-198.84903 1022.7401 -49.070801
-193.75031 1022.7401 -49.070801
-188.6517 1022.7401 -49.070801
-183.55298 1022.7401 -49.070801
-176.9201 1033.033 -71.86084
-171.86523 1033.033 -71.86084
-168.25684 1022.7401 -49.070801
-163.15823 1022.7401 -49.070801
-158.05951 1022.7401 -49.070801
-152.9608 1022.7401 -49.070801
-147.86209 1022.7401 -49.070801
-141.53606 1033.033 -71.86084
-136.48126 1033.033 -71.86084
-130.33231 1042.9139 -93.739014
-125.3195 1042.9139 -93.739014
-120.30671 1042.9139 -93.739014
-114.32607 1052.795 -115.61743
-109.35544 1052.795 -115.61743
-104.38472 1052.795 -115.61743
-99.414001 1052.795 -115.61743
-94.443283 1052.795 -115.61743
-89.472572 1052.795 -115.61743
-84.501938 1052.795 -115.61743
-79.531219 1052.795 -115.61743
-74.560501 1052.795 -115.61743
-70.178902 1042.9139 -93.739014
-65.1661 1042.9139 -93.739014
-60.1534 1042.9139 -93.739014
-55.140602 1042.9139 -93.739014
-50.548603 1033.033 -71.86084
-45.493725 1033.033 -71.86084
-40.438843 1033.033 -71.86084
-35.38406 1033.033 -71.86084
-30.329182 1033.033 -71.86084
-25.274302 1033.033 -71.86084
-20.051102 1042.9139 -93.739014
-15.038302 1042.9139 -93.739014
-10.025599 1042.9139 -93.739014
-4.9707189 1052.795 -115.61743
0 1052.795 -115.61743
4.9302983 1062.2644 -136.58423
9.8607845 1062.2644 -136.58423
14.670103 1071.7338 -157.55103
19.560263 1071.7338 -157.55103
24.450233 1071.7338 -157.55103
29.340206 1071.7338 -157.55103
34.230366 1071.7338 -157.55103
38.811752 1080.7915 -177.6062
43.663334 1080.7915 -177.6062
48.514736 1080.7915 -177.6062
53.366135 1080.7915 -177.6062
58.21772 1080.7915 -177.6062
63.069118 1080.7915 -177.6062
67.9207 1080.7915 -177.6062
72.772102 1080.7915 -177.6062
77.623505 1080.7915 -177.6062
82.47509 1080.7915 -177.6062
87.326485 1080.7915 -177.6062
92.17807 1080.7915 -177.6062
97.029472 1080.7915 -177.6062
102.6909 1071.7338 -157.55103
107.58107 1071.7338 -157.55103
112.47104 1071.7338 -157.55103
117.36121 1071.7338 -157.55103
122.25117 1071.7338 -157.55103
127.14114 1071.7338 -157.55103
132.03131 1071.7338 -157.55103
-226.27116 1007.7136 -28.290039
-221.12862 1007.7136 -28.290039
-215.98618 1007.7136 -28.290039
-210.84361 1007.7136 -28.290039
-205.70108 1007.7136 -28.290039
-198.84903 1018.0468 -51.062988
-193.75031 1018.0468 -51.062988
-188.6517 1018.0468 -51.062988
-183.55298 1018.0468 -51.062988
-176.9201 1028.38 -73.835938
-171.86523 1028.38 -73.835938
-168.25684 1018.0468 -51.062988
-163.15823 1018.0468 -51.062988
-158.05951 1018.0468 -51.062988
-152.9608 1018.0468 -51.062988
-147.86209 1018.0468 -51.062988
-141.53606 1028.38 -73.835938
-136.48126 1028.38 -73.835938
-130.33231 1038.2997 -95.697754
-125.3195 1038.2997 -95.697754
-120.30671 1038.2997 -95.697754
-114.32607 1048.2195 -117.55957
-109.35544 1048.2195 -117.55957
-104.38472 1048.2195 -117.55957
-99.414001 1048.2195 -117.55957
-94.443283 1048.2195 -117.55957
-89.472572 1048.2195 -117.55957
-84.501938 1048.2195 -117.55957
-79.531219 1048.2195 -117.55957
-74.560501 1048.2195 -117.55957
-69.589783 1048.2195 -117.55957
-65.1661 1038.2997 -95.697754
-60.1534 1038.2997 -95.697754
-55.140602 1038.2997 -95.697754
-50.548603 1028.38 -73.835938
-45.493725 1028.38 -73.835938
-40.438843 1028.38 -73.835938
-35.38406 1028.38 -73.835938
-30.329182 1028.38 -73.835938
-25.493467 1018.0468 -51.062988
-20.051102 1038.2997 -95.697754
-15.038302 1038.2997 -95.697754
-10.025599 1038.2997 -95.697754
-4.9707189 1048.2195 -117.55957
0 1057.7261 -138.5105
4.9302983 1057.7261 -138.5105
9.8607845 1057.7261 -138.5105
14.670103 1067.2325 -159.46167
19.560263 1067.2325 -159.46167
24.450233 1067.2325 -159.46167
29.340206 1067.2325 -159.46167
34.230366 1067.2325 -159.46167
38.811752 1076.3257 -179.50171
43.663334 1076.3257 -179.50171
48.514736 1076.3257 -179.50171
53.366135 1076.3257 -179.50171
58.21772 1076.3257 -179.50171
63.069118 1076.3257 -179.50171
67.9207 1076.3257 -179.50171
72.772102 1076.3257 -179.50171
77.623505 1076.3257 -179.50171
82.47509 1076.3257 -179.50171
87.326485 1076.3257 -179.50171
92.17807 1076.3257 -179.50171
97.800934 1067.2325 -159.46167
102.6909 1067.2325 -159.46167
107.58107 1067.2325 -159.46167
113.39855 1057.7261 -138.5105
117.36121 1067.2325 -159.46167
122.25117 1067.2325 -159.46167
127.14114 1067.2325 -159.46167
132.03131 1067.2325 -159.46167
-221.12862 1002.9797 -30.299316
-215.98618 1002.9797 -30.299316
-212.64078 992.6062 -7.543457
-205.70108 1002.9797 -30.299316
-200.55853 1002.9797 -30.299316
-193.75031 1013.3533 -53.055176
-188.6517 1013.3533 -53.055176
-183.55298 1013.3533 -53.055176
-178.45427 1013.3533 -53.055176
-173.35556 1013.3533 -53.055176
-168.25684 1013.3533 -53.055176
-163.15823 1013.3533 -53.055176
-158.05951 1013.3533 -53.055176
-152.9608 1013.3533 -53.055176
-147.86209 1013.3533 -53.055176
-142.76338 1013.3533 -53.055176
-136.48126 1023.7268 -75.811035
-131.42639 1023.7268 -75.811035
-125.3195 1033.6853 -97.65625
-120.30671 1033.6853 -97.65625
-114.32607 1043.6439 -119.50171
-109.35544 1043.6439 -119.50171
-104.38472 1043.6439 -119.50171
-99.414001 1043.6439 -119.50171
-94.443283 1043.6439 -119.50171
-89.472572 1043.6439 -119.50171
-84.501938 1043.6439 -119.50171
-79.531219 1043.6439 -119.50171
-74.560501 1043.6439 -119.50171
-69.589783 1043.6439 -119.50171
-65.1661 1033.6853 -97.65625
-60.1534 1033.6853 -97.65625
-55.140602 1033.6853 -97.65625
-50.548603 1023.7268 -75.811035
-45.493725 1023.7268 -75.811035
-40.438843 1023.7268 -75.811035
-35.38406 1023.7268 -75.811035
-30.329182 1023.7268 -75.811035
-25.493467 1013.3533 -53.055176
-20.219421 1023.7268 -75.811035
-15.038302 1033.6853 -97.65625
-10.025599 1033.6853 -97.65625
-4.9707189 1043.6439 -119.50171
0 1053.1875 -140.43701
4.9302983 1053.1875 -140.43701
9.8607845 1053.1875 -140.43701
14.670103 1062.7312 -161.37231
19.560263 1062.7312 -161.37231
24.450233 1062.7312 -161.37231
29.340206 1062.7312 -161.37231
34.230366 1062.7312 -161.37231
38.811752 1071.8599 -181.39746
43.663334 1071.8599 -181.39746
48.514736 1071.8599 -181.39746
53.366135 1071.8599 -181.39746
58.21772 1071.8599 -181.39746
62.544872 1081.4034 -202.33252
67.356133 1081.4034 -202.33252
72.167206 1081.4034 -202.33252
76.978279 1081.4034 -202.33252
81.789536 1081.4034 -202.33252
87.326485 1071.8599 -181.39746
92.17807 1071.8599 -181.39746
97.800934 1062.7312 -161.37231
102.6909 1062.7312 -161.37231
107.58107 1062.7312 -161.37231
112.47104 1062.7312 -161.37231
118.32904 1053.1875 -140.43701
122.25117 1062.7312 -161.37231
127.14114 1062.7312 -161.37231
132.03131 1062.7312 -161.37231
-223.01344 987.83215 -9.5700684
-217.82718 987.83215 -9.5700684
-212.64078 987.83215 -9.5700684
-207.45441 987.83215 -9.5700684
-200.55853 998.24597 -32.308838
-193.75031 1008.6599 -55.047363
-188.6517 1008.6599 -55.047363
-183.55298 1008.6599 -55.047363
-178.45427 1008.6599 -55.047363
-173.35556 1008.6599 -55.047363
-168.25684 1008.6599 -55.047363
-163.15823 1008.6599 -55.047363
-158.05951 1008.6599 -55.047363
-152.9608 1008.6599 -55.047363
-147.86209 1008.6599 -55.047363
-142.76338 1008.6599 -55.047363
-136.48126 1019.0737 -77.786133
-131.42639 1019.0737 -77.786133
-125.3195 1029.071 -99.61499
-120.30671 1029.071 -99.61499
-115.29391 1029.071 -99.61499
-110.2812 1029.071 -99.61499
-104.38472 1039.0684 -121.44409
-99.414001 1039.0684 -121.44409
-94.443283 1039.0684 -121.44409
-89.472572 1039.0684 -121.44409
-85.2173 1029.071 -99.61499
-80.204498 1029.071 -99.61499
-75.191704 1029.071 -99.61499
-70.178902 1029.071 -99.61499
-65.1661 1029.071 -99.61499
-60.1534 1029.071 -99.61499
-55.603481 1019.0737 -77.786133
-50.548603 1019.0737 -77.786133
-45.493725 1019.0737 -77.786133
-40.438843 1019.0737 -77.786133
-35.38406 1019.0737 -77.786133
-30.329182 1019.0737 -77.786133
-25.493467 1008.6599 -55.047363
-20.051102 1029.071 -99.61499
-15.038302 1029.071 -99.61499
-10.025599 1029.071 -99.61499
-4.9707189 1039.0684 -121.44409
0 1039.0684 -121.44409
4.9302983 1048.649 -142.36353
9.8607845 1048.649 -142.36353
14.670103 1058.2299 -163.28296
19.560263 1058.2299 -163.28296
24.450233 1058.2299 -163.28296
29.340206 1058.2299 -163.28296
34.230366 1058.2299 -163.28296
38.811752 1067.394 -183.29321
43.663334 1067.394 -183.29321
48.514736 1067.394 -183.29321
53.366135 1067.394 -183.29321
58.21772 1067.394 -183.29321
62.544872 1076.9747 -204.2124
67.356133 1076.9747 -204.2124
72.167206 1076.9747 -204.2124
76.978279 1076.9747 -204.2124
81.789536 1076.9747 -204.2124
87.326485 1067.394 -183.29321
92.17807 1067.394 -183.29321
97.800934 1058.2299 -163.28296
102.6909 1058.2299 -163.28296
107.58107 1058.2299 -163.28296
112.47104 1058.2299 -163.28296
118.32904 1048.649 -142.36353
122.25117 1058.2299 -163.28296
127.14114 1058.2299 -163.28296
132.03131 1058.2299 -163.28296
-224.97366 972.18579 12.033691
-217.82718 983.05811 -11.596436
-212.64078 983.05811 -11.596436
-207.45441 983.05811 -11.596436
-200.55853 993.51233 -34.318115
-193.75031 1003.9666 -57.039551
-188.6517 1003.9666 -57.039551
-183.55298 1003.9666 -57.039551
-178.45427 1003.9666 -57.039551
-173.35556 1003.9666 -57.039551
-168.25684 1003.9666 -57.039551
-163.15823 1003.9666 -57.039551
-158.05951 1003.9666 -57.039551
-152.9608 1003.9666 -57.039551
-147.86209 1003.9666 -57.039551
-141.53606 1014.4208 -79.76123
-136.48126 1014.4208 -79.76123
-131.42639 1014.4208 -79.76123
-125.3195 1024.4568 -101.57373
-120.30671 1024.4568 -101.57373
-115.29391 1024.4568 -101.57373
-110.2812 1024.4568 -101.57373
-105.2684 1024.4568 -101.57373
-100.2556 1024.4568 -101.57373
-95.242805 1024.4568 -101.57373
-90.230003 1024.4568 -101.57373
-85.2173 1024.4568 -101.57373
-80.204498 1024.4568 -101.57373
-75.191704 1024.4568 -101.57373
-70.178902 1024.4568 -101.57373
-65.1661 1024.4568 -101.57373
-60.1534 1024.4568 -101.57373
-55.603481 1014.4208 -79.76123
-50.548603 1014.4208 -79.76123
-45.493725 1014.4208 -79.76123
-40.438843 1014.4208 -79.76123
-35.38406 1014.4208 -79.76123
-30.329182 1014.4208 -79.76123
-25.493467 1003.9666 -57.039551
-20.051102 1024.4568 -101.57373
-15.038302 1024.4568 -101.57373
-10.025599 1024.4568 -101.57373
-4.9707189 1034.4928 -123.38623
0 1034.4928 -123.38623
4.9302983 1044.1107 -144.29004
9.8607845 1044.1107 -144.29004
14.670103 1053.7285 -165.1936
19.560263 1053.7285 -165.1936
24.450233 1053.7285 -165.1936
29.340206 1053.7285 -165.1936
34.230366 1053.7285 -165.1936
38.811752 1062.9282 -185.18872
43.663334 1062.9282 -185.18872
48.514736 1062.9282 -185.18872
53.366135 1062.9282 -185.18872
58.21772 1062.9282 -185.18872
62.544872 1072.5461 -206.09229
67.356133 1072.5461 -206.09229
72.167206 1072.5461 -206.09229
76.978279 1072.5461 -206.09229
82.47509 1062.9282 -185.18872
87.326485 1062.9282 -185.18872
92.910973 1053.7285 -165.1936
97.800934 1053.7285 -165.1936
102.6909 1053.7285 -165.1936
107.58107 1053.7285 -165.1936
112.47104 1053.7285 -165.1936
118.32904 1044.1107 -144.29004
122.25117 1053.7285 -165.1936
127.14114 1053.7285 -165.1936
132.03131 1053.7285 -165.1936
136.92126 1053.7285 -165.1936
-232.21146 956.45532 33.602051
-224.97366 967.36975 9.989502
-219.74182 967.36975 9.989502
-214.50984 967.36975 9.989502
-207.45441 978.28394 -13.623047
-200.55853 988.77856 -36.327393
-195.41597 988.77856 -36.327393
-188.6517 999.27319 -59.031738
-183.55298 999.27319 -59.031738
-178.45427 999.27319 -59.031738
-173.35556 999.27319 -59.031738
-168.25684 999.27319 -59.031738
-163.15823 999.27319 -59.031738
-158.05951 999.27319 -59.031738
-152.9608 999.27319 -59.031738
-147.86209 999.27319 -59.031738
-141.53606 1009.7677 -81.736328
-136.48126 1009.7677 -81.736328
-131.42639 1009.7677 -81.736328
-126.37151 1009.7677 -81.736328
-120.30671 1019.8424 -103.53223
-115.29391 1019.8424 -103.53223
-110.2812 1019.8424 -103.53223
-105.2684 1019.8424 -103.53223
-100.2556 1019.8424 -103.53223
-95.242805 1019.8424 -103.53223
-90.230003 1019.8424 -103.53223
-85.2173 1019.8424 -103.53223
-80.204498 1019.8424 -103.53223
-75.191704 1019.8424 -103.53223
-70.178902 1019.8424 -103.53223
-65.1661 1019.8424 -103.53223
-60.1534 1019.8424 -103.53223
-55.603481 1009.7677 -81.736328
-50.548603 1009.7677 -81.736328
-45.493725 1009.7677 -81.736328
-40.438843 1009.7677 -81.736328
-35.690891 999.27319 -59.031738
-30.592182 999.27319 -59.031738
-25.493467 999.27319 -59.031738
-20.219421 1009.7677 -81.736328
-15.038302 1019.8424 -103.53223
-10.025599 1019.8424 -103.53223
-4.9707189 1029.9172 -125.32837
0 1029.9172 -125.32837
4.9302983 1039.5723 -146.21631
9.8607845 1039.5723 -146.21631
14.670103 1049.2272 -167.10449
19.560263 1049.2272 -167.10449
24.450233 1049.2272 -167.10449
29.340206 1049.2272 -167.10449
34.230366 1049.2272 -167.10449
38.811752 1058.4624 -187.08423
43.663334 1058.4624 -187.08423
48.514736 1058.4624 -187.08423
53.366135 1058.4624 -187.08423
58.21772 1058.4624 -187.08423
62.544872 1068.1174 -207.97217
67.356133 1068.1174 -207.97217
72.167206 1068.1174 -207.97217
76.978279 1068.1174 -207.97217
82.47509 1058.4624 -187.08423
88.020805 1049.2272 -167.10449
92.910973 1049.2272 -167.10449
97.800934 1049.2272 -167.10449
102.6909 1049.2272 -167.10449
107.58107 1049.2272 -167.10449
112.47104 1049.2272 -167.10449
117.36121 1049.2272 -167.10449
122.25117 1049.2272 -167.10449
127.14114 1049.2272 -167.10449
132.03131 1049.2272 -167.10449
-232.21146 951.59741 31.539795
-224.97366 962.55371 7.9453125
-219.74182 962.55371 7.9453125
-214.50984 962.55371 7.9453125
-207.45441 973.51001 -15.649414
-200.55853 984.04492 -38.33667
-195.41597 984.04492 -38.33667
-188.6517 994.57983 -61.023926
-183.55298 994.57983 -61.023926
-178.45427 994.57983 -61.023926
-173.35556 994.57983 -61.023926
-168.25684 994.57983 -61.023926
-163.15823 994.57983 -61.023926
-158.05951 994.57983 -61.023926
-152.9608 994.57983 -61.023926
-147.86209 994.57983 -61.023926
-142.76338 994.57983 -61.023926
-136.48126 1005.1147 -83.711182
-131.42639 1005.1147 -83.711182
-126.37151 1005.1147 -83.711182
-120.30671 1015.2281 -105.49097
-115.29391 1015.2281 -105.49097
-110.2812 1015.2281 -105.49097
-105.2684 1015.2281 -105.49097
-100.2556 1015.2281 -105.49097
-95.242805 1015.2281 -105.49097
-90.230003 1015.2281 -105.49097
-85.2173 1015.2281 -105.49097
-80.204498 1015.2281 -105.49097
-75.191704 1015.2281 -105.49097
-70.178902 1015.2281 -105.49097
-65.1661 1015.2281 -105.49097
-60.658363 1005.1147 -83.711182
-55.603481 1005.1147 -83.711182
-50.548603 1005.1147 -83.711182
-45.493725 1005.1147 -83.711182
-40.438843 1005.1147 -83.711182
-35.38406 1005.1147 -83.711182
-30.592182 994.57983 -61.023926
-25.493467 994.57983 -61.023926
-20.219421 1005.1147 -83.711182
-15.164542 1005.1147 -83.711182
-10.025599 1015.2281 -105.49097
-5.0127993 1015.2281 -105.49097
0 1025.3417 -127.27051
4.9302983 1035.0338 -148.14282
9.8607845 1035.0338 -148.14282
14.670103 1044.726 -169.01514
19.560263 1044.726 -169.01514
24.450233 1044.726 -169.01514
29.340206 1044.726 -169.01514
33.96035 1053.9966 -188.97998
38.811752 1053.9966 -188.97998
43.663334 1053.9966 -188.97998
48.514736 1053.9966 -188.97998
53.366135 1053.9966 -188.97998
58.21772 1053.9966 -188.97998
63.069118 1053.9966 -188.97998
67.9207 1053.9966 -188.97998
72.772102 1053.9966 -188.97998
77.623505 1053.9966 -188.97998
82.47509 1053.9966 -188.97998
88.020805 1044.726 -169.01514
92.910973 1044.726 -169.01514
97.800934 1044.726 -169.01514
102.6909 1044.726 -169.01514
107.58107 1044.726 -169.01514
112.47104 1044.726 -169.01514
117.36121 1044.726 -169.01514
122.25117 1044.726 -169.01514
127.14114 1044.726 -169.01514
132.03131 1044.726 -169.01514
-232.21146 946.73938 29.477783
-224.97366 957.73767 5.9008789
-219.74182 957.73767 5.9008789
-214.50984 957.73767 5.9008789
-207.45441 968.73584 -17.676025
-200.55853 979.31116 -40.346191
-195.41597 979.31116 -40.346191
-190.27354 979.31116 -40.346191
-183.55298 989.88647 -63.016357
-178.45427 989.88647 -63.016357
-173.35556 989.88647 -63.016357
-168.25684 989.88647 -63.016357
-163.15823 989.88647 -63.016357
-158.05951 989.88647 -63.016357
-152.9608 989.88647 -63.016357
-147.86209 989.88647 -63.016357
-142.76338 989.88647 -63.016357
-136.48126 1000.4617 -85.686523
-131.42639 1000.4617 -85.686523
-126.37151 1000.4617 -85.686523
-121.31662 1000.4617 -85.686523
-116.26175 1000.4617 -85.686523
-110.2812 1010.6139 -107.44971
-105.2684 1010.6139 -107.44971
-100.2556 1010.6139 -107.44971
-95.242805 1010.6139 -107.44971
-90.230003 1010.6139 -107.44971
-85.2173 1010.6139 -107.44971
-80.204498 1010.6139 -107.44971
-75.191704 1010.6139 -107.44971
-70.178902 1010.6139 -107.44971
-65.713142 1000.4617 -85.686523
-60.658363 1000.4617 -85.686523
-55.603481 1000.4617 -85.686523
-50.548603 1000.4617 -85.686523
-45.493725 1000.4617 -85.686523
-40.438843 1000.4617 -85.686523
-35.38406 1000.4617 -85.686523
-30.592182 989.88647 -63.016357
-25.493467 989.88647 -63.016357
-20.219421 1000.4617 -85.686523
-15.164542 1000.4617 -85.686523
-10.109758 1000.4617 -85.686523
-5.0127993 1010.6139 -107.44971
0 1020.7661 -129.21289
4.970624 1020.7661 -129.21289
9.8607845 1030.4954 -150.06934
14.791082 1030.4954 -150.06934
19.560263 1040.2246 -170.92578
24.450233 1040.2246 -170.92578
29.340206 1040.2246 -170.92578
33.96035 1049.5308 -190.87549
38.811752 1049.5308 -190.87549
43.663334 1049.5308 -190.87549
48.514736 1049.5308 -190.87549
53.366135 1049.5308 -190.87549
58.21772 1049.5308 -190.87549
63.069118 1049.5308 -190.87549
67.9207 1049.5308 -190.87549
72.772102 1049.5308 -190.87549
77.623505 1049.5308 -190.87549
83.130836 1040.2246 -170.92578
88.020805 1040.2246 -170.92578
92.910973 1040.2246 -170.92578
97.800934 1040.2246 -170.92578
102.6909 1040.2246 -170.92578
107.58107 1040.2246 -170.92578
112.47104 1040.2246 -170.92578
117.36121 1040.2246 -170.92578
122.25117 1040.2246 -170.92578
127.14114 1040.2246 -170.92578
132.03131 1040.2246 -170.92578
-232.21146 941.88147 27.415771
-224.97366 952.92175 3.8566895
-219.74182 952.92175 3.8566895
-214.50984 952.92175 3.8566895
-207.45441 963.96191 -19.702393
-202.26804 963.96191 -19.702393
-195.41597 974.57751 -42.355469
-190.27354 974.57751 -42.355469
-185.13098 974.57751 -42.355469
-179.98843 974.57751 -42.355469
-173.35556 985.19312 -65.008545
-168.25684 985.19312 -65.008545
-163.15823 985.19312 -65.008545
-158.05951 985.19312 -65.008545
-152.9608 985.19312 -65.008545
-147.86209 985.19312 -65.008545
-142.76338 985.19312 -65.008545
-137.66476 985.19312 -65.008545
-131.42639 995.80872 -87.661377
-126.37151 995.80872 -87.661377
-121.31662 995.80872 -87.661377
-116.26175 995.80872 -87.661377
-111.20696 995.80872 -87.661377
-106.15208 995.80872 -87.661377
-101.09721 995.80872 -87.661377
-96.04232 995.80872 -87.661377
-90.98745 995.80872 -87.661377
-85.2173 1005.9996 -109.4082
-80.204498 1005.9996 -109.4082
-75.822906 995.80872 -87.661377
-70.768028 995.80872 -87.661377
-65.713142 995.80872 -87.661377
-60.658363 995.80872 -87.661377
-55.603481 995.80872 -87.661377
-50.548603 995.80872 -87.661377
-45.493725 995.80872 -87.661377
-40.438843 995.80872 -87.661377
-35.690891 985.19312 -65.008545
-30.592182 985.19312 -65.008545
-25.493467 985.19312 -65.008545
-20.219421 995.80872 -87.661377
-15.164542 995.80872 -87.661377
-10.025599 1005.9996 -109.4082
-5.0127993 1005.9996 -109.4082
0 1016.1907 -131.15503
4.970624 1016.1907 -131.15503
9.8607845 1025.957 -151.99561
14.791082 1025.957 -151.99561
19.560263 1035.7234 -172.83643
24.450233 1035.7234 -172.83643
29.340206 1035.7234 -172.83643
33.96035 1045.0651 -192.77124
38.811752 1045.0651 -192.77124
43.663334 1045.0651 -192.77124
48.514736 1045.0651 -192.77124
53.366135 1045.0651 -192.77124
58.21772 1045.0651 -192.77124
63.069118 1045.0651 -192.77124
67.9207 1045.0651 -192.77124
72.772102 1045.0651 -192.77124
78.240669 1035.7234 -172.83643
83.130836 1035.7234 -172.83643
88.020805 1035.7234 -172.83643
92.910973 1035.7234 -172.83643
97.800934 1035.7234 -172.83643
102.6909 1035.7234 -172.83643
107.58107 1035.7234 -172.83643
112.47104 1035.7234 -172.83643
117.36121 1035.7234 -172.83643
122.25117 1035.7234 -172.83643
127.14114 1035.7234 -172.83643
-232.21146 937.02332 25.353516
-226.93391 937.02332 25.353516
-219.74182 948.10559 1.8122559
-214.50984 948.10559 1.8122559
-209.27788 948.10559 1.8122559
-202.26804 959.18774 -21.729004
-195.41597 969.84375 -44.364746
-190.27354 969.84375 -44.364746
-185.13098 969.84375 -44.364746
-179.98843 969.84375 -44.364746
-174.8459 969.84375 -44.364746
-168.25684 980.49963 -67.000732
-163.15823 980.49963 -67.000732
-158.05951 980.49963 -67.000732
-152.9608 980.49963 -67.000732
-147.86209 980.49963 -67.000732
-142.76338 980.49963 -67.000732
-137.66476 980.49963 -67.000732
-131.42639 991.15564 -89.636475
-126.37151 991.15564 -89.636475
-121.31662 991.15564 -89.636475
-116.26175 991.15564 -89.636475
-110.2812 1001.3853 -111.36694
-105.2684 1001.3853 -111.36694
-100.2556 1001.3853 -111.36694
-96.04232 991.15564 -89.636475
-90.98745 991.15564 -89.636475
-85.932655 991.15564 -89.636475
-80.877785 991.15564 -89.636475
-75.822906 991.15564 -89.636475
-70.768028 991.15564 -89.636475
-65.713142 991.15564 -89.636475
-60.658363 991.15564 -89.636475
-55.603481 991.15564 -89.636475
-50.548603 991.15564 -89.636475
-45.493725 991.15564 -89.636475
-40.789509 980.49963 -67.000732
-35.690891 980.49963 -67.000732
-30.592182 980.49963 -67.000732
-25.493467 980.49963 -67.000732
-20.219421 991.15564 -89.636475
-15.164542 991.15564 -89.636475
-10.025599 1001.3853 -111.36694
-4.9707189 1011.615 -133.09717
0 1011.615 -133.09717
4.970624 1011.615 -133.09717
9.8607845 1021.4185 -153.92212
14.791082 1021.4185 -153.92212
19.560263 1031.2219 -174.74707
24.450233 1031.2219 -174.74707
29.340206 1031.2219 -174.74707
33.96035 1040.5991 -194.66675
38.811752 1040.5991 -194.66675
43.663334 1040.5991 -194.66675
48.514736 1040.5991 -194.66675
53.366135 1040.5991 -194.66675
58.21772 1040.5991 -194.66675
63.069118 1040.5991 -194.66675
67.9207 1040.5991 -194.66675
72.772102 1040.5991 -194.66675
78.240669 1031.2219 -174.74707
83.130836 1031.2219 -174.74707
88.020805 1031.2219 -174.74707
92.910973 1031.2219 -174.74707
97.800934 1031.2219 -174.74707
102.6909 1031.2219 -174.74707
107.58107 1031.2219 -174.74707
112.47104 1031.2219 -174.74707
117.36121 1031.2219 -174.74707
122.25117 1031.2219 -174.74707
127.14114 1031.2219 -174.74707
-232.21146 932.16541 23.291504
