ply
format ascii 1.0
comment PCL generated
element vertex 1548
property float x
property float y
property float z
element camera 0
property float view_px
property float view_py
property float view_pz
property float x_axisx
property float x_axisy
property float x_axisz
property float y_axisx
property float y_axisy
property float y_axisz
property float z_axisx
property float z_axisy
property float z_axisz
property float focal
property float scalex
property float scaley
property float centerx
property float centery
property int viewportx
property int viewporty
property float k1
property float k2
end_header
82.056 492.33044 -43.907959
87.526314 492.33044 -43.907959
92.996849 492.33044 -43.907959
98.467163 492.33044 -43.907959
103.93769 492.33044 -43.907959
109.408 492.33044 -43.907959
114.87832 492.33044 -43.907959
120.34885 492.33044 -43.907959
125.81916 492.33044 -43.907959
-227.09174 421.76318 54.328613
-221.41443 421.76318 54.328613
-215.73711 421.76318 54.328613
-212.07098 404.54712 80.697998
-204.38258 421.76318 54.328613
-198.70528 421.76318 54.328613
-193.02797 421.76318 54.328613
-187.35065 421.76318 54.328613
-181.67343 421.76318 54.328613
-175.99611 421.76318 54.328613
-170.3188 421.76318 54.328613
-163.1161 438.42371 28.810059
-157.49138 438.42371 28.810059
-153.28697 421.76318 54.328613
-147.60965 421.76318 54.328613
-141.93234 421.76318 54.328613
-136.25502 421.76318 54.328613
-130.57771 421.76318 54.328613
-124.90051 421.76318 54.328613
-119.22319 421.76318 54.328613
-113.54587 421.76318 54.328613
-108.90127 404.54712 80.697998
-103.16959 404.54712 80.697998
-97.438042 404.54712 80.697998
-91.706375 404.54712 80.697998
-85.974701 404.54712 80.697998
-80.243034 404.54712 80.697998
-74.51136 404.54712 80.697998
-37.949188 502.84485 -69.862793
-32.527863 502.84485 -69.862793
-27.106535 502.84485 -69.862793
-21.685207 502.84485 -69.862793
-16.26388 502.84485 -69.862793
-10.842655 502.84485 -69.862793
-5.4213276 502.84485 -69.862793
0 502.84485 -69.862793
5.4212241 502.84485 -69.862793
10.842655 502.84485 -69.862793
16.116598 518.39478 -93.680176
21.488937 518.39478 -93.680176
26.861067 518.39478 -93.680176
32.233196 518.39478 -93.680176
37.605534 518.39478 -93.680176
43.370415 502.84485 -69.862793
48.791843 502.84485 -69.862793
54.21307 502.84485 -69.862793
59.634293 502.84485 -69.862793
65.055725 502.84485 -69.862793
70.476952 502.84485 -69.862793
75.898376 502.84485 -69.862793
82.056 487.29492 -46.04541
87.526314 487.29492 -46.04541
92.996849 487.29492 -46.04541
98.467163 487.29492 -46.04541
103.93769 487.29492 -46.04541
109.408 487.29492 -46.04541
114.87832 487.29492 -46.04541
120.34885 487.29492 -46.04541
125.81916 487.29492 -46.04541
-227.09174 416.53711 52.110352
-221.41443 416.53711 52.110352
-215.73711 416.53711 52.110352
-210.05991 416.53711 52.110352
-204.38258 416.53711 52.110352
-200.60764 399.271 78.458496
-193.02797 416.53711 52.110352
-187.35065 416.53711 52.110352
-181.67343 416.53711 52.110352
-175.99611 416.53711 52.110352
-170.3188 416.53711 52.110352
-164.64149 416.53711 52.110352
-158.96417 416.53711 52.110352
-153.28697 416.53711 52.110352
-147.60965 416.53711 52.110352
-141.93234 416.53711 52.110352
-136.25502 416.53711 52.110352
-130.57771 416.53711 52.110352
-124.90051 416.53711 52.110352
-119.22319 416.53711 52.110352
-114.63293 399.271 78.458496
-108.90127 399.271 78.458496
-103.16959 399.271 78.458496
-97.438042 399.271 78.458496
-91.706375 399.271 78.458496
-85.974701 399.271 78.458496
-80.243034 399.271 78.458496
-74.51136 399.271 78.458496
-43.763157 482.2594 -48.182861
-38.292843 482.2594 -48.182861
-32.822422 482.2594 -48.182861
-27.352001 482.2594 -48.182861
-21.685207 497.85449 -71.980957
-16.26388 497.85449 -71.980957
-10.842655 497.85449 -71.980957
-5.4213276 497.85449 -71.980957
0 497.85449 -71.980957
5.4212241 497.85449 -71.980957
10.842655 497.85449 -71.980957
16.26388 497.85449 -71.980957
21.488937 513.44946 -95.779297
26.861067 513.44946 -95.779297
32.233196 513.44946 -95.779297
37.605534 513.44946 -95.779297
42.977669 513.44946 -95.779297
48.791843 497.85449 -71.980957
54.21307 497.85449 -71.980957
59.634293 497.85449 -71.980957
65.055725 497.85449 -71.980957
70.476952 497.85449 -71.980957
75.898376 497.85449 -71.980957
82.056 482.2594 -48.182861
87.526314 482.2594 -48.182861
92.996849 482.2594 -48.182861
98.467163 482.2594 -48.182861
103.93769 482.2594 -48.182861
110.42493 466.10718 -23.534424
115.9461 466.10718 -23.534424
120.34885 482.2594 -48.182861
125.81916 482.2594 -48.182861
133.73033 449.95508 1.1137695
-221.41443 411.31116 49.89209
-215.73711 411.31116 49.89209
-210.05991 411.31116 49.89209
-204.38258 411.31116 49.89209
-200.60764 393.99512 76.218994
-194.87598 393.99512 76.218994
-187.35065 411.31116 49.89209
-181.67343 411.31116 49.89209
-175.99611 411.31116 49.89209
-170.3188 411.31116 49.89209
-164.64149 411.31116 49.89209
-158.96417 411.31116 49.89209
-153.28697 411.31116 49.89209
-147.60965 411.31116 49.89209
-141.93234 411.31116 49.89209
-136.25502 411.31116 49.89209
-130.57771 411.31116 49.89209
-126.09628 393.99512 76.218994
-120.36461 393.99512 76.218994
-114.63293 393.99512 76.218994
-108.90127 393.99512 76.218994
-103.16959 393.99512 76.218994
-98.362045 376.67908 102.5459
-92.576027 376.67908 102.5459
-85.974701 393.99512 76.218994
-80.243034 393.99512 76.218994
-43.763157 477.22388 -50.320312
-38.292843 477.22388 -50.320312
-32.822422 477.22388 -50.320312
-27.352001 477.22388 -50.320312
-21.881578 477.22388 -50.320312
-16.41116 477.22388 -50.320312
-10.940842 477.22388 -50.320312
-5.4213276 492.86426 -74.099121
0 492.86426 -74.099121
5.4212241 492.86426 -74.099121
10.842655 492.86426 -74.099121
16.26388 492.86426 -74.099121
21.488937 508.50439 -97.878418
26.861067 508.50439 -97.878418
32.52776 492.86426 -74.099121
37.605534 508.50439 -97.878418
42.977669 508.50439 -97.878418
48.791843 492.86426 -74.099121
54.21307 492.86426 -74.099121
59.634293 492.86426 -74.099121
65.055725 492.86426 -74.099121
70.476952 492.86426 -74.099121
76.585686 477.22388 -50.320312
82.056 477.22388 -50.320312
87.526314 477.22388 -50.320312
92.996849 477.22388 -50.320312
98.467163 477.22388 -50.320312
103.93769 477.22388 -50.320312
110.42493 461.0249 -25.69165
115.9461 461.0249 -25.69165
121.46747 461.0249 -25.69165
126.98864 461.0249 -25.69165
133.73033 444.82617 -1.0632324
-221.41443 406.08521 47.673828
-215.73711 406.08521 47.673828
-212.07098 388.71899 73.979492
-206.33931 388.71899 73.979492
-200.60764 388.71899 73.979492
-194.87598 388.71899 73.979492
-187.35065 406.08521 47.673828
-181.67343 406.08521 47.673828
-175.99611 406.08521 47.673828
-170.3188 406.08521 47.673828
-164.64149 406.08521 47.673828
-158.96417 406.08521 47.673828
-153.28697 406.08521 47.673828
-147.60965 406.08521 47.673828
-141.93234 406.08521 47.673828
-136.25502 406.08521 47.673828
-130.57771 406.08521 47.673828
-126.09628 388.71899 73.979492
-120.36461 388.71899 73.979492
-114.63293 388.71899 73.979492
-108.90127 388.71899 73.979492
-103.16959 388.71899 73.979492
-97.438042 388.71899 73.979492
-91.706375 388.71899 73.979492
-86.790001 371.35291 100.28516
-81.003975 371.35291 100.28516
-75.217957 371.35291 100.28516
-44.16993 455.9425 -27.848877
-38.648773 455.9425 -27.848877
-32.822422 472.18823 -52.457764
-27.352001 472.18823 -52.457764
-21.881578 472.18823 -52.457764
-16.41116 472.18823 -52.457764
-10.940842 472.18823 -52.457764
-5.4704208 472.18823 -52.457764
0 487.87378 -76.217529
5.4212241 487.87378 -76.217529
10.842655 487.87378 -76.217529
16.26388 487.87378 -76.217529
21.68531 487.87378 -76.217529
27.106535 487.87378 -76.217529
32.52776 487.87378 -76.217529
37.949188 487.87378 -76.217529
43.370415 487.87378 -76.217529
48.791843 487.87378 -76.217529
54.21307 487.87378 -76.217529
59.634293 487.87378 -76.217529
65.644844 472.18823 -52.457764
71.115158 472.18823 -52.457764
76.585686 472.18823 -52.457764
82.056 472.18823 -52.457764
87.526314 472.18823 -52.457764
92.996849 472.18823 -52.457764
98.467163 472.18823 -52.457764
103.93769 472.18823 -52.457764
110.42493 455.9425 -27.848877
115.9461 455.9425 -27.848877
121.46747 455.9425 -27.848877
126.98864 455.9425 -27.848877
133.73033 439.69678 -3.2404785
-217.80254 383.44287 71.739746
-212.07098 383.44287 71.739746
-206.33931 383.44287 71.739746
-200.60764 383.44287 71.739746
-194.87598 383.44287 71.739746
-187.35065 400.85913 45.455322
-181.67343 400.85913 45.455322
-175.99611 400.85913 45.455322
-170.3188 400.85913 45.455322
-164.64149 400.85913 45.455322
-158.96417 400.85913 45.455322
-153.28697 400.85913 45.455322
-149.02284 383.44287 71.739746
-143.29117 383.44287 71.739746
-137.55949 383.44287 71.739746
-131.82784 383.44287 71.739746
-126.09628 383.44287 71.739746
-119.22319 400.85913 45.455322
-113.54587 400.85913 45.455322
-108.90127 383.44287 71.739746
-103.16959 383.44287 71.739746
-97.438042 383.44287 71.739746
-91.706375 383.44287 71.739746
-86.790001 366.02686 98.024414
-81.003975 366.02686 98.024414
-75.970139 347.48706 126.00464
-32.822422 467.15283 -54.595215
-27.352001 467.15283 -54.595215
-21.881578 467.15283 -54.595215
-16.41116 467.15283 -54.595215
-10.940842 467.15283 -54.595215
-5.4704208 467.15283 -54.595215
0 482.8833 -78.335938
5.4212241 482.8833 -78.335938
10.842655 482.8833 -78.335938
16.26388 482.8833 -78.335938
21.68531 482.8833 -78.335938
27.106535 482.8833 -78.335938
32.52776 482.8833 -78.335938
37.949188 482.8833 -78.335938
43.370415 482.8833 -78.335938
48.791843 482.8833 -78.335938
54.21307 482.8833 -78.335938
60.174316 467.15283 -54.595215
65.644844 467.15283 -54.595215
71.115158 467.15283 -54.595215
76.585686 467.15283 -54.595215
82.056 467.15283 -54.595215
87.526314 467.15283 -54.595215
92.996849 467.15283 -54.595215
98.467163 467.15283 -54.595215
103.93769 467.15283 -54.595215
110.42493 450.86011 -30.006348
115.9461 450.86011 -30.006348
121.46747 450.86011 -30.006348
126.98864 450.86011 -30.006348
133.73033 434.56763 -5.4177246
139.30234 434.56763 -5.4177246
146.24194 417.71338 20.019043
-212.07098 378.16699 69.500488
-206.33931 378.16699 69.500488
-200.60764 378.16699 69.500488
-194.87598 378.16699 69.500488
-187.35065 395.6333 43.237061
-181.67343 395.6333 43.237061
-177.68108 378.16699 69.500488
-171.9494 378.16699 69.500488
-164.64149 395.6333 43.237061
-158.96417 395.6333 43.237061
-153.28697 395.6333 43.237061
-149.02284 378.16699 69.500488
-143.29117 378.16699 69.500488
-137.55949 378.16699 69.500488
-131.82784 378.16699 69.500488
-126.09628 378.16699 69.500488
-119.22319 395.6333 43.237061
-113.54587 395.6333 43.237061
-108.90127 378.16699 69.500488
-103.16959 378.16699 69.500488
-97.438042 378.16699 69.500488
-91.706375 378.16699 69.500488
-86.790001 360.70093 95.763672
-81.003975 360.70093 95.763672
-75.970139 342.10791 123.72119
-32.822422 462.11719 -56.732666
-27.352001 462.11719 -56.732666
-21.881578 462.11719 -56.732666
-16.41116 462.11719 -56.732666
-10.940842 462.11719 -56.732666
-5.4704208 462.11719 -56.732666
0 462.11719 -56.732666
5.4212241 477.89307 -80.454102
10.842655 477.89307 -80.454102
16.26388 477.89307 -80.454102
21.68531 477.89307 -80.454102
27.106535 477.89307 -80.454102
32.52776 477.89307 -80.454102
37.949188 477.89307 -80.454102
43.370415 477.89307 -80.454102
48.791843 477.89307 -80.454102
54.704002 462.11719 -56.732666
60.174316 462.11719 -56.732666
65.644844 462.11719 -56.732666
71.115158 462.11719 -56.732666
76.585686 462.11719 -56.732666
82.056 462.11719 -56.732666
87.526314 462.11719 -56.732666
92.996849 462.11719 -56.732666
98.467163 462.11719 -56.732666
103.93769 462.11719 -56.732666
110.42493 445.77783 -32.163574
115.9461 445.77783 -32.163574
121.46747 445.77783 -32.163574
128.15811 429.4386 -7.5949707
133.73033 429.4386 -7.5949707
139.30234 429.4386 -7.5949707
144.87434 429.4386 -7.5949707
-198.70528 390.40723 41.018799
-193.02797 390.40723 41.018799
-187.35065 390.40723 41.018799
-181.67343 390.40723 41.018799
-177.68108 372.89099 67.260742
-171.9494 372.89099 67.260742
-164.64149 390.40723 41.018799
-158.96417 390.40723 41.018799
-153.28697 390.40723 41.018799
-149.02284 372.89099 67.260742
-143.29117 372.89099 67.260742
-137.55949 372.89099 67.260742
-131.82784 372.89099 67.260742
-126.09628 372.89099 67.260742
-119.22319 390.40723 41.018799
-113.54587 390.40723 41.018799
-108.90127 372.89099 67.260742
-103.16959 372.89099 67.260742
-97.438042 372.89099 67.260742
-91.706375 372.89099 67.260742
-86.790001 355.37476 93.502686
-81.814018 336.72852 121.43799
-75.970139 336.72852 121.43799
-32.822422 457.08179 -58.870117
-27.352001 457.08179 -58.870117
-21.685207 472.90271 -82.572266
-16.26388 472.90271 -82.572266
-10.940842 457.08179 -58.870117
-5.4704208 457.08179 -58.870117
0 457.08179 -58.870117
5.4212241 472.90271 -82.572266
10.842655 472.90271 -82.572266
16.26388 472.90271 -82.572266
21.68531 472.90271 -82.572266
27.106535 472.90271 -82.572266
32.52776 472.90271 -82.572266
37.949188 472.90271 -82.572266
43.370415 472.90271 -82.572266
49.233688 457.08179 -58.870117
54.704002 457.08179 -58.870117
60.174316 457.08179 -58.870117
65.644844 457.08179 -58.870117
71.115158 457.08179 -58.870117
76.585686 457.08179 -58.870117
82.056 457.08179 -58.870117
87.526314 457.08179 -58.870117
92.996849 457.08179 -58.870117
98.467163 457.08179 -58.870117
103.93769 457.08179 -58.870117
110.42493 440.69543 -34.321045
115.9461 440.69543 -34.321045
122.58611 424.30933 -9.7719727
128.15811 424.30933 -9.7719727
133.73033 424.30933 -9.7719727
139.30234 424.30933 -9.7719727
144.87434 424.30933 -9.7719727
150.44656 424.30933 -9.7719727
-198.70528 385.18115 38.800537
-193.02797 385.18115 38.800537
-189.1443 367.61499 65.02124
-183.41275 367.61499 65.02124
-177.68108 367.61499 65.02124
-171.9494 367.61499 65.02124
-166.21774 367.61499 65.02124
-160.48607 367.61499 65.02124
-154.75452 367.61499 65.02124
-149.02284 367.61499 65.02124
-143.29117 367.61499 65.02124
-137.55949 367.61499 65.02124
-131.82784 367.61499 65.02124
-126.09628 367.61499 65.02124
-119.22319 385.18115 38.800537
-113.54587 385.18115 38.800537
-107.86855 385.18115 38.800537
-102.19124 385.18115 38.800537
-97.438042 367.61499 65.02124
-91.706375 367.61499 65.02124
-85.974701 367.61499 65.02124
-81.814018 331.34924 119.15454
-75.970139 331.34924 119.15454
-27.106535 467.91235 -84.690674
-21.685207 467.91235 -84.690674
-16.26388 467.91235 -84.690674
-10.842655 467.91235 -84.690674
-5.4704208 452.04614 -61.007568
0 452.04614 -61.007568
5.4212241 467.91235 -84.690674
10.842655 467.91235 -84.690674
16.26388 467.91235 -84.690674
21.68531 467.91235 -84.690674
27.106535 467.91235 -84.690674
32.52776 467.91235 -84.690674
37.949188 467.91235 -84.690674
43.370415 467.91235 -84.690674
48.791843 467.91235 -84.690674
54.704002 452.04614 -61.007568
60.174316 452.04614 -61.007568
65.644844 452.04614 -61.007568
71.115158 452.04614 -61.007568
76.585686 452.04614 -61.007568
82.056 452.04614 -61.007568
87.526314 452.04614 -61.007568
92.996849 452.04614 -61.007568
98.467163 452.04614 -61.007568
103.93769 452.04614 -61.007568
110.42493 435.61328 -36.478271
115.9461 435.61328 -36.478271
122.58611 419.18042 -11.949219
128.15811 419.18042 -11.949219
133.73033 419.18042 -11.949219
139.30234 419.18042 -11.949219
144.87434 419.18042 -11.949219
150.44656 419.18042 -11.949219
157.49138 402.18079 13.425781
163.1162 402.18079 13.425781
-202.51001 344.72266 88.981201
-196.72398 344.72266 88.981201
-189.1443 362.33899 62.781738
-183.41275 362.33899 62.781738
-177.68108 362.33899 62.781738
-171.9494 362.33899 62.781738
-166.21774 362.33899 62.781738
-160.48607 362.33899 62.781738
-154.75452 362.33899 62.781738
-149.02284 362.33899 62.781738
-143.29117 362.33899 62.781738
-137.55949 362.33899 62.781738
-131.82784 362.33899 62.781738
-126.09628 362.33899 62.781738
-120.36461 362.33899 62.781738
-114.63293 362.33899 62.781738
-107.86855 379.9552 36.582275
-102.19124 379.9552 36.582275
-97.438042 362.33899 62.781738
-91.706375 362.33899 62.781738
-85.974701 362.33899 62.781738
-81.814018 325.96997 116.87109
-75.970139 325.96997 116.87109
-70.799652 307.78552 143.91577
-27.106535 462.92212 -86.808838
-21.488834 478.83337 -110.47314
-16.116598 478.83337 -110.47314
-10.842655 462.92212 -86.808838
-5.4213276 462.92212 -86.808838
0 447.01062 -63.14502
5.4212241 462.92212 -86.808838
10.842655 462.92212 -86.808838
16.41116 447.01062 -63.14502
21.68531 462.92212 -86.808838
27.106535 462.92212 -86.808838
32.52776 462.92212 -86.808838
37.949188 462.92212 -86.808838
43.370415 462.92212 -86.808838
48.791843 462.92212 -86.808838
54.704002 447.01062 -63.14502
60.174316 447.01062 -63.14502
65.644844 447.01062 -63.14502
71.115158 447.01062 -63.14502
76.585686 447.01062 -63.14502
82.056 447.01062 -63.14502
87.526314 447.01062 -63.14502
92.996849 447.01062 -63.14502
98.467163 447.01062 -63.14502
103.93769 447.01062 -63.14502
110.42493 430.53076 -38.635498
115.9461 430.53076 -38.635498
121.46747 430.53076 -38.635498
126.98864 430.53076 -38.635498
132.51001 430.53076 -38.635498
138.03117 430.53076 -38.635498
144.87434 414.05103 -14.126465
150.44656 414.05103 -14.126465
156.01857 414.05103 -14.126465
161.59081 414.05103 -14.126465
167.16281 414.05103 -14.126465
-208.29602 339.39673 86.720459
-202.51001 339.39673 86.720459
-196.72398 339.39673 86.720459
-189.1443 357.06299 60.542236
-183.41275 357.06299 60.542236
-177.68108 357.06299 60.542236
-171.9494 357.06299 60.542236
-166.21774 357.06299 60.542236
-160.48607 357.06299 60.542236
-154.75452 357.06299 60.542236
-149.02284 357.06299 60.542236
-143.29117 357.06299 60.542236
-137.55949 357.06299 60.542236
-131.82784 357.06299 60.542236
-126.09628 357.06299 60.542236
-120.36461 357.06299 60.542236
-114.63293 357.06299 60.542236
-108.90127 357.06299 60.542236
-103.16959 357.06299 60.542236
-97.438042 357.06299 60.542236
-91.706375 357.06299 60.542236
-86.790001 339.39673 86.720459
-81.814018 320.59058 114.58789
-75.970139 320.59058 114.58789
-70.799652 302.35461 141.61035
-21.488834 473.88831 -112.57202
-16.116598 473.88831 -112.57202
-10.842655 457.93176 -88.927246
-5.4213276 457.93176 -88.927246
0 457.93176 -88.927246
5.4212241 457.93176 -88.927246
10.842655 457.93176 -88.927246
16.41116 441.9751 -65.282471
21.881683 441.9751 -65.282471
27.352001 441.9751 -65.282471
32.822319 441.9751 -65.282471
38.292843 441.9751 -65.282471
43.763157 441.9751 -65.282471
49.233688 441.9751 -65.282471
54.704002 441.9751 -65.282471
60.174316 441.9751 -65.282471
65.644844 441.9751 -65.282471
71.115158 441.9751 -65.282471
76.585686 441.9751 -65.282471
82.056 441.9751 -65.282471
87.526314 441.9751 -65.282471
92.996849 441.9751 -65.282471
98.467163 441.9751 -65.282471
103.93769 441.9751 -65.282471
110.42493 425.44849 -40.792969
115.9461 425.44849 -40.792969
121.46747 425.44849 -40.792969
126.98864 425.44849 -40.792969
132.51001 425.44849 -40.792969
138.03117 425.44849 -40.792969
143.55234 425.44849 -40.792969
150.44656 408.92212 -16.303711
156.01857 408.92212 -16.303711
161.59081 408.92212 -16.303711
167.16281 408.92212 -16.303711
172.73482 408.92212 -16.303711
179.99023 391.82568 9.0302734
-208.29602 334.07056 84.459717
-202.51001 334.07056 84.459717
-196.72398 334.07056 84.459717
-190.93796 334.07056 84.459717
-185.15205 334.07056 84.459717
-179.36603 334.07056 84.459717
-171.9494 351.78687 58.302734
-166.21774 351.78687 58.302734
-160.48607 351.78687 58.302734
-154.75452 351.78687 58.302734
-149.02284 351.78687 58.302734
-143.29117 351.78687 58.302734
-137.55949 351.78687 58.302734
-131.82784 351.78687 58.302734
-126.09628 351.78687 58.302734
-120.36461 351.78687 58.302734
-114.63293 351.78687 58.302734
-108.90127 351.78687 58.302734
-103.16959 351.78687 58.302734
-97.438042 351.78687 58.302734
-92.576027 334.07056 84.459717
-86.790001 334.07056 84.459717
-81.814018 315.2113 112.30444
-76.699524 296.92358 139.30518
-21.488834 468.94312 -114.67114
-16.116598 468.94312 -114.67114
-10.744469 468.94312 -114.67114
-5.4213276 452.94141 -91.04541
0 452.94141 -91.04541
5.4212241 452.94141 -91.04541
10.842655 452.94141 -91.04541
16.26388 452.94141 -91.04541
21.881683 436.93945 -67.419922
27.352001 436.93945 -67.419922
32.52776 452.94141 -91.04541
37.949188 452.94141 -91.04541
43.763157 436.93945 -67.419922
49.233688 436.93945 -67.419922
54.704002 436.93945 -67.419922
60.174316 436.93945 -67.419922
65.644844 436.93945 -67.419922
71.115158 436.93945 -67.419922
76.585686 436.93945 -67.419922
82.056 436.93945 -67.419922
87.526314 436.93945 -67.419922
92.996849 436.93945 -67.419922
98.467163 436.93945 -67.419922
103.93769 436.93945 -67.419922
110.42493 420.36621 -42.950195
115.9461 420.36621 -42.950195
121.46747 420.36621 -42.950195
126.98864 420.36621 -42.950195
132.51001 420.36621 -42.950195
138.03117 420.36621 -42.950195
143.55234 420.36621 -42.950195
150.44656 403.79285 -18.480957
156.01857 403.79285 -18.480957
161.59081 403.79285 -18.480957
167.16281 403.79285 -18.480957
172.73482 403.79285 -18.480957
179.99023 386.64807 6.8325195
185.61484 386.64807 6.8325195
-208.29602 328.74463 82.198975
-202.51001 328.74463 82.198975
-196.72398 328.74463 82.198975
-190.93796 328.74463 82.198975
-185.15205 328.74463 82.198975
-179.36603 328.74463 82.198975
-171.9494 346.51099 56.063232
-166.21774 346.51099 56.063232
-160.48607 346.51099 56.063232
-154.75452 346.51099 56.063232
-149.02284 346.51099 56.063232
-143.29117 346.51099 56.063232
-137.55949 346.51099 56.063232
-131.82784 346.51099 56.063232
-126.09628 346.51099 56.063232
-120.36461 346.51099 56.063232
-114.63293 346.51099 56.063232
-108.90127 346.51099 56.063232
-103.16959 346.51099 56.063232
-97.438042 346.51099 56.063232
-92.576027 328.74463 82.198975
-86.790001 328.74463 82.198975
-81.814018 309.83203 110.021
-76.699524 291.49268 136.99976
-16.116598 463.99805 -116.77026
-10.744469 463.99805 -116.77026
-5.3722343 463.99805 -116.77026
0 447.95117 -93.163574
5.4212241 447.95117 -93.163574
10.842655 447.95117 -93.163574
16.26388 447.95117 -93.163574
21.68531 447.95117 -93.163574
27.106535 447.95117 -93.163574
32.52776 447.95117 -93.163574
37.949188 447.95117 -93.163574
43.763157 431.90405 -69.557373
49.233688 431.90405 -69.557373
54.704002 431.90405 -69.557373
60.174316 431.90405 -69.557373
65.644844 431.90405 -69.557373
71.115158 431.90405 -69.557373
76.585686 431.90405 -69.557373
82.056 431.90405 -69.557373
87.526314 431.90405 -69.557373
92.996849 431.90405 -69.557373
98.467163 431.90405 -69.557373
103.93769 431.90405 -69.557373
109.408 431.90405 -69.557373
115.9461 415.28394 -45.107422
121.46747 415.28394 -45.107422
126.98864 415.28394 -45.107422
132.51001 415.28394 -45.107422
138.03117 415.28394 -45.107422
143.55234 415.28394 -45.107422
150.44656 398.66382 -20.657959
156.01857 398.66382 -20.657959
161.59081 398.66382 -20.657959
167.16281 398.66382 -20.657959
174.36542 381.47058 4.6347656
179.99023 381.47058 4.6347656
185.61484 381.47058 4.6347656
193.02808 364.27734 29.92749
-202.51001 323.41846 79.938232
-196.72398 323.41846 79.938232
-190.93796 323.41846 79.938232
-185.15205 323.41846 79.938232
-179.36603 323.41846 79.938232
-171.9494 341.23499 53.82373
-166.21774 341.23499 53.82373
-160.48607 341.23499 53.82373
-156.22206 323.41846 79.938232
-149.02284 341.23499 53.82373
-143.29117 341.23499 53.82373
-137.55949 341.23499 53.82373
-131.82784 341.23499 53.82373
-126.09628 341.23499 53.82373
-120.36461 341.23499 53.82373
-114.63293 341.23499 53.82373
-108.90127 341.23499 53.82373
-103.16959 341.23499 53.82373
-97.438042 341.23499 53.82373
-92.576027 323.41846 79.938232
-86.790001 323.41846 79.938232
-81.003975 323.41846 79.938232
-75.970139 304.45264 107.73755
-70.799652 286.06177 134.69458
-64.899658 286.06177 134.69458
-16.116598 459.05286 -118.86938
-10.744469 459.05286 -118.86938
-5.3722343 459.05286 -118.86938
0 459.05286 -118.86938
5.4212241 442.96069 -95.281982
10.842655 442.96069 -95.281982
16.26388 442.96069 -95.281982
21.68531 442.96069 -95.281982
27.106535 442.96069 -95.281982
32.822319 426.86841 -71.694824
38.292843 426.86841 -71.694824
43.763157 426.86841 -71.694824
49.233688 426.86841 -71.694824
54.704002 426.86841 -71.694824
60.174316 426.86841 -71.694824
65.644844 426.86841 -71.694824
71.115158 426.86841 -71.694824
76.585686 426.86841 -71.694824
82.056 426.86841 -71.694824
87.526314 426.86841 -71.694824
92.996849 426.86841 -71.694824
98.467163 426.86841 -71.694824
103.93769 426.86841 -71.694824
109.408 426.86841 -71.694824
115.9461 410.20154 -47.264893
121.46747 410.20154 -47.264893
126.98864 410.20154 -47.264893
132.51001 410.20154 -47.264893
138.03117 410.20154 -47.264893
143.55234 410.20154 -47.264893
150.44656 393.53455 -22.835205
156.01857 393.53455 -22.835205
161.59081 393.53455 -22.835205
167.16281 393.53455 -22.835205
174.36542 376.29297 2.4370117
179.99023 376.29297 2.4370117
185.61484 376.29297 2.4370117
193.02808 359.05127 27.708984
198.70528 359.05127 27.708984
-202.51001 318.09253 77.67749
-196.72398 318.09253 77.67749
-190.93796 318.09253 77.67749
-185.15205 318.09253 77.67749
-179.36603 318.09253 77.67749
-173.58 318.09253 77.67749
-167.79399 318.09253 77.67749
-162.00795 318.09253 77.67749
-156.22206 318.09253 77.67749
-150.43602 318.09253 77.67749
-143.29117 335.95898 51.583984
-137.55949 335.95898 51.583984
-131.82784 335.95898 51.583984
-126.09628 335.95898 51.583984
-120.36461 335.95898 51.583984
-114.63293 335.95898 51.583984
-108.90127 335.95898 51.583984
-103.16959 335.95898 51.583984
-97.438042 335.95898 51.583984
-91.706375 335.95898 51.583984
-85.974701 335.95898 51.583984
-81.003975 318.09253 77.67749
-75.970139 299.07349 105.45435
-70.799652 280.63086 132.38916
-63.048141 335.95898 51.583984
-57.316467 335.95898 51.583984
-10.744469 454.10779 -120.96851
-5.3722343 454.10779 -120.96851
0 454.10779 -120.96851
5.3721313 454.10779 -120.96851
10.842655 437.97046 -97.400146
16.26388 437.97046 -97.400146
21.68531 437.97046 -97.400146
27.352001 421.83301 -73.832275
32.822319 421.83301 -73.832275
38.292843 421.83301 -73.832275
43.763157 421.83301 -73.832275
49.233688 421.83301 -73.832275
54.704002 421.83301 -73.832275
60.174316 421.83301 -73.832275
65.644844 421.83301 -73.832275
71.115158 421.83301 -73.832275
76.585686 421.83301 -73.832275
82.056 421.83301 -73.832275
87.526314 421.83301 -73.832275
92.996849 421.83301 -73.832275
99.382401 405.11914 -49.422119
104.90378 405.11914 -49.422119
110.42493 405.11914 -49.422119
115.9461 405.11914 -49.422119
121.46747 405.11914 -49.422119
126.98864 405.11914 -49.422119
132.51001 405.11914 -49.422119
138.03117 405.11914 -49.422119
143.55234 405.11914 -49.422119
150.44656 388.40552 -25.012451
156.01857 388.40552 -25.012451
161.59081 388.40552 -25.012451
167.16281 388.40552 -25.012451
174.36542 371.11548 0.23925781
179.99023 371.11548 0.23925781
185.61484 371.11548 0.23925781
191.23967 371.11548 0.23925781
198.70528 353.82544 25.490723
-202.51001 312.76648 75.416748
-196.72398 312.76648 75.416748
-190.93796 312.76648 75.416748
-185.15205 312.76648 75.416748
-179.36603 312.76648 75.416748
-173.58 312.76648 75.416748
-167.79399 312.76648 75.416748
-162.00795 312.76648 75.416748
-156.22206 312.76648 75.416748
-150.43602 312.76648 75.416748
-143.29117 330.68286 49.344482
-137.55949 330.68286 49.344482
-131.82784 330.68286 49.344482
-126.09628 330.68286 49.344482
-120.36461 330.68286 49.344482
-114.63293 330.68286 49.344482
-108.90127 330.68286 49.344482
-103.16959 330.68286 49.344482
-97.438042 330.68286 49.344482
-91.706375 330.68286 49.344482
-85.974701 330.68286 49.344482
-81.003975 312.76648 75.416748
-75.970139 293.69409 103.1709
-70.126366 293.69409 103.1709
-63.048141 330.68286 49.344482
-57.316467 330.68286 49.344482
-51.584797 330.68286 49.344482
0 449.1626 -123.06763
5.3721313 449.1626 -123.06763
10.842655 432.97998 -99.518555
16.26388 432.97998 -99.518555
21.68531 432.97998 -99.518555
27.352001 416.79749 -75.969727
32.822319 416.79749 -75.969727
38.292843 416.79749 -75.969727
43.763157 416.79749 -75.969727
49.233688 416.79749 -75.969727
54.704002 416.79749 -75.969727
60.174316 416.79749 -75.969727
65.644844 416.79749 -75.969727
71.115158 416.79749 -75.969727
76.585686 416.79749 -75.969727
82.056 416.79749 -75.969727
87.526314 416.79749 -75.969727
93.861237 400.03687 -51.57959
99.382401 400.03687 -51.57959
104.90378 400.03687 -51.57959
110.42493 400.03687 -51.57959
115.9461 400.03687 -51.57959
121.46747 400.03687 -51.57959
126.98864 400.03687 -51.57959
132.51001 400.03687 -51.57959
138.03117 400.03687 -51.57959
143.55234 400.03687 -51.57959
149.07372 400.03687 -51.57959
154.59486 400.03687 -51.57959
161.59081 383.27637 -27.189697
167.16281 383.27637 -27.189697
172.73482 383.27637 -27.189697
179.99023 365.93787 -1.9584961
185.61484 365.93787 -1.9584961
191.23967 365.93787 -1.9584961
198.70528 348.59937 23.272461
204.38248 348.59937 23.272461
-190.93796 307.44043 73.156006
-185.15205 307.44043 73.156006
-177.68108 325.40698 47.10498
-171.9494 325.40698 47.10498
-166.21774 325.40698 47.10498
-162.00795 307.44043 73.156006
-156.22206 307.44043 73.156006
-150.43602 307.44043 73.156006
-143.29117 325.40698 47.10498
-137.55949 325.40698 47.10498
-131.82784 325.40698 47.10498
-126.09628 325.40698 47.10498
-120.36461 325.40698 47.10498
-114.63293 325.40698 47.10498
-108.90127 325.40698 47.10498
-103.16959 325.40698 47.10498
-97.438042 325.40698 47.10498
-91.706375 325.40698 47.10498
-85.974701 325.40698 47.10498
-81.003975 307.44043 73.156006
-75.217957 307.44043 73.156006
-69.432045 307.44043 73.156006
-63.048141 325.40698 47.10498
-57.316467 325.40698 47.10498
-51.584797 325.40698 47.10498
5.4212241 427.98975 -101.63672
10.842655 427.98975 -101.63672
16.26388 427.98975 -101.63672
21.68531 427.98975 -101.63672
27.352001 411.76196 -78.107178
32.822319 411.76196 -78.107178
38.292843 411.76196 -78.107178
43.763157 411.76196 -78.107178
49.233688 411.76196 -78.107178
54.704002 411.76196 -78.107178
60.174316 411.76196 -78.107178
65.644844 411.76196 -78.107178
71.115158 411.76196 -78.107178
76.585686 411.76196 -78.107178
82.056 411.76196 -78.107178
87.526314 411.76196 -78.107178
93.861237 394.95459 -53.736816
98.467163 411.76196 -78.107178
103.93769 411.76196 -78.107178
110.42493 394.95459 -53.736816
115.9461 394.95459 -53.736816
121.46747 394.95459 -53.736816
126.98864 394.95459 -53.736816
132.51001 394.95459 -53.736816
138.03117 394.95459 -53.736816
143.55234 394.95459 -53.736816
149.07372 394.95459 -53.736816
154.59486 394.95459 -53.736816
161.59081 378.14722 -29.366699
167.16281 378.14722 -29.366699
172.73482 378.14722 -29.366699
179.99023 360.76038 -4.15625
185.61484 360.76038 -4.15625
191.23967 360.76038 -4.15625
198.70528 343.37354 21.054199
204.38248 343.37354 21.054199
210.05991 343.37354 21.054199
-177.68108 320.13086 44.865479
-171.9494 320.13086 44.865479
-166.21774 320.13086 44.865479
-162.00795 302.1145 70.89502
-156.22206 302.1145 70.89502
-150.43602 302.1145 70.89502
-143.29117 320.13086 44.865479
-137.55949 320.13086 44.865479
-131.82784 320.13086 44.865479
-126.09628 320.13086 44.865479
-120.36461 320.13086 44.865479
-114.63293 320.13086 44.865479
-108.90127 320.13086 44.865479
-103.16959 320.13086 44.865479
-97.438042 320.13086 44.865479
-91.706375 320.13086 44.865479
-85.974701 320.13086 44.865479
-81.003975 302.1145 70.89502
-75.217957 302.1145 70.89502
-69.432045 302.1145 70.89502
-63.646023 302.1145 70.89502
-57.316467 320.13086 44.865479
-51.584797 320.13086 44.865479
-45.85313 320.13086 44.865479
10.842655 422.99927 -103.75513
16.26388 422.99927 -103.75513
21.881683 406.72644 -80.244629
27.352001 406.72644 -80.244629
32.822319 406.72644 -80.244629
38.292843 406.72644 -80.244629
43.763157 406.72644 -80.244629
49.233688 406.72644 -80.244629
54.704002 406.72644 -80.244629
60.174316 406.72644 -80.244629
65.644844 406.72644 -80.244629
71.115158 406.72644 -80.244629
76.585686 406.72644 -80.244629
82.056 406.72644 -80.244629
87.526314 406.72644 -80.244629
93.861237 389.87219 -55.894287
98.467163 406.72644 -80.244629
103.93769 406.72644 -80.244629
110.42493 389.87219 -55.894287
115.9461 389.87219 -55.894287
121.46747 389.87219 -55.894287
126.98864 389.87219 -55.894287
132.51001 389.87219 -55.894287
138.03117 389.87219 -55.894287
143.55234 389.87219 -55.894287
149.07372 389.87219 -55.894287
154.59486 389.87219 -55.894287
161.59081 373.01807 -31.543945
167.16281 373.01807 -31.543945
172.73482 373.01807 -31.543945
179.99023 355.58276 -6.3540039
185.61484 355.58276 -6.3540039
191.23967 355.58276 -6.3540039
198.70528 338.14746 18.835938
204.38248 338.14746 18.835938
210.05991 338.14746 18.835938
-171.9494 314.85498 42.625977
-166.21774 314.85498 42.625977
-162.00795 296.78857 68.634277
-156.22206 296.78857 68.634277
-150.43602 296.78857 68.634277
-143.29117 314.85498 42.625977
-137.55949 314.85498 42.625977
-131.82784 314.85498 42.625977
-126.09628 314.85498 42.625977
-120.36461 314.85498 42.625977
-114.63293 314.85498 42.625977
-108.90127 314.85498 42.625977
-103.16959 314.85498 42.625977
-97.438042 314.85498 42.625977
-91.706375 314.85498 42.625977
-85.974701 314.85498 42.625977
-81.003975 296.78857 68.634277
-75.217957 296.78857 68.634277
-70.126366 277.5564 96.320801
-63.646023 296.78857 68.634277
-57.316467 314.85498 42.625977
-51.584797 314.85498 42.625977
-45.85313 314.85498 42.625977
27.606234 384.78979 -58.051514
33.127396 384.78979 -58.051514
38.292843 401.69092 -82.38208
43.763157 401.69092 -82.38208
49.233688 401.69092 -82.38208
54.704002 401.69092 -82.38208
60.174316 401.69092 -82.38208
65.644844 401.69092 -82.38208
71.115158 401.69092 -82.38208
76.585686 401.69092 -82.38208
82.056 401.69092 -82.38208
87.526314 401.69092 -82.38208
93.861237 384.78979 -58.051514
98.467163 401.69092 -82.38208
103.93769 401.69092 -82.38208
110.42493 384.78979 -58.051514
115.9461 384.78979 -58.051514
121.46747 384.78979 -58.051514
126.98864 384.78979 -58.051514
132.51001 384.78979 -58.051514
138.03117 384.78979 -58.051514
143.55234 384.78979 -58.051514
149.07372 384.78979 -58.051514
154.59486 384.78979 -58.051514
161.59081 367.88892 -33.721191
167.16281 367.88892 -33.721191
172.73482 367.88892 -33.721191
179.99023 350.40527 -8.5517578
185.61484 350.40527 -8.5517578
191.23967 350.40527 -8.5517578
198.70528 332.92151 16.617676
204.38248 332.92151 16.617676
210.05991 332.92151 16.617676
215.73711 332.92151 16.617676
223.53432 314.85498 42.625977
-166.21774 309.57886 40.386475
-160.48607 309.57886 40.386475
-156.22206 291.4624 66.373535
-150.43602 291.4624 66.373535
-143.29117 309.57886 40.386475
-137.55949 309.57886 40.386475
-131.82784 309.57886 40.386475
-126.09628 309.57886 40.386475
-120.36461 309.57886 40.386475
-114.63293 309.57886 40.386475
-108.90127 309.57886 40.386475
-103.16959 309.57886 40.386475
-97.438042 309.57886 40.386475
-91.706375 309.57886 40.386475
-85.974701 309.57886 40.386475
-81.003975 291.4624 66.373535
-75.217957 291.4624 66.373535
-70.126366 272.177 94.037354
-64.282486 272.177 94.037354
-57.860001 291.4624 66.373535
-51.584797 309.57886 40.386475
-45.85313 309.57886 40.386475
33.127396 379.70752 -60.20874
38.292843 396.6554 -84.519531
43.763157 396.6554 -84.519531
49.233688 396.6554 -84.519531
54.704002 396.6554 -84.519531
60.174316 396.6554 -84.519531
65.644844 396.6554 -84.519531
71.115158 396.6554 -84.519531
76.585686 396.6554 -84.519531
82.056 396.6554 -84.519531
87.526314 396.6554 -84.519531
93.861237 379.70752 -60.20874
98.467163 396.6554 -84.519531
103.93769 396.6554 -84.519531
110.42493 379.70752 -60.20874
115.9461 379.70752 -60.20874
121.46747 379.70752 -60.20874
126.98864 379.70752 -60.20874
132.51001 379.70752 -60.20874
138.03117 379.70752 -60.20874
143.55234 379.70752 -60.20874
149.07372 379.70752 -60.20874
154.59486 379.70752 -60.20874
161.59081 362.75977 -35.898438
167.16281 362.75977 -35.898438
172.73482 362.75977 -35.898438
179.99023 345.22766 -10.749512
185.61484 345.22766 -10.749512
191.23967 345.22766 -10.749512
196.86427 345.22766 -10.749512
202.48888 345.22766 -10.749512
210.05991 327.69556 14.399414
215.73711 327.69556 14.399414
221.41454 327.69556 14.399414
-166.21774 304.30286 38.146973
-160.48607 304.30286 38.146973
-156.22206 286.13623 64.112793
-150.43602 286.13623 64.112793
-143.29117 304.30286 38.146973
-137.55949 304.30286 38.146973
-131.82784 304.30286 38.146973
-126.09628 304.30286 38.146973
-120.36461 304.30286 38.146973
-114.63293 304.30286 38.146973
-108.90127 304.30286 38.146973
-103.16959 304.30286 38.146973
-97.438042 304.30286 38.146973
-91.706375 304.30286 38.146973
-86.790001 286.13623 64.112793
-81.003975 286.13623 64.112793
-75.217957 286.13623 64.112793
-70.126366 266.79761 91.753906
-64.282486 266.79761 91.753906
-57.860001 286.13623 64.112793
-51.584797 304.30286 38.146973
-45.85313 304.30286 38.146973
33.127396 374.62512 -62.366211
38.648773 374.62512 -62.366211
43.763157 391.61987 -86.656982
49.233688 391.61987 -86.656982
54.21307 408.02832 -110.10986
59.634293 408.02832 -110.10986
65.055725 408.02832 -110.10986
70.476952 408.02832 -110.10986
75.898376 408.02832 -110.10986
81.319603 408.02832 -110.10986
87.526314 391.61987 -86.656982
93.861237 374.62512 -62.366211
98.467163 391.61987 -86.656982
103.93769 391.61987 -86.656982
110.42493 374.62512 -62.366211
115.9461 374.62512 -62.366211
121.46747 374.62512 -62.366211
126.98864 374.62512 -62.366211
132.51001 374.62512 -62.366211
138.03117 374.62512 -62.366211
143.55234 374.62512 -62.366211
149.07372 374.62512 -62.366211
156.01857 357.63062 -38.075684
161.59081 357.63062 -38.075684
167.16281 357.63062 -38.075684
172.73482 357.63062 -38.075684
178.30704 357.63062 -38.075684
183.87904 357.63062 -38.075684
191.23967 340.05005 -12.947266
196.86427 340.05005 -12.947266
202.48888 340.05005 -12.947266
208.11371 340.05005 -12.947266
215.73711 322.46948 12.180908
221.41454 322.46948 12.180908
227.09174 322.46948 12.180908
-162.00795 280.8103 61.852051
-156.22206 280.8103 61.852051
-150.43602 280.8103 61.852051
-143.29117 299.02686 35.907227
-137.55949 299.02686 35.907227
-131.82784 299.02686 35.907227
-126.09628 299.02686 35.907227
-120.36461 299.02686 35.907227
-114.63293 299.02686 35.907227
-108.90127 299.02686 35.907227
-103.16959 299.02686 35.907227
-97.438042 299.02686 35.907227
-91.706375 299.02686 35.907227
-86.790001 280.8103 61.852051
-81.003975 280.8103 61.852051
-75.217957 280.8103 61.852051
-70.126366 261.41833 89.470703
-64.282486 261.41833 89.470703
-58.438602 261.41833 89.470703
-52.594719 261.41833 89.470703
-46.750835 261.41833 89.470703
38.648773 369.54285 -64.523438
43.763157 386.58423 -88.794434
49.233688 386.58423 -88.794434
54.21307 403.03809 -112.22827
59.634293 403.03809 -112.22827
65.055725 403.03809 -112.22827
70.476952 403.03809 -112.22827
75.898376 403.03809 -112.22827
81.319603 403.03809 -112.22827
86.740829 403.03809 -112.22827
92.996849 386.58423 -88.794434
98.467163 386.58423 -88.794434
103.93769 386.58423 -88.794434
110.42493 369.54285 -64.523438
115.9461 369.54285 -64.523438
121.46747 369.54285 -64.523438
126.98864 369.54285 -64.523438
132.51001 369.54285 -64.523438
138.03117 369.54285 -64.523438
143.55234 369.54285 -64.523438
149.07372 369.54285 -64.523438
154.59486 369.54285 -64.523438
160.11624 369.54285 -64.523438
167.16281 352.50146 -40.252686
172.73482 352.50146 -40.252686
178.30704 352.50146 -40.252686
183.87904 352.50146 -40.252686
191.23967 334.87256 -15.144775
196.86427 334.87256 -15.144775
202.48888 334.87256 -15.144775
208.11371 334.87256 -15.144775
215.73711 317.24353 9.9626465
221.41454 317.24353 9.9626465
227.09174 317.24353 9.9626465
232.76895 317.24353 9.9626465
238.44638 317.24353 9.9626465
-160.48607 293.75073 33.667725
-154.75452 293.75073 33.667725
-149.02284 293.75073 33.667725
-144.65001 275.48413 59.591309
-137.55949 293.75073 33.667725
-131.82784 293.75073 33.667725
-126.09628 293.75073 33.667725
-120.36461 293.75073 33.667725
-114.63293 293.75073 33.667725
-108.90127 293.75073 33.667725
-103.16959 293.75073 33.667725
-97.438042 293.75073 33.667725
-91.706375 293.75073 33.667725
-86.790001 275.48413 59.591309
-81.003975 275.48413 59.591309
-75.970139 256.03894 87.187256
-70.126366 256.03894 87.187256
-64.282486 256.03894 87.187256
-58.438602 256.03894 87.187256
-52.594719 256.03894 87.187256
-46.750835 256.03894 87.187256
59.634293 398.04761 -114.34644
65.055725 398.04761 -114.34644
70.476952 398.04761 -114.34644
75.211067 414.54651 -137.76123
80.583206 414.54651 -137.76123
86.740829 398.04761 -114.34644
92.996849 381.54871 -90.931885
98.467163 381.54871 -90.931885
103.93769 381.54871 -90.931885
109.408 381.54871 -90.931885
115.9461 364.46045 -66.680908
121.46747 364.46045 -66.680908
126.98864 364.46045 -66.680908
132.51001 364.46045 -66.680908
138.03117 364.46045 -66.680908
143.55234 364.46045 -66.680908
149.07372 364.46045 -66.680908
154.59486 364.46045 -66.680908
160.11624 364.46045 -66.680908
165.63741 364.46045 -66.680908
172.73482 347.37231 -42.429932
178.30704 347.37231 -42.429932
183.87904 347.37231 -42.429932
191.23967 329.69482 -17.342773
196.86427 329.69482 -17.342773
202.48888 329.69482 -17.342773
208.11371 329.69482 -17.342773
215.73711 312.01758 7.7443848
221.41454 312.01758 7.7443848
227.09174 312.01758 7.7443848
232.76895 312.01758 7.7443848
238.44638 312.01758 7.7443848
-160.48607 288.47485 31.428223
-154.75452 288.47485 31.428223
-149.02284 288.47485 31.428223
-143.29117 288.47485 31.428223
-137.55949 288.47485 31.428223
-131.82784 288.47485 31.428223
-126.09628 288.47485 31.428223
-120.36461 288.47485 31.428223
-114.63293 288.47485 31.428223
-108.90127 288.47485 31.428223
-103.16959 288.47485 31.428223
-97.438042 288.47485 31.428223
-92.576027 270.1582 57.330566
-86.790001 270.1582 57.330566
-81.003975 270.1582 57.330566
-75.970139 250.65967 84.903809
-70.126366 250.65967 84.903809
-64.282486 250.65967 84.903809
-58.999668 231.75232 111.6416
-53.099682 231.75232 111.6416
-47.199688 231.75232 111.6416
-41.717106 211.66296 140.05054
75.211067 409.60144 -139.86035
80.583206 409.60144 -139.86035
86.740829 393.05737 -116.4646
92.162254 393.05737 -116.4646
98.467163 376.51318 -93.069336
103.93769 376.51318 -93.069336
109.408 376.51318 -93.069336
115.9461 359.37817 -68.838135
121.46747 359.37817 -68.838135
126.98864 359.37817 -68.838135
132.51001 359.37817 -68.838135
138.03117 359.37817 -68.838135
143.55234 359.37817 -68.838135
149.07372 359.37817 -68.838135
154.59486 359.37817 -68.838135
160.11624 359.37817 -68.838135
165.63741 359.37817 -68.838135
172.73482 342.24316 -44.607178
178.30704 342.24316 -44.607178
183.87904 342.24316 -44.607178
191.23967 324.51733 -19.540283
196.86427 324.51733 -19.540283
202.48888 324.51733 -19.540283
208.11371 324.51733 -19.540283
215.73711 306.7915 5.526123
221.41454 306.7915 5.526123
227.09174 306.7915 5.526123
230.61235 324.51733 -19.540283
236.23717 324.51733 -19.540283
241.86177 324.51733 -19.540283
-160.48607 283.19885 29.188721
-154.75452 283.19885 29.188721
-149.02284 283.19885 29.188721
-143.29117 283.19885 29.188721
-137.55949 283.19885 29.188721
-131.82784 283.19885 29.188721
-127.29205 264.83203 55.069824
-121.50603 264.83203 55.069824
-114.63293 283.19885 29.188721
-108.90127 283.19885 29.188721
-103.16959 283.19885 29.188721
-98.362045 264.83203 55.069824
-92.576027 264.83203 55.069824
-86.790001 264.83203 55.069824
-81.003975 264.83203 55.069824
-75.970139 245.2804 82.620361
-70.126366 245.2804 82.620361
-64.282486 245.2804 82.620361
-58.999668 226.32129 109.33618
-53.099682 226.32129 109.33618
-47.199688 226.32129 109.33618
-41.717106 206.177 137.72192
81.319603 388.06689 -118.58301
86.740829 388.06689 -118.58301
92.162254 388.06689 -118.58301
98.467163 371.47766 -95.206787
103.93769 371.47766 -95.206787
110.42493 354.29578 -70.995361
117.01388 337.11401 -46.78418
122.58611 337.11401 -46.78418
128.15811 337.11401 -46.78418
133.73033 337.11401 -46.78418
139.30234 337.11401 -46.78418
144.87434 337.11401 -46.78418
150.44656 337.11401 -46.78418
156.01857 337.11401 -46.78418
161.59081 337.11401 -46.78418
167.16281 337.11401 -46.78418
172.73482 337.11401 -46.78418
178.30704 337.11401 -46.78418
183.87904 337.11401 -46.78418
189.45126 337.11401 -46.78418
196.86427 319.33984 -21.738037
202.48888 319.33984 -21.738037
208.11371 319.33984 -21.738037
213.73831 319.33984 -21.738037
219.36314 319.33984 -21.738037
227.09174 301.56555 3.3078613
230.61235 319.33984 -21.738037
236.23717 319.33984 -21.738037
241.86177 319.33984 -21.738037
-154.75452 277.92285 26.949219
-149.02284 277.92285 26.949219
-144.65001 259.5061 52.809082
-138.86398 259.5061 52.809082
-133.07796 259.5061 52.809082
-127.29205 259.5061 52.809082
-121.50603 259.5061 52.809082
-115.72 259.5061 52.809082
-109.93398 259.5061 52.809082
-104.14796 259.5061 52.809082
-98.362045 259.5061 52.809082
-93.501785 239.90112 80.337158
-87.657906 239.90112 80.337158
-81.814018 239.90112 80.337158
-75.970139 239.90112 80.337158
-70.126366 239.90112 80.337158
-64.282486 239.90112 80.337158
-58.999668 220.89038 107.03101
-53.099682 220.89038 107.03101
-47.199688 220.89038 107.03101
-41.717106 200.69141 135.39331
-35.757504 200.69141 135.39331
87.526314 366.44226 -97.344238
92.996849 366.44226 -97.344238
99.382401 349.2135 -73.152832
104.90378 349.2135 -73.152832
111.44187 331.98499 -48.961426
117.01388 331.98499 -48.961426
122.58611 331.98499 -48.961426
128.15811 331.98499 -48.961426
133.73033 331.98499 -48.961426
139.30234 331.98499 -48.961426
144.87434 331.98499 -48.961426
150.44656 331.98499 -48.961426
154.59486 349.2135 -73.152832
160.11624 349.2135 -73.152832
165.63741 349.2135 -73.152832
172.73482 331.98499 -48.961426
178.30704 331.98499 -48.961426
183.87904 331.98499 -48.961426
189.45126 331.98499 -48.961426
195.02327 331.98499 -48.961426
202.48888 314.16235 -23.935791
208.11371 314.16235 -23.935791
213.73831 314.16235 -23.935791
219.36314 314.16235 -23.935791
227.09174 296.3396 1.0895996
232.76895 296.3396 1.0895996
236.23717 314.16235 -23.935791
241.86177 314.16235 -23.935791
-154.75452 272.64673 24.709717
-149.02284 272.64673 24.709717
-143.29117 272.64673 24.709717
-138.86398 254.17993 50.548096
-133.07796 254.17993 50.548096
-128.56497 234.52173 78.053711
-121.50603 254.17993 50.548096
-115.72 254.17993 50.548096
-109.93398 254.17993 50.548096
-104.14796 254.17993 50.548096
-99.345665 234.52173 78.053711
-93.501785 234.52173 78.053711
-87.657906 234.52173 78.053711
-81.814018 234.52173 78.053711
-75.970139 234.52173 78.053711
-70.126366 234.52173 78.053711
-64.282486 234.52173 78.053711
-58.999668 215.45935 104.72559
-53.099682 215.45935 104.72559
-47.199688 215.45935 104.72559
-41.717106 195.20544 133.0647
-35.757504 195.20544 133.0647
93.861237 344.1311 -75.310059
99.382401 344.1311 -75.310059
105.86987 326.85571 -51.138672
111.44187 326.85571 -51.138672
117.01388 326.85571 -51.138672
122.58611 326.85571 -51.138672
128.15811 326.85571 -51.138672
133.73033 326.85571 -51.138672
139.30234 326.85571 -51.138672
144.87434 326.85571 -51.138672
150.44656 326.85571 -51.138672
154.59486 344.1311 -75.310059
160.11624 344.1311 -75.310059
165.63741 344.1311 -75.310059
172.73482 326.85571 -51.138672
178.30704 326.85571 -51.138672
183.87904 326.85571 -51.138672
189.45126 326.85571 -51.138672
195.02327 326.85571 -51.138672
202.48888 308.98462 -26.133545
208.11371 308.98462 -26.133545
213.73831 308.98462 -26.133545
219.36314 308.98462 -26.133545
227.09174 291.11353 -1.1289062
232.76895 291.11353 -1.1289062
238.44638 291.11353 -1.1289062
244.12358 291.11353 -1.1289062
249.80101 291.11353 -1.1289062
-154.75452 267.37085 22.470215
-149.02284 267.37085 22.470215
-143.29117 267.37085 22.470215
-138.86398 248.854 48.287354
-133.07796 248.854 48.287354
-128.56497 229.14258 75.770264
-121.50603 248.854 48.287354
-115.72 248.854 48.287354
-109.93398 248.854 48.287354
-105.18944 229.14258 75.770264
-99.345665 229.14258 75.770264
-93.501785 229.14258 75.770264
-87.657906 229.14258 75.770264
-81.814018 229.14258 75.770264
-75.970139 229.14258 75.770264
-70.126366 229.14258 75.770264
-64.282486 229.14258 75.770264
-58.999668 210.02856 102.42041
-53.099682 210.02856 102.42041
-47.199688 210.02856 102.42041
-41.717106 189.71973 130.73608
-35.757504 189.71973 130.73608
-29.797901 189.71973 130.73608
100.29764 321.72668 -53.315918
